# .PCD v0.7 - Point Cloud Data file format
VERSION 0.7
FIELDS x y z
SIZE 4 4 4
TYPE F F F
COUNT 1 1 1
WIDTH 1463
HEIGHT 1
VIEWPOINT 0 0 0 1 0 0 0
POINTS 1463
DATA ascii
0.26807797 0.30067378 0.18485042
0.27254608 0.30013067 0.18447806
0.27740675 0.30033153 0.18466333
0.28262073 0.3005867 0.18501513
0.28757754 0.30061972 0.18494804
0.29016334 0.30076924 0.18496616
0.30253494 0.30135015 0.1848153
0.30776042 0.30174524 0.18495621
0.312305 0.30129495 0.18461983
0.31713477 0.30122936 0.18444669
0.32286361 0.30101871 0.18432572
0.32747117 0.30133054 0.18452524
0.33230582 0.30097049 0.18440549
0.33742058 0.30076525 0.18458159
0.34263426 0.30078369 0.18494746
0.3475765 0.30070546 0.18503129
0.35234568 0.30068833 0.18498038
0.3573643 0.3008326 0.18504667
0.36236322 0.30076456 0.18473235
0.36767611 0.3008875 0.18458965
0.37276903 0.30095834 0.18457416
0.37747952 0.30076179 0.18444827
0.38259831 0.30069333 0.18444027
0.38729811 0.30100819 0.18468049
0.39262316 0.30122229 0.18476187
0.39751416 0.30121487 0.18458836
0.4025048 0.30126804 0.18445228
0.40758348 0.30127433 0.18429795
0.4125115 0.30126506 0.1841508
0.41742533 0.30144811 0.18414453
0.42241299 0.30149484 0.18423134
0.42763177 0.30131793 0.18426107
0.43259487 0.30152354 0.18443927
0.43758294 0.30128819 0.18425241
0.4425841 0.30134475 0.1843674
0.44745752 0.30128613 0.18460321
0.4526172 0.30102617 0.1846959
0.45753014 0.30088097 0.18486892
0.46241006 0.300796 0.18501335
0.46738642 0.30120307 0.18537006
0.47256744 0.30093089 0.18521418
0.47742864 0.30111396 0.185344
0.48248661 0.30107829 0.18521959
0.48766345 0.30087292 0.18506373
0.49236253 0.30095038 0.18517524
0.49757102 0.30096945 0.18524095
0.50246191 0.30093825 0.18543279
0.50749052 0.30097681 0.18563308
0.51247954 0.30085558 0.18570526
0.51745605 0.30071351 0.18572128
0.52242565 0.30071837 0.18569621
0.52749288 0.30055562 0.18565258
0.53240097 0.30055043 0.18576941
0.53764218 0.30082294 0.18589465
0.54267389 0.30075303 0.18581191
0.54751724 0.30071333 0.18572214
0.55251533 0.30063805 0.18565853
0.55740744 0.30080035 0.18566632
0.56253517 0.30091679 0.18552718
0.56727016 0.30087325 0.18551096
0.57234913 0.30072334 0.18559344
0.57740635 0.3007465 0.18595943
0.58215749 0.30045792 0.18613112
0.58744353 0.30037695 0.18635981
0.59271419 0.30009112 0.18648049
0.59746176 0.29996049 0.18653391
0.60244274 0.30033541 0.18674193
0.6076746 0.30026019 0.18659456
0.61216033 0.30033755 0.18647742
0.61577034 0.29988217 0.18615539
0.62477428 0.29904085 0.1860594
0.62761903 0.30007628 0.18672214
0.63237131 0.29982635 0.18677625
0.6372416 0.29973757 0.18689656
0.6418823 0.29945603 0.18676701
0.64780933 0.29947823 0.18683876
0.65213299 0.29957074 0.18679129
0.65712911 0.2997748 0.18679003
0.66252589 0.29967946 0.1866243
0.6674847 0.29952094 0.1865931
0.67305368 0.29959634 0.18674044
0.67742252 0.29984167 0.18671311
0.68246764 0.29999852 0.1866515
0.68725622 0.30023769 0.18656565
0.6926046 0.30061218 0.18660581
0.69723994 0.30060488 0.18655853
0.70143807 0.29916629 0.18582486
0.70933038 0.29804581 0.18540415
0.71903646 0.29797623 0.1856461
0.72275496 0.29840916 0.18596753
0.72757548 0.29827258 0.18582489
0.74479616 0.29752177 0.18579143
0.74693072 0.29762962 0.18589804
0.30840415 0.30490404 0.18685414
0.31057632 0.30473772 0.18667728
0.31718102 0.30322903 0.18568775
0.32912743 0.30622593 0.1875205
0.33249623 0.30645204 0.18772422
0.33611706 0.30720392 0.18819623
0.36847886 0.30598003 0.18784341
0.37025094 0.30598432 0.18778567
0.38537028 0.30700451 0.18818086
0.39344829 0.30399492 0.18636167
0.39815843 0.30424449 0.18637718
0.40318224 0.30504382 0.18666606
0.40794912 0.30491251 0.18637379
0.41260415 0.30530733 0.18655165
0.41738871 0.30545247 0.18652873
0.42219472 0.30534318 0.18646759
0.42756537 0.30544996 0.1866633
0.43241817 0.3054933 0.18665892
0.43735281 0.30517918 0.18655924
0.4426356 0.30513149 0.18658094
0.44740808 0.30496934 0.18674111
0.45250085 0.30480665 0.18689872
0.45740056 0.3046777 0.18709777
0.46190041 0.30439743 0.18708199
0.46549329 0.30434299 0.18716173
0.47659436 0.30394617 0.18694919
0.48034745 0.30386201 0.1868708
0.48715338 0.30400974 0.18695936
0.49110836 0.30409861 0.18704325
0.49768427 0.30404347 0.18714531
0.50290799 0.3038649 0.1872215
0.50768977 0.3039996 0.1875007
0.51128221 0.30400574 0.18757114
0.51650065 0.30374211 0.18753882
0.52262747 0.30375797 0.18754242
0.52770406 0.30398333 0.18780282
0.5323326 0.30395913 0.18785828
0.53587925 0.3038114 0.1877313
0.56485492 0.30379897 0.18726172
0.56593752 0.30398396 0.18737486
0.5793485 0.30400801 0.18805066
0.58206737 0.30367547 0.18808493
0.58725768 0.30311349 0.18809898
0.69872904 0.30342218 0.18827039
0.70208699 0.30385602 0.18864967
0.7079218 0.30367985 0.18863204
0.71037966 0.3043344 0.18903461
0.72855425 0.30392453 0.18916604
0.73198599 0.30419058 0.18935449
0.73681676 0.30420211 0.1896401
0.76732093 0.30479938 0.18881275
0.7844395 0.30553684 0.18753377
0.78764772 0.30494741 0.1873481
0.79145384 0.30488345 0.18775393
0.79488623 0.3045429 0.18799707
0.33607733 0.30815321 0.18866231
0.7682538 0.30559459 0.18909585
0.77075094 0.30572087 0.18876578
0.77828997 0.30598077 0.1879238
0.78467345 0.30641261 0.18798165
0.78756893 0.30646446 0.18819578
0.79169536 0.30615476 0.18847071
0.79443753 0.30593833 0.18874261
0.63232499 0.2917406 0.18163572
0.64851332 0.29187 0.18178414
0.73863506 0.29167205 0.18192111
0.75975227 0.29031581 0.18129301
0.76226777 0.2913011 0.18178436
0.76593298 0.29147601 0.18183728
0.39859086 0.29628238 0.1816
0.45833346 0.29590353 0.18170504
0.46357396 0.29625252 0.18216288
0.46694306 0.29637712 0.18222193
0.49663496 0.29632923 0.18220338
0.50253892 0.29587889 0.18221147
0.50891465 0.29614639 0.1826428
0.51231313 0.29587096 0.18253163
0.51930439 0.29596132 0.18266551
0.52417773 0.2964502 0.18295856
0.52584368 0.29535136 0.18225263
0.54368329 0.2961089 0.18282983
0.54712284 0.29586345 0.1826223
0.55175966 0.29602236 0.18276535
0.58466423 0.29441771 0.18243317
0.58726597 0.29521465 0.18304899
0.59238482 0.29530746 0.18325645
0.59835702 0.29526278 0.18348028
0.60268152 0.29521963 0.18345521
0.60746783 0.29498604 0.18320735
0.6124478 0.29474705 0.18299009
0.61683983 0.29498577 0.18308984
0.62942356 0.29508322 0.18367694
0.63252932 0.29479235 0.1835701
0.63718402 0.29455957 0.1835518
0.64256436 0.29404873 0.18328245
0.64641333 0.29367194 0.18298683
0.65462643 0.29244962 0.18197669
0.65798992 0.2942231 0.18301605
0.66230142 0.29537368 0.18374203
0.66741425 0.29552898 0.18390833
0.67227137 0.2950727 0.18367368
0.67743438 0.29497078 0.18355867
0.68245316 0.29561526 0.1838147
0.6859237 0.29460219 0.18309641
0.70228976 0.29488245 0.18330225
0.70581859 0.29524297 0.18364996
0.71302021 0.29340017 0.18282747
0.71830589 0.2933189 0.18291335
0.72182316 0.2939454 0.18336518
0.72860599 0.29466367 0.18365139
0.73253047 0.29455194 0.18361805
0.73792547 0.29425046 0.18346924
0.74250692 0.29428041 0.18359067
0.7473188 0.29500967 0.18424381
0.75273544 0.29514065 0.18432283
0.75736815 0.29486334 0.18398361
0.76268268 0.29432622 0.18348348
0.76667738 0.29436541 0.18325619
0.77250081 0.29524857 0.18342577
0.77638459 0.29537684 0.18318935
0.78276503 0.29556906 0.18291043
0.7882877 0.29571754 0.18314144
0.79293889 0.29485002 0.18296842
0.79738092 0.29474461 0.18351342
0.24786054 0.29895079 0.18472204
0.26880538 0.29927346 0.18394129
0.27101234 0.30038416 0.18461776
0.30254352 0.300302 0.18412004
0.30720654 0.30037275 0.18408008
0.31180826 0.30039948 0.18408151
0.31906676 0.30075824 0.18411277
0.32183424 0.30020764 0.18380333
0.32747635 0.30018732 0.18377155
0.33043003 0.30039045 0.18400863
0.33814505 0.30002567 0.18410519
0.34208342 0.30018973 0.18448277
0.35395873 0.3004255 0.18479843
0.35703719 0.29940602 0.18403554
0.36228582 0.29973605 0.1840446
0.367964 0.30010334 0.18407884
0.37169832 0.29936564 0.18356787
0.37896734 0.30030406 0.18413611
0.38451505 0.30067381 0.18444988
0.38738415 0.29969439 0.18390974
0.39179662 0.29976735 0.18388726
0.39799938 0.29983923 0.18374152
0.40148875 0.29988524 0.18363404
0.40712678 0.30052087 0.18380564
0.41291788 0.29979473 0.18319878
0.41679832 0.29978994 0.18313314
0.42316908 0.29983905 0.18324502
0.426891 0.29931274 0.18301271
0.43325934 0.29909781 0.18292138
0.43762675 0.29958245 0.18315253
0.44240385 0.29976878 0.18336782
0.44721657 0.3008219 0.18421815
0.45215893 0.30096364 0.18461892
0.458316 0.29801318 0.18301471
0.46276146 0.29807824 0.183275
0.46827853 0.2992402 0.18412089
0.47196525 0.2995877 0.18436818
0.47784734 0.29905012 0.18409891
0.48238346 0.29974893 0.18440098
0.48579964 0.30025113 0.18467739
0.49445811 0.29987136 0.18454735
0.49801677 0.29896468 0.18392292
0.50132084 0.29898018 0.1841196
0.50790882 0.29939798 0.18467915
0.5124982 0.29927284 0.18471333
0.51713467 0.29923484 0.18475707
0.52290756 0.2985796 0.18433841
0.52771258 0.29876563 0.18447694
0.53323406 0.29911861 0.18477048
0.53682405 0.29900587 0.18473729
0.54291588 0.29883596 0.18462247
0.54710144 0.29936978 0.18488994
0.55312479 0.29972479 0.18500286
0.55789953 0.29945749 0.18476704
0.56272221 0.2995322 0.18466006
0.56772655 0.29927728 0.18450446
0.57272083 0.29933941 0.18471512
0.57717764 0.29918078 0.18495508
0.58274883 0.29899478 0.18525429
0.58770436 0.29869097 0.18527573
0.59258682 0.29874137 0.1856176
0.59759146 0.29865494 0.18564805
0.60260993 0.29875368 0.18572949
0.60752398 0.29885283 0.18568386
0.61267251 0.29839635 0.18523492
0.61735302 0.29867247 0.18533374
0.62221277 0.29875532 0.18565482
0.62792033 0.29863441 0.18579334
0.63262105 0.29843125 0.18591848
0.637748 0.29809746 0.18586184
0.64232528 0.2984246 0.18611458
0.64739937 0.29856747 0.18622524
0.65235758 0.29861358 0.18613257
0.65755075 0.29845753 0.18588379
0.66274416 0.29813492 0.18560517
0.66755837 0.29856974 0.18592586
0.67256474 0.29866946 0.18616252
0.67748517 0.29874009 0.18599935
0.68221271 0.29870734 0.18586121
0.68772221 0.29863679 0.1855702
0.69255459 0.29846272 0.18533608
0.69764459 0.29875305 0.185498
0.70265317 0.29859516 0.18544804
0.70740813 0.29869771 0.18566784
0.71262455 0.29889083 0.1859273
0.71745682 0.298834 0.18607348
0.72244352 0.29853559 0.18597873
0.72739756 0.298581 0.18598038
0.73254174 0.29842409 0.18587936
0.73780662 0.29800066 0.18570861
0.74243432 0.29809338 0.185967
0.74754882 0.2982094 0.18607545
0.752572 0.29824999 0.18608657
0.75770527 0.29838419 0.18591215
0.76246184 0.29870239 0.18586263
0.76753539 0.29848608 0.18528436
0.7725389 0.29875216 0.18501183
0.77740651 0.29896954 0.18467437
0.78249633 0.29912707 0.18447858
0.78733456 0.29906988 0.18445183
0.79238874 0.29875529 0.18477161
0.79735184 0.29848802 0.18511195
0.24775515 0.30234557 0.18670824
0.25224948 0.302297 0.1866841
0.25559071 0.30212268 0.18646653
0.26842606 0.30315518 0.18638256
0.27243575 0.30275935 0.18612424
0.27722478 0.30260244 0.18616903
0.28196639 0.30316183 0.18670772
0.28814375 0.30325958 0.18666282
0.29212266 0.30407 0.18698528
0.29822037 0.30318704 0.18607268
0.30284485 0.3029809 0.18580309
0.30740818 0.30308622 0.18572475
0.31261069 0.30332977 0.18573283
0.3176935 0.30364648 0.18590343
0.32234499 0.3032954 0.18573441
0.32752481 0.30345374 0.18584085
0.33252063 0.3034665 0.18590878
0.33739144 0.3034195 0.18612885
0.34225082 0.30307326 0.18618444
0.34739301 0.30335549 0.18641533
0.35234663 0.30337968 0.18650472
0.35761356 0.30324191 0.18651353
0.36257353 0.30322212 0.18630984
0.36757946 0.30350861 0.18633462
0.37244698 0.30335727 0.18609269
0.37744191 0.30342206 0.18606567
0.38274559 0.30352703 0.18608773
0.38766807 0.3035073 0.18609023
0.39235422 0.30345261 0.18600298
0.39737338 0.30362186 0.18596904
0.40254116 0.30381069 0.18594287
0.40750742 0.30372912 0.18568645
0.41245469 0.30387911 0.18569595
0.41741088 0.30393937 0.18556601
0.42260525 0.30357841 0.18542665
0.4274419 0.30343449 0.18542698
0.43239194 0.30374113 0.18573341
0.43763798 0.30354646 0.18561806
0.44263339 0.30380547 0.1858114
0.44756582 0.30353504 0.18589708
0.45244077 0.30342519 0.18603423
0.45741215 0.30359405 0.18645762
0.46235475 0.30350992 0.18654902
0.4675597 0.30324098 0.18653794
0.47269839 0.3033005 0.18657967
0.47779751 0.30336481 0.1866037
0.48242468 0.30335045 0.18654068
0.48733571 0.30326483 0.18644841
0.49271989 0.30299452 0.18639141
0.49772173 0.30317649 0.18653163
0.5023886 0.30298793 0.18659067
0.50761187 0.30302873 0.18687652
0.51251298 0.30316618 0.18710661
0.51749653 0.3033019 0.18723463
0.52239174 0.30288738 0.18699515
0.52748418 0.30278456 0.18701953
0.53258443 0.30295455 0.18719597
0.5369634 0.30288157 0.18719518
0.54239184 0.30297333 0.18719411
0.54751885 0.30296442 0.18709716
0.5525983 0.30311149 0.18718269
0.55746007 0.3031922 0.18711604
0.56244451 0.30310479 0.18687205
0.56761891 0.30285734 0.18669255
0.57248247 0.30284032 0.18684949
0.57759786 0.30288324 0.18722652
0.58267683 0.3025997 0.18744016
0.58738506 0.30220005 0.18739706
0.59249204 0.30214128 0.18768646
0.59763169 0.30224091 0.18790944
0.60269129 0.30220437 0.18789841
0.60734183 0.30221575 0.18774338
0.61254662 0.3025457 0.18773717
0.61744308 0.30259758 0.18776061
0.62273103 0.30242592 0.18791759
0.62761384 0.30220497 0.18797213
0.63250792 0.30211923 0.18816148
0.63754678 0.30196819 0.18824084
0.64266729 0.30189958 0.18829383
0.64745945 0.30205467 0.1884256
0.65242255 0.30208188 0.1883532
0.65763599 0.30202669 0.18815739
0.66242248 0.30210999 0.18812098
0.66753727 0.30220056 0.18822916
0.67253208 0.30221221 0.18832934
0.67746776 0.30230629 0.18824038
0.68240285 0.3023617 0.18812701
0.68752116 0.30231175 0.18784146
0.6924544 0.30277669 0.18798795
0.69755465 0.30279255 0.1879479
0.70245421 0.30276316 0.18791406
0.70741594 0.30265337 0.18795046
0.71253133 0.30239904 0.18790001
0.71747845 0.30235702 0.18802808
0.72243059 0.30232012 0.18809299
0.72751045 0.30249614 0.18822101
0.73239279 0.30227554 0.18810897
0.73747545 0.30221432 0.18821092
0.74247235 0.30230853 0.18845309
0.74749225 0.30238959 0.18863194
0.75247669 0.30229032 0.1884245
0.75757384 0.30275649 0.18844248
0.76238167 0.30252036 0.18785176
0.76745754 0.30263123 0.18733035
0.7727204 0.30287334 0.18691888
0.77698398 0.30320346 0.18663111
0.78250486 0.30235246 0.1859435
0.78817046 0.30331451 0.18650262
0.79243618 0.30301219 0.18668641
0.79777789 0.30255479 0.18715569
0.24436478 0.30750316 0.18967913
0.2479043 0.30662113 0.18931171
0.25109577 0.30711547 0.1896092
0.25769871 0.30761191 0.18974833
0.26215538 0.30786934 0.18942186
0.26782292 0.30733174 0.18892577
0.27294278 0.30715722 0.18880123
0.27766392 0.30694324 0.18892919
0.28230414 0.30681792 0.18896596
0.28780082 0.30709523 0.1889662
0.29270807 0.3072162 0.18887225
0.29768521 0.30716982 0.18865149
0.30266923 0.30711737 0.18842281
0.30772766 0.30709699 0.18826003
0.31248373 0.30707529 0.18799822
0.31759411 0.30735555 0.18812275
0.32254106 0.30734286 0.18819663
0.32767627 0.30735359 0.18816361
0.33229735 0.30722332 0.18812561
0.33767608 0.30719766 0.18815322
0.34258965 0.30712378 0.18834613
0.34732729 0.30719486 0.18842804
0.35239893 0.30730698 0.18865205
0.35739592 0.30705622 0.18857124
0.36251569 0.30731484 0.18878333
0.36746484 0.30715048 0.18848796
0.37247688 0.30710104 0.18833804
0.37733305 0.30719465 0.18839057
0.38254961 0.30732334 0.18839452
0.3875317 0.30712143 0.1881941
0.39253229 0.30706546 0.18810572
0.3976188 0.3072955 0.18810096
0.4025209 0.30726042 0.18790042
0.40742722 0.30746087 0.18777017
0.41223174 0.30728447 0.18760239
0.41760483 0.30729198 0.18753386
0.42257622 0.30738729 0.1876334
0.42758408 0.307455 0.18776894
0.43249702 0.30730698 0.18775587
0.43743333 0.30739531 0.18785717
0.44241136 0.30739978 0.18788207
0.44750866 0.30727571 0.18801478
0.45251158 0.30709082 0.18819949
0.45745355 0.30722758 0.18851085
0.46245953 0.30689389 0.18849121
0.46755275 0.30668956 0.18854211
0.47261414 0.30667678 0.18855847
0.47751054 0.30678213 0.18854721
0.48243237 0.30667835 0.18849759
0.48766771 0.30688232 0.18864298
0.49258435 0.30688679 0.18870635
0.49739477 0.3067334 0.18871552
0.50238287 0.30660337 0.1887686
0.50747591 0.30657011 0.18899404
0.51248676 0.30655232 0.18914774
0.51742947 0.30644667 0.18914445
0.52248025 0.30642268 0.18913664
0.52724999 0.30622759 0.18911046
0.53264058 0.3062591 0.18924996
0.53760338 0.30636591 0.18935625
0.54270428 0.30616271 0.1892377
0.54759538 0.30637905 0.18929879
0.55249327 0.3063933 0.18927836
0.55765915 0.30650917 0.18921895
0.5624311 0.30667323 0.18905117
0.56745595 0.30654496 0.18896008
0.57244885 0.30658802 0.18914893
0.57729197 0.30637816 0.18935558
0.58254313 0.30634677 0.18967231
0.58748591 0.30590132 0.18976703
0.59256369 0.30624303 0.19019021
0.59745473 0.30620825 0.19033317
0.6024285 0.30614224 0.19028302
0.60751873 0.30603984 0.19005586
0.61186492 0.30599397 0.1898375
0.61832416 0.30709442 0.19036298
0.62263745 0.30645072 0.1902146
0.62745202 0.30599785 0.19013554
0.63233829 0.3059186 0.19039109
0.63725734 0.30575007 0.19052161
0.64260334 0.30580708 0.19068234
0.64762545 0.30572855 0.19070265
0.65252793 0.30585533 0.19069362
0.65760851 0.30598065 0.19061886
0.66248566 0.30600786 0.19056721
0.66753316 0.30592024 0.19048874
0.67248213 0.30567193 0.19051109
0.67764306 0.30590603 0.19046764
0.68239385 0.30594924 0.19035803
0.68745714 0.30580148 0.19003426
0.69241327 0.30595857 0.18998128
0.69677764 0.30592677 0.18986638
0.70429772 0.30547458 0.18961911
0.70709008 0.30538926 0.18955396
0.71269667 0.30550388 0.18967013
0.71752548 0.30554524 0.18979019
0.72140861 0.30531025 0.18980695
0.72821349 0.30539015 0.18993765
0.73236126 0.30539262 0.18998079
0.73785931 0.30528006 0.19003198
0.74268186 0.30511066 0.19015975
0.75338942 0.30516005 0.18996876
0.7616173 0.30539429 0.18953569
0.77600414 0.30663368 0.18852554
0.79101503 0.30618873 0.18828921
0.25137609 0.30991608 0.19120507
0.26324192 0.30978158 0.19051979
0.26790258 0.30997163 0.19055298
0.27315131 0.30988306 0.19050294
0.27731362 0.30987674 0.19067806
0.28197646 0.30974317 0.19065031
0.28663015 0.31014982 0.19077665
0.29973963 0.30977634 0.19017936
0.30333236 0.31045577 0.19053
0.3076039 0.31055203 0.19051109
0.31174976 0.30951962 0.18965724
0.32261044 0.31029138 0.18997394
0.32756594 0.3102051 0.18984903
0.33293366 0.31008694 0.18976276
0.3372623 0.31043765 0.18995203
0.34257817 0.30973715 0.18973815
0.34757119 0.31074893 0.19030766
0.35217717 0.31086668 0.19051293
0.3570447 0.30999643 0.19013542
0.3634983 0.31052148 0.19053951
0.36756283 0.31060058 0.19052456
0.37218165 0.31061861 0.19044226
0.37753153 0.31111857 0.19072497
0.38278285 0.31055558 0.19041325
0.38769603 0.31050181 0.19026501
0.39223218 0.31056446 0.19015577
0.39728767 0.31066993 0.19006963
0.40284535 0.31079614 0.18988547
0.40762588 0.31100756 0.18982944
0.41250104 0.31087962 0.18976483
0.41735357 0.31080416 0.18974051
0.42239717 0.31091279 0.18973596
0.42772228 0.31094083 0.18986811
0.43229893 0.31079087 0.18995523
0.43746454 0.31098872 0.19007657
0.44237593 0.31078839 0.18998209
0.447436 0.31076583 0.19008631
0.45254251 0.31058004 0.19027157
0.45741814 0.31040192 0.19036575
0.46262142 0.31052902 0.19060336
0.46745083 0.31054607 0.19076663
0.47253078 0.31066671 0.19080216
0.47744116 0.31081977 0.19086459
0.48231572 0.31063545 0.19087829
0.48737183 0.31040025 0.19066182
0.49234295 0.31043223 0.19081479
0.4975504 0.31029227 0.19081634
0.502536 0.31007555 0.1908005
0.50774193 0.3100208 0.19103687
0.5122841 0.3100884 0.19123772
0.51727396 0.30993426 0.19120476
0.52221304 0.30984238 0.19118455
0.52746278 0.3097353 0.19117583
0.53225112 0.30981585 0.19127721
0.53747308 0.30969059 0.19137089
0.54234499 0.30973011 0.19136636
0.54693431 0.30985636 0.19139121
0.55262649 0.3099573 0.19137661
0.55770141 0.31021968 0.19142137
0.56220257 0.31009626 0.19120049
0.56801379 0.30993691 0.19103356
0.57259613 0.31004474 0.1911485
0.57746303 0.30998635 0.19148491
0.58207744 0.3097938 0.19167411
0.58742857 0.30943775 0.19175355
0.59250236 0.30932295 0.19197512
0.59724551 0.30914301 0.19201459
0.60244203 0.30907893 0.19193809
0.60689205 0.30916205 0.19183004
0.61238933 0.30942869 0.19172084
0.61756867 0.30945686 0.19168244
0.6223492 0.3094658 0.19189119
0.62771058 0.30933502 0.19207519
0.63227725 0.30898726 0.19216242
0.63622689 0.30883101 0.19217987
0.64803022 0.30884364 0.19247001
0.663463 0.30879575 0.1921732
0.66862369 0.30875894 0.19219011
0.67378592 0.30872309 0.1922393
0.68899822 0.30893943 0.1918221
0.69449157 0.30908844 0.19174868
0.69784969 0.30922592 0.19187324
0.70218033 0.30956122 0.19207419
0.70756537 0.30966863 0.19210261
0.71239012 0.30963939 0.19212961
0.7180236 0.30954644 0.19217458
0.72040707 0.30955684 0.1922363
0.73132068 0.31020132 0.19288017
0.77965683 0.31148744 0.19144876
0.78352219 0.31117612 0.19114406
0.7873314 0.3110458 0.19123548
0.79175699 0.31078902 0.19156131
0.79557645 0.31074703 0.19194838
0.22965795 0.31709242 0.19220659
0.23183984 0.31741041 0.19285041
0.30284265 0.31413248 0.19278733
0.30631027 0.31396762 0.19261414
0.33637634 0.31401128 0.19185229
0.34847137 0.31416142 0.19204342
0.35260573 0.31441885 0.19234484
0.36430022 0.31365857 0.19223732
0.36783567 0.31427637 0.19249701
0.37262124 0.31435528 0.192462
0.37763834 0.3141287 0.1924509
0.38814896 0.31434575 0.19250974
0.39035228 0.31390479 0.19212548
0.40394446 0.3146801 0.1919812
0.40746021 0.31471744 0.19190539
0.41207746 0.31462795 0.19188562
0.41615817 0.31435257 0.19181837
0.42985058 0.3138583 0.19163488
0.43282837 0.31437969 0.19206843
0.46704081 0.31376702 0.19248819
0.47208178 0.3137328 0.19256103
0.59007818 0.3019838 0.18742083
0.59132195 0.30131885 0.1871184
0.59968376 0.30109504 0.18717892
0.60229856 0.30113637 0.18712255
0.60902965 0.30156264 0.18726365
0.61452293 0.30076841 0.18659408
0.61682624 0.30133739 0.18692249
0.6340912 0.30097881 0.18750761
0.63694525 0.30096963 0.18757218
0.64122915 0.30153212 0.18795335
0.65791637 0.30124384 0.18756817
0.66334009 0.30060032 0.18713857
0.66670281 0.30136713 0.18764235
0.67023242 0.3016274 0.18790169
0.68761444 0.30140993 0.18720956
0.69115853 0.30165982 0.18727152
0.70237243 0.30104256 0.18678318
0.70658296 0.30131176 0.18713874
0.72424972 0.30105856 0.18732746
0.72771275 0.30025354 0.18686628
0.73079169 0.30083373 0.1872001
0.7473942 0.30097085 0.18773814
0.75767982 0.30053651 0.18705273
0.78134227 0.30207705 0.18582621
0.24717487 0.30600822 0.18894856
0.2896724 0.30586553 0.1881696
0.29063532 0.30582029 0.18808071
0.35421336 0.3060562 0.18800077
0.35551915 0.30628034 0.18812759
0.36301368 0.30580726 0.18780518
0.36675233 0.30602765 0.18781716
0.38313738 0.30535197 0.18711369
0.385602 0.30521303 0.18702622
0.44800603 0.30547923 0.18694198
0.46319303 0.30569524 0.18779217
0.46821645 0.30520284 0.18761268
0.47177288 0.30542192 0.1878102
0.47561452 0.30578792 0.18797903
0.48473242 0.30523476 0.18754566
0.48588294 0.30522734 0.18758129
0.49799287 0.30363059 0.18679443
0.50710052 0.30523884 0.18813677
0.51329011 0.30522794 0.18830715
0.51551962 0.30445459 0.18785101
0.52361101 0.30639142 0.18906483
0.52776641 0.30561095 0.1886666
0.53193098 0.30511922 0.18845221
0.53657597 0.30510852 0.18850505
0.54357439 0.30531615 0.18864815
0.54712594 0.30511552 0.18842873
0.55242789 0.30556807 0.18859214
0.55773705 0.3054387 0.18845306
0.5628317 0.30490121 0.1878904
0.56743926 0.30495247 0.18794249
0.57280403 0.30484849 0.18803415
0.57728988 0.30504411 0.18845969
0.58245635 0.3049899 0.18878171
0.58744848 0.30465889 0.18893689
0.59260201 0.30435362 0.18899052
0.59768915 0.30394945 0.18892474
0.60214907 0.30405954 0.18896186
0.60685301 0.30416524 0.18889715
0.61300731 0.30512238 0.18931153
0.6177485 0.30430961 0.18872698
0.62260878 0.30434158 0.18895195
0.62728626 0.30386209 0.18884255
0.63282675 0.30317053 0.18875648
0.6380772 0.30398503 0.18940789
0.64214301 0.30456629 0.18988225
0.64688122 0.30475682 0.1900754
0.65279877 0.30424976 0.18967043
0.65742517 0.30409613 0.18942559
0.66272742 0.30476776 0.18981126
0.66740698 0.30298886 0.18867631
0.6731835 0.30170414 0.18794604
0.67781329 0.30407587 0.18929532
0.68255377 0.30460113 0.18949568
0.6873675 0.30418387 0.18897754
0.69249421 0.30413672 0.18881904
0.69757545 0.30455002 0.18900044
0.70272791 0.30420768 0.18875341
0.70778507 0.30413005 0.18883729
0.71225858 0.30429 0.18894927
0.71732157 0.30479142 0.18932918
0.72283357 0.30424049 0.18915753
0.72754407 0.30385077 0.18898259
0.73097396 0.30486411 0.18959852
0.73843652 0.305226 0.18998604
0.74245977 0.30513453 0.1901307
0.74748099 0.30400243 0.18952282
0.7525655 0.3039948 0.1893556
0.75741738 0.30366853 0.18892241
0.76266354 0.30443063 0.18886659
0.76762754 0.30457023 0.18834288
0.77195561 0.3051385 0.18817785
0.77804488 0.30508363 0.18753663
0.78236938 0.30472305 0.18711895
0.7867409 0.30530134 0.18743864
0.79290062 0.30539215 0.18812878
0.79738343 0.30500758 0.18846659
0.24400379 0.30957866 0.19082959
0.24669871 0.30875137 0.19045721
0.25862172 0.3094328 0.19082262
0.2634764 0.31016991 0.19078526
0.26810664 0.31007379 0.19059063
0.27301404 0.30906045 0.19000235
0.27622321 0.30838332 0.18970564
0.28933907 0.31076011 0.19104379
0.29218578 0.30875841 0.18985881
0.29682717 0.30966875 0.19025731
0.30122623 0.310761 0.19074588
0.30859128 0.30889657 0.18937013
0.31255722 0.30949739 0.18956944
0.31747794 0.30963689 0.18954279
0.32161048 0.30903924 0.18920571
0.32693535 0.31016368 0.1898156
0.33389395 0.30921835 0.18919536
0.3371155 0.3096422 0.18947352
0.34243125 0.30886963 0.18922052
0.34745917 0.30861932 0.18914321
0.35252348 0.30891076 0.18951473
0.35788718 0.30879402 0.18950333
0.36245769 0.30904618 0.18967375
0.36740819 0.30914962 0.18961799
0.37176597 0.30896378 0.18944775
0.37800193 0.30892548 0.18939264
0.38261682 0.30905181 0.18941289
0.38696489 0.30889818 0.18922374
0.39248779 0.30973509 0.18960391
0.39779902 0.31007156 0.18962388
0.40201497 0.30976307 0.18928725
0.40727857 0.31008756 0.18927652
0.41296658 0.30909452 0.18867843
0.41748005 0.30918881 0.1886951
0.42205164 0.30977964 0.18898919
0.42635888 0.30992618 0.189144
0.43412295 0.30995736 0.18930598
0.43664664 0.30973944 0.18926711
0.44285509 0.30906102 0.18881465
0.44671848 0.30967793 0.1893664
0.45263147 0.30971596 0.18973707
0.45830804 0.30907789 0.18959817
0.46260336 0.30898583 0.18968357
0.46754813 0.30873069 0.1896718
0.4725447 0.30880943 0.18971179
0.47739267 0.30874354 0.18960044
0.48248389 0.30854982 0.18957591
0.48715851 0.30920598 0.18995972
0.49167088 0.30947036 0.19019178
0.49801052 0.30972862 0.19049564
0.50281298 0.30956355 0.19050917
0.50759417 0.30869758 0.19024475
0.51252079 0.30853623 0.19031772
0.51736718 0.30884653 0.19051203
0.52260554 0.30900759 0.19063175
0.52777499 0.30882955 0.19058743
0.53227234 0.30836567 0.19038947
0.53685629 0.30851972 0.19060703
0.54278827 0.30864385 0.1907015
0.54722416 0.30881932 0.19075787
0.55299944 0.30832395 0.19033401
0.55748677 0.30853048 0.19039291
0.56262285 0.30891135 0.19038792
0.56758845 0.30883369 0.19025236
0.57248855 0.30867499 0.1903151
0.57761288 0.30844259 0.19057234
0.58233082 0.30832902 0.19077531
0.58766621 0.30843267 0.19114518
0.5923751 0.30838364 0.19138804
0.59788769 0.30804983 0.19135907
0.60222518 0.30828148 0.1914638
0.60755801 0.30818745 0.1911768
0.61256969 0.30815536 0.19090438
0.61737871 0.30803716 0.19080691
0.62275559 0.30809665 0.19109674
0.62741488 0.30826101 0.19132759
0.63269264 0.30806106 0.19161314
0.63768137 0.30774871 0.19160655
0.64262158 0.30782917 0.19176561
0.64736778 0.30785155 0.19186956
0.6524567 0.30782649 0.19182289
0.65731549 0.30791947 0.19175932
0.66268027 0.30782318 0.19155777
0.66745073 0.30790016 0.19160587
0.67248088 0.30761439 0.19160855
0.67759627 0.30765978 0.1914748
0.68269455 0.30796963 0.19147557
0.68743914 0.30781347 0.1912197
0.69236362 0.30796552 0.19116142
0.69727802 0.3080622 0.19110265
0.70233631 0.30801746 0.19107531
0.70765948 0.30798185 0.19106442
0.71253836 0.30818871 0.19120885
0.71751207 0.30814242 0.19126804
0.72261906 0.3077718 0.19126084
0.7274825 0.30785736 0.19141309
0.73246855 0.307935 0.1915095
0.73744214 0.30785564 0.19159059
0.74275261 0.30793744 0.1917811
0.74747729 0.3077932 0.19175628
0.75232995 0.30798656 0.19167183
0.75732732 0.30788505 0.19134949
0.76261318 0.30793706 0.19082357
0.76738781 0.30865344 0.19068871
0.77236658 0.30857491 0.1900592
0.77736574 0.30882609 0.18970759
0.78252292 0.30892465 0.18953969
0.78754103 0.30899495 0.18968768
0.79273564 0.30876601 0.19017559
0.79777837 0.30861461 0.19082105
0.22839895 0.3139765 0.19078355
0.23081641 0.31401733 0.19138701
0.24383876 0.31247583 0.19232501
0.2475895 0.31243235 0.19246382
0.25165626 0.31244984 0.19259204
0.25898808 0.31157985 0.19208677
0.26270381 0.3126376 0.19232169
0.26723391 0.31258753 0.19204497
0.27262059 0.31257924 0.19204497
0.277024 0.31252155 0.19220908
0.28265265 0.31246802 0.19218241
0.28828764 0.31315377 0.19244634
0.29256213 0.31266761 0.19217192
0.29730886 0.31269094 0.19202271
0.30246413 0.31283823 0.19195202
0.30784401 0.31261927 0.19178297
0.31274393 0.31259301 0.19160825
0.31751171 0.31282109 0.19152465
0.3224861 0.31282377 0.19144528
0.32725668 0.31289074 0.19139405
0.33220175 0.31286016 0.19133867
0.33743232 0.31293008 0.19124149
0.3426522 0.31279054 0.19123811
0.34744024 0.31294674 0.19136751
0.35244119 0.31299442 0.19160198
0.35757038 0.31283826 0.19161193
0.36253271 0.31274292 0.19168016
0.36746535 0.31314072 0.1918847
0.3723852 0.31301394 0.19173034
0.37774667 0.31286424 0.19166259
0.38258803 0.31288522 0.19170359
0.38744926 0.31302586 0.19173168
0.39258051 0.31316724 0.19164377
0.39756727 0.31322375 0.19145046
0.40245014 0.31320322 0.19115096
0.40754071 0.31329843 0.19111829
0.41256362 0.31340176 0.1911681
0.41756591 0.31348258 0.19127235
0.42234388 0.31319609 0.19103654
0.42743126 0.31322086 0.19116239
0.43250948 0.31325409 0.19135799
0.43743029 0.31295374 0.1911791
0.44262013 0.31320485 0.19138861
0.44739637 0.31306261 0.1913363
0.45246106 0.31285241 0.19152664
0.45740345 0.31283003 0.19170009
0.4625411 0.31290129 0.19188578
0.46756008 0.31307665 0.19209038
0.47253543 0.31313834 0.19218591
0.4774684 0.31291938 0.19202915
0.48246086 0.31291717 0.1920598
0.48768133 0.31290066 0.19205953
0.49262282 0.31248304 0.19192164
0.49750823 0.31291059 0.19226028
0.50225306 0.31291983 0.19235584
0.50750268 0.31268528 0.19244601
0.51264054 0.31245911 0.19249928
0.51723987 0.31234038 0.19248131
0.52255338 0.31248567 0.19260065
0.52748632 0.31245673 0.19264749
0.53242952 0.31227154 0.19260743
0.53711814 0.31234294 0.19276708
0.54256159 0.31228182 0.1927748
0.54749602 0.312069 0.19259314
0.55246812 0.31215352 0.19255273
0.55739319 0.3121621 0.1924997
0.56246024 0.31220719 0.19237061
0.56748217 0.31217787 0.19224936
0.57248646 0.31222349 0.19238675
0.57738823 0.31238744 0.19282672
0.58249092 0.31206772 0.19294353
0.58747476 0.31203684 0.19321167
0.59257668 0.31176528 0.19331318
0.59750861 0.31167457 0.19336188
0.60248756 0.31173792 0.19331016
0.60751295 0.31206223 0.19333434
0.61218137 0.31219476 0.19317564
0.6175552 0.31212834 0.19306457
0.62247843 0.31216773 0.19325739
0.62748075 0.31194672 0.19336776
0.63258159 0.31182525 0.19361454
0.63760853 0.31186363 0.19382776
0.6424768 0.31182796 0.19394612
0.64739805 0.31168219 0.1939175
0.65245759 0.3117691 0.19390328
0.65750587 0.31174234 0.19380808
0.66240329 0.31167299 0.19366832
0.6674422 0.31167868 0.19367589
0.67249846 0.31169084 0.19388053
0.67758381 0.31163517 0.19374561
0.68258613 0.31171688 0.19360539
0.6874609 0.31182361 0.19352859
0.69245625 0.3118999 0.19344676
0.69738019 0.31192264 0.19344439
0.70251185 0.31195286 0.19348574
0.70744103 0.31215599 0.193626
0.71239102 0.31207928 0.19360188
0.71747184 0.31197938 0.19359891
0.72239685 0.31198958 0.1937028
0.72754151 0.31202668 0.19381818
0.73234373 0.31191492 0.19383813
0.73741412 0.31195247 0.19397889
0.74234921 0.31185392 0.19427823
0.74737483 0.31189027 0.19433224
0.75263077 0.31198412 0.19420804
0.75760829 0.31217429 0.19413345
0.76231533 0.31228027 0.19375271
0.76764441 0.31264803 0.19334748
0.77247947 0.31257597 0.19271737
0.77752739 0.31300575 0.19266291
0.78242129 0.31305289 0.19262472
0.78752744 0.31283259 0.19271199
0.7923826 0.31252694 0.19308546
0.79706663 0.31256759 0.19363864
0.22816379 0.3178964 0.19207622
0.23192568 0.31787455 0.19299835
0.23759267 0.31848383 0.19437373
0.24274822 0.31650922 0.19435634
0.24781957 0.31632173 0.19438747
0.25270385 0.31599608 0.19442813
0.25727201 0.31570336 0.19440521
0.26277456 0.31573445 0.19412705
0.26774865 0.31669763 0.19438675
0.27259323 0.31674168 0.19439761
0.27759388 0.3166545 0.19458759
0.28230348 0.31621867 0.19432887
0.28742608 0.31614718 0.19427745
0.29222366 0.3162986 0.19432534
0.29700011 0.31634557 0.19421232
0.30304095 0.3163358 0.19412446
0.30750555 0.31670269 0.19429941
0.31269228 0.31669042 0.19419058
0.31762293 0.31681943 0.19408254
0.32268453 0.31698349 0.19401607
0.32751799 0.31696931 0.19388652
0.33257136 0.31696814 0.19371395
0.33773288 0.31726313 0.19357832
0.34247264 0.31746966 0.19356051
0.34742817 0.31738058 0.19364986
0.35255259 0.31704602 0.19364515
0.35760251 0.31726035 0.1938756
0.36243004 0.317029 0.19393466
0.36747789 0.31689757 0.1938557
0.37245005 0.31701419 0.19383614
0.37745893 0.31677672 0.19376007
0.382312 0.31666782 0.19377619
0.38764471 0.31672004 0.19380465
0.39252141 0.31698361 0.19384991
0.39761245 0.31723526 0.19367027
0.40253374 0.31726217 0.19351719
0.40739241 0.3172372 0.19334228
0.41252586 0.31724739 0.19343574
0.41744733 0.31723237 0.19357486
0.42265984 0.31701523 0.19332373
0.42769614 0.31708768 0.19348572
0.43247887 0.3170816 0.19362253
0.43740132 0.3168968 0.19356482
0.44249433 0.31703922 0.19368999
0.44750202 0.31722242 0.19379233
0.45247227 0.31697807 0.19387995
0.45746082 0.31694144 0.1940299
0.4625909 0.31696659 0.19408718
0.46754146 0.31682265 0.19414507
0.47247395 0.3167305 0.19417495
0.477523 0.3166655 0.19417265
0.48248297 0.31676325 0.19426771
0.48747951 0.31679559 0.19421579
0.49255797 0.31660315 0.19418582
0.49749568 0.31660524 0.19423892
0.50246686 0.31668618 0.19440517
0.50757098 0.31651717 0.19448389
0.51244098 0.3167541 0.19474751
0.51728922 0.31633753 0.19460566
0.52239329 0.31638104 0.19471684
0.52760333 0.31650767 0.19481565
0.53242397 0.31650382 0.19484548
0.53729773 0.31642616 0.19487426
0.54257828 0.31617922 0.19488788
0.54740149 0.31648406 0.19493841
0.55248094 0.31636989 0.19474286
0.5574761 0.31632996 0.19472329
0.56252539 0.31644282 0.19466427
0.56735724 0.31649747 0.19464938
0.57233131 0.31640062 0.19471903
0.57746971 0.31628731 0.19491592
0.58244318 0.3161276 0.19508614
0.58728874 0.3161853 0.19534574
0.59254664 0.31584719 0.19539125
0.59756738 0.31566629 0.19532299
0.60247082 0.31569475 0.19530097
0.60733891 0.31600076 0.19529313
0.61250037 0.31643531 0.19519325
0.61742574 0.31618997 0.19495882
0.62255633 0.31622508 0.19508925
0.62705445 0.31604016 0.19525503
0.63224971 0.31597945 0.19554639
0.63740605 0.31540132 0.1955535
0.64231157 0.31514153 0.19556692
0.64777762 0.31499732 0.19559552
0.65238434 0.31514943 0.19563821
0.65786141 0.31527868 0.19554624
0.66270071 0.31521615 0.19558826
0.66725415 0.31529942 0.19561096
0.67226708 0.31524137 0.19568488
0.67746335 0.31515601 0.19567208
0.68226784 0.31508398 0.19547185
0.6873877 0.31565103 0.19568345
0.69231582 0.31537443 0.19548695
0.69761884 0.31534147 0.19547088
0.70224345 0.31540298 0.19550569
0.70736146 0.31534541 0.1955073
0.7124151 0.3154026 0.19552498
0.71750396 0.31544334 0.19555965
0.72230852 0.31557927 0.19563991
0.72773772 0.31531993 0.19562168
0.73220134 0.31529659 0.19566834
0.73752964 0.3151235 0.19561832
0.74259657 0.31497791 0.19594918
0.74746096 0.31478208 0.19608955
0.75266737 0.31458116 0.19590901
0.75756747 0.31501281 0.19580337
0.76267463 0.31495163 0.19561093
0.76762122 0.31503084 0.19519122
0.77272952 0.31535834 0.19498546
0.77737164 0.31524339 0.1946594
0.78221297 0.31542265 0.19481018
0.78800499 0.31522554 0.19498332
0.79284328 0.31499171 0.19529615
0.79738754 0.3146688 0.19572669
0.22868931 0.32167739 0.19324404
0.23211077 0.32171288 0.19414811
0.2357658 0.32237971 0.19516751
0.30309528 0.31921029 0.19573161
0.30545399 0.31894863 0.19560727
0.31878644 0.31933489 0.19565381
0.32106984 0.31987184 0.19581127
0.33251855 0.31991792 0.19538838
0.33816537 0.32089746 0.19539478
0.34239623 0.32114959 0.19542386
0.34749585 0.32032263 0.19519103
0.35490251 0.32177871 0.19607469
0.35787687 0.32136112 0.19585021
0.3609364 0.3214204 0.19610251
0.3727954 0.31916949 0.19488764
0.37647441 0.31935528 0.19509625
0.38965753 0.3198646 0.1955402
0.39256686 0.32081673 0.19597094
0.39734426 0.3211754 0.19580169
0.40297541 0.32047266 0.19527082
0.40756485 0.32048851 0.19527191
0.41225305 0.32107621 0.19562107
0.41767108 0.32113242 0.19573309
0.42281961 0.32082072 0.19553088
0.42740947 0.32054916 0.19546932
0.43235117 0.3204926 0.19557066
0.43747613 0.32044539 0.19558489
0.44240287 0.32038331 0.19565931
0.44780263 0.3203817 0.19569796
0.45200616 0.32089099 0.19599871
0.45714742 0.32093075 0.19611283
0.46264073 0.32009742 0.1956702
0.46706218 0.32003468 0.19573888
0.4733105 0.31953606 0.1956431
0.47800514 0.31972313 0.19572313
0.4826518 0.31967354 0.19574466
0.48784462 0.32021695 0.19600528
0.49212798 0.32079858 0.19627412
0.49706176 0.3201918 0.19604482
0.5032472 0.31999093 0.19594021
0.50675654 0.32004437 0.19607468
0.51293999 0.31940249 0.19601718
0.51760226 0.32002842 0.19636282
0.52239305 0.3204031 0.19655187
0.52724522 0.32016131 0.1964931
0.53121829 0.32008344 0.19653028
0.54912263 0.31936654 0.19617434
0.5513736 0.31948304 0.19619001
0.55640942 0.31948391 0.19619533
0.56240696 0.31945252 0.19612601
0.57543051 0.31941363 0.19634643
0.61113501 0.31924766 0.1964462
0.61761737 0.31948343 0.19634822
0.62211895 0.31956995 0.19650282
0.62692416 0.31944057 0.19666153
0.22984549 0.32581449 0.19444717
0.23206316 0.32584119 0.19502009
0.23733105 0.32555512 0.19617498
0.33926475 0.32383218 0.19680721
0.34238279 0.32438305 0.19715686
0.357155 0.32390699 0.19720845
0.39319572 0.32409742 0.19766405
0.63942522 0.3069514 0.19116367
0.6414541 0.30673981 0.19107777
0.50337142 0.31197867 0.19180137
0.5117296 0.31188688 0.19209407
0.52344042 0.3109948 0.19174004
0.52711678 0.31116313 0.19192818
0.53113359 0.31160727 0.19222368
0.54411656 0.31047603 0.19176701
0.545825 0.31138483 0.19220763
0.57878304 0.31123191 0.19216298
0.58322173 0.31044686 0.19200844
0.58792353 0.31032234 0.1921806
0.5909518 0.30991545 0.19212094
0.59886372 0.31049934 0.19263989
0.6030609 0.31082505 0.19274223
0.60899085 0.31143287 0.19295202
0.61244935 0.3111389 0.19252039
0.62988216 0.31075701 0.19286999
0.63309669 0.31095737 0.19318852
0.63833779 0.31045508 0.1930185
0.64166248 0.3096303 0.19267863
0.645859 0.31085896 0.19344795
0.65107507 0.31060922 0.19327754
0.66451937 0.31206021 0.19381553
0.66735208 0.31125149 0.19336782
0.67277277 0.31010225 0.19295198
0.67599672 0.30998313 0.19278349
0.68893808 0.31101733 0.19298582
0.69222116 0.31097442 0.19288884
0.70398575 0.31056207 0.19256993
0.70882356 0.31018773 0.19237517
0.71193123 0.31094772 0.1928982
0.71822906 0.31108281 0.1930363
0.72264069 0.30942586 0.19220482
0.72751874 0.30989718 0.19257884
0.73249906 0.31089601 0.19323081
0.73779613 0.31005219 0.19286676
0.74134028 0.31001753 0.19297726
0.74754119 0.31084713 0.19364981
0.75890195 0.31051645 0.19280225
0.7623772 0.31041667 0.19243872
0.76606244 0.3110607 0.19242229
0.77910131 0.31188267 0.19177023
0.7819953 0.31192353 0.19168843
0.78856522 0.31156689 0.19171458
0.79257244 0.3113367 0.1919958
0.79731083 0.31112057 0.19255413
0.24265014 0.31444129 0.19343783
0.24740401 0.31471345 0.19362324
0.25224257 0.31508559 0.1939957
0.25858456 0.31493592 0.19394319
0.26140139 0.31535238 0.19401045
0.27358541 0.31547034 0.19374232
0.28804815 0.31432533 0.19313808
0.30298129 0.31617114 0.19399731
0.30739933 0.3159329 0.19380575
0.31207556 0.31522602 0.19331463
0.31757671 0.31570551 0.19338533
0.3225612 0.31495446 0.19274718
0.32666329 0.31389311 0.19195461
0.33078426 0.31588799 0.19312781
0.34922609 0.31548566 0.19270879
0.35150531 0.3156822 0.19285472
0.36276388 0.31496957 0.19282381
0.3740299 0.31521633 0.19293524
0.37723541 0.31463298 0.19266528
0.3835175 0.31536123 0.19310822
0.38543746 0.31519899 0.19299346
0.39435872 0.31570223 0.19297805
0.39789253 0.31532204 0.1925595
0.40098077 0.31514409 0.19235553
0.41805369 0.31553674 0.19244279
0.42271477 0.31569096 0.19243148
0.42629948 0.31585535 0.19262275
0.43592387 0.31569821 0.19275786
0.44867948 0.31570154 0.19286235
0.45190778 0.31566367 0.19302581
0.45781893 0.31568328 0.19328016
0.46255511 0.31558114 0.19328286
0.46709272 0.3154802 0.19343784
0.47240138 0.31546903 0.19346547
0.47755659 0.31521615 0.1932943
0.48289445 0.31483844 0.19308512
0.48741803 0.31456828 0.19292469
0.49253878 0.31547114 0.19350587
0.49719644 0.31553635 0.19366503
0.50314707 0.31390539 0.19294128
0.50632358 0.31413072 0.19312459
0.51248163 0.31442261 0.19345917
0.51693583 0.3140932 0.19332708
0.52345973 0.31419235 0.19354466
0.52753735 0.31427673 0.19363095
0.53047729 0.31410271 0.19357288
0.53788859 0.31228045 0.19272289
0.54262757 0.31420237 0.19376072
0.54723537 0.31432265 0.19383952
0.55239463 0.31501153 0.19402413
0.55810887 0.31488016 0.19391586
0.56238741 0.31463143 0.19371626
0.56742716 0.31472996 0.19363065
0.57255894 0.31501517 0.19395432
0.57782197 0.31434667 0.19391645
0.58257723 0.31399003 0.19397536
0.58787638 0.31419337 0.19434159
0.59249377 0.31407848 0.19446547
0.59747708 0.31365979 0.19428985
0.60222059 0.31359464 0.19425479
0.60751766 0.3141596 0.1943935
0.61255437 0.31434366 0.19420503
0.61744606 0.31438363 0.19414915
0.62244195 0.31442302 0.19423239
0.62747383 0.31396472 0.19430707
0.63227063 0.31377646 0.19453062
0.63792533 0.31433582 0.19504493
0.64264542 0.31383422 0.1949192
0.64729154 0.31395707 0.19501053
0.65266252 0.31445324 0.19524138
0.65773433 0.31434077 0.19510789
0.66299796 0.31389496 0.19481258
0.66756827 0.31386882 0.19477278
0.67221326 0.31366861 0.19492963
0.67746496 0.3139385 0.19496009
0.68285209 0.31429443 0.19495314
0.68722391 0.31440961 0.19497666
0.69275653 0.31405285 0.19469038
0.69749659 0.3142285 0.19480206
0.70246744 0.31447977 0.19492327
0.70768273 0.31423104 0.19484562
0.71257329 0.31389984 0.19459805
0.71714443 0.31417111 0.19483994
0.72275615 0.31434125 0.19503167
0.7272321 0.31444082 0.19509581
0.73302776 0.31419903 0.19510004
0.73736763 0.31387678 0.19493686
0.74244052 0.3135941 0.19513722
0.74764699 0.31373322 0.19521224
0.7523914 0.31409478 0.1953696
0.75737107 0.31373867 0.19496629
0.76249808 0.31375694 0.19478488
0.76750827 0.31434894 0.19455005
0.77217102 0.31485003 0.19452508
0.77736372 0.31494331 0.1943125
0.78269374 0.31492278 0.19424078
0.78750193 0.31453547 0.19423932
0.79266769 0.3144924 0.19465216
0.79759049 0.3139495 0.19523217
0.23006207 0.32032728 0.19326757
0.23245569 0.3199437 0.19373675
0.23777659 0.3190231 0.19461115
0.24262507 0.31822181 0.19503197
0.2477576 0.31816298 0.1952969
0.25244355 0.31829178 0.19548045
0.25749141 0.31809825 0.19554451
0.26260799 0.31836858 0.19545414
0.26644436 0.31858358 0.19544609
0.27282748 0.31898385 0.19562837
0.27739254 0.31894222 0.19582441
0.28219962 0.3192834 0.1959938
0.28799751 0.31828886 0.19544713
0.29199916 0.31869182 0.19568749
0.29773158 0.31849006 0.1954212
0.30275649 0.31841406 0.19528338
0.30750862 0.31853878 0.19532968
0.31256425 0.31874123 0.19537851
0.31744036 0.31877252 0.19529961
0.32241067 0.31859165 0.1949885
0.32713386 0.31936753 0.19531584
0.33224434 0.31902474 0.19485383
0.33720258 0.3197248 0.19487999
0.34075543 0.31994975 0.19480297
0.34885281 0.31839415 0.1941741
0.3526082 0.31852946 0.19436462
0.35781235 0.31842184 0.19444832
0.36272839 0.31878179 0.19482593
0.36708871 0.31934592 0.19506499
0.37266555 0.31898558 0.19477345
0.37766209 0.31893754 0.19486113
0.3827284 0.3188124 0.19496103
0.38704765 0.31920567 0.19513696
0.39237458 0.31907848 0.19503267
0.39741838 0.31924042 0.19473197
0.40213391 0.31875876 0.19434229
0.40782201 0.31928423 0.19456525
0.4125863 0.31945425 0.19472827
0.4180353 0.31898662 0.19449997
0.42254657 0.31923041 0.19454248
0.42742658 0.31922638 0.19462088
0.43272504 0.31906328 0.19473676
0.43738943 0.31896883 0.19473471
0.44299066 0.31862032 0.19457586
0.44754186 0.31897753 0.19482775
0.45264456 0.31894529 0.194942
0.45754364 0.31882152 0.19500306
0.46273339 0.31846115 0.1948368
0.46750644 0.31859714 0.19504508
0.47259107 0.31861311 0.19510773
0.47734815 0.31866312 0.19513422
0.48267382 0.31877485 0.19524732
0.48742065 0.31870812 0.19515288
0.49220258 0.3192066 0.19545572
0.49780872 0.31898063 0.1954291
0.50262868 0.31849584 0.19524866
0.50709653 0.31911501 0.1956699
0.51273501 0.31866735 0.19565713
0.51744187 0.31884947 0.19578166
0.52258885 0.31902972 0.19595401
0.52708966 0.31865561 0.1958645
0.53238875 0.31877714 0.19592275
0.53699559 0.31882051 0.19595891
0.54225498 0.31845289 0.19591753
0.54757732 0.31835777 0.19572411
0.55253166 0.31859133 0.19570738
0.55733109 0.31847793 0.19567144
0.56224686 0.3187997 0.19582802
0.56776488 0.31880164 0.19581141
0.57284528 0.31864175 0.1958597
0.57733029 0.31844804 0.19592175
0.58234996 0.31840506 0.19611187
0.58767074 0.31816244 0.19620965
0.59254879 0.31804246 0.19631578
0.59749424 0.3181639 0.19645174
0.6024937 0.31826353 0.19636685
0.60757947 0.3181324 0.19618079
0.61254591 0.31791341 0.19576482
0.6176424 0.31801149 0.19570935
0.6223762 0.31770796 0.19569592
0.62785929 0.31789535 0.19609404
0.63265884 0.31803912 0.1964999
0.63773263 0.31796497 0.19667576
0.64249521 0.31791344 0.19695082
0.64749426 0.31783685 0.19690216
0.65256894 0.31796867 0.19692458
0.65736121 0.31790075 0.19681285
0.66244638 0.31796908 0.19685866
0.66758227 0.31795382 0.19692594
0.67250621 0.31762949 0.19692774
0.67750603 0.3179577 0.1971011
0.68265444 0.31795111 0.19698432
0.68760169 0.31789315 0.19689967
0.69263881 0.31784257 0.19683234
0.69758117 0.31782922 0.19677953
0.70249492 0.31794846 0.19678023
0.70739233 0.3179048 0.19683035
0.71246696 0.31782314 0.19681469
0.71754152 0.31794038 0.1969185
0.72252733 0.31791791 0.19690992
0.72753823 0.31786385 0.19682427
0.73231596 0.3177816 0.1968926
0.73741025 0.31767675 0.19681336
0.74241418 0.3175154 0.19682334
0.74756354 0.31753939 0.1973595
0.75255108 0.31746948 0.19753808
0.75756931 0.31744283 0.19730648
0.76257396 0.31757995 0.19703308
0.76774395 0.31792739 0.19706385
0.77244204 0.31799373 0.19712941
0.77751529 0.31773299 0.19693062
0.78270119 0.31776166 0.1973014
0.78743172 0.31789458 0.1977066
0.79247588 0.31750727 0.19764671
0.79776692 0.31721964 0.19814174
0.22872426 0.32373837 0.1937357
0.23241927 0.32318005 0.19456442
0.23736937 0.32181633 0.19536306
0.24254461 0.32125551 0.19606166
0.24776849 0.32212046 0.19674155
0.25247446 0.3214891 0.19678615
0.2570042 0.32147744 0.19692661
0.26269296 0.3225852 0.19720577
0.26731616 0.32213768 0.197154
0.27243981 0.32216188 0.19716817
0.27772892 0.32187116 0.19722329
0.28203791 0.32189208 0.19736809
0.28766817 0.32225266 0.19755086
0.29267162 0.32213634 0.19754682
0.29741403 0.32225242 0.19745839
0.30280322 0.32232532 0.1973273
0.30759653 0.32213205 0.19718368
0.312446 0.32230049 0.19732653
0.31756622 0.32246885 0.19742234
0.32258132 0.32242373 0.19718087
0.32735217 0.32232895 0.19690764
0.33233848 0.32266358 0.19667913
0.33748233 0.32285258 0.19637786
0.3424769 0.32313183 0.1964343
0.34769958 0.32281697 0.19647931
0.35248899 0.32269549 0.19646169
0.35748094 0.32267019 0.19650052
0.36267927 0.32258123 0.19668581
0.36745858 0.3226178 0.19665451
0.37242708 0.32267803 0.19659373
0.37739024 0.32263324 0.19666192
0.38261059 0.32268959 0.19695829
0.38738412 0.32286245 0.19716614
0.39234352 0.32288697 0.19696282
0.39754629 0.32292196 0.19672646
0.40253088 0.32282963 0.1965199
0.40769744 0.32282728 0.19657007
0.41250896 0.32280526 0.19661383
0.4174071 0.32269645 0.19655026
0.42256263 0.32279944 0.19657083
0.42750961 0.32265538 0.19660676
0.43240747 0.32251862 0.19663982
0.43746987 0.32275075 0.19675033
0.44257674 0.32267484 0.19678232
0.44766268 0.3225899 0.19682209
0.45249707 0.3225365 0.19687989
0.45759472 0.32243061 0.19687466
0.46249291 0.32267424 0.1969468
0.46756777 0.32260349 0.19701621
0.4724848 0.32242727 0.19700563
0.47751957 0.32243288 0.19698223
0.48246366 0.32242712 0.19698106
0.48748219 0.32255632 0.19695175
