# .PCD v0.7 - Point Cloud Data file format
VERSION 0.7
FIELDS x y z
SIZE 4 4 4
TYPE F F F
COUNT 1 1 1
WIDTH 1379
HEIGHT 1
VIEWPOINT 0 0 0 1 0 0 0
POINTS 1379
DATA ascii
0.14270307 0.052619364 0.05864967
0.14762992 0.052504666 0.058782127
0.15226059 0.052278627 0.058853336
0.15696238 0.052084319 0.058642436
0.16243908 0.052305296 0.058819056
0.16776845 0.05266615 0.059009384
0.17258203 0.052662734 0.05896185
0.17717221 0.052769098 0.058883015
0.182717 0.052457556 0.058456365
0.18793975 0.052610423 0.058425132
0.1922995 0.052653771 0.058481347
0.19794451 0.052679475 0.058613647
0.20253088 0.053050596 0.058560751
0.20755316 0.05273959 0.058097403
0.21249408 0.053472966 0.058531553
0.21741211 0.053317185 0.05849506
0.2226038 0.053319097 0.058583554
0.22753264 0.05332708 0.0587033
0.23262106 0.053087562 0.058710907
0.23760085 0.05290078 0.05876182
0.24245572 0.052886963 0.05887818
0.24732831 0.052772611 0.058811765
0.25244221 0.053059623 0.059009653
0.2572839 0.052748684 0.058752276
0.2622211 0.053193375 0.059129935
0.26768091 0.053361263 0.059092283
0.27256131 0.053459618 0.058975678
0.27720213 0.053142689 0.058620006
0.28245267 0.053319726 0.058828965
0.28736991 0.053229559 0.058965728
0.29264006 0.053149901 0.059035446
0.29742604 0.053384021 0.059329968
0.30292448 0.053726401 0.059835821
0.30754599 0.053201515 0.0595893
0.31268728 0.053128023 0.059538256
0.31755286 0.053177137 0.059503075
0.32265049 0.053498242 0.059787527
0.32750371 0.053683169 0.059979051
0.33192855 0.053581271 0.059892897
0.33760786 0.053622 0.059859786
0.3426131 0.053469248 0.059711393
0.34736833 0.053267524 0.059427261
0.35291401 0.053154353 0.059262279
0.35768279 0.053305916 0.059178896
0.36246231 0.053283785 0.059055328
0.36725149 0.05333453 0.059051223
0.37237757 0.053544432 0.059337597
0.37737444 0.053067911 0.059437085
0.38224161 0.053010385 0.059749477
0.38736752 0.05295812 0.059948608
0.39249787 0.052985948 0.059928127
0.39773756 0.053033154 0.059745073
0.40263605 0.053041968 0.059434619
0.40767366 0.053300146 0.058976606
0.41252682 0.053340606 0.058368172
0.41750225 0.053708177 0.05826081
0.42291149 0.053905938 0.058342732
0.42775437 0.054155909 0.058476336
0.43245393 0.053745724 0.058466468
0.4374907 0.053432249 0.058683027
0.4424991 0.053272687 0.059282202
0.44771972 0.053043332 0.059578873
0.45234725 0.053004615 0.059587639
0.4573023 0.053146757 0.059391312
0.46275789 0.053610388 0.058944505
0.4673315 0.053980466 0.058749724
0.47252053 0.053779818 0.057643451
0.47734985 0.054281171 0.057043202
0.48241624 0.054921843 0.056533217
0.48742533 0.055273019 0.056460083
0.49245211 0.055272691 0.056447614
0.49762222 0.055307303 0.056652706
0.50253749 0.054856267 0.056919981
0.50774044 0.054578502 0.057253528
0.51265752 0.054013401 0.057112779
0.51764649 0.053704217 0.057129014
0.52234858 0.053489428 0.057267208
0.52752948 0.053784594 0.05741455
0.53189462 0.054170847 0.057320271
0.53693789 0.054630108 0.057284784
0.54280078 0.055137184 0.056742717
0.54745936 0.055163089 0.056223173
0.55248523 0.055547174 0.055943765
0.55708557 0.055871263 0.055772595
0.56275851 0.055897363 0.055543859
0.56725097 0.055538967 0.054823704
0.57214087 0.055531066 0.054612983
0.57724136 0.055943131 0.05463304
0.58245331 0.056035303 0.054449596
0.58777112 0.056529269 0.054968033
0.59285557 0.056457162 0.055138376
0.5979768 0.056112435 0.055424567
0.60264468 0.055938318 0.055852573
0.60751963 0.055174731 0.055773403
0.61268425 0.055097595 0.056003805
0.61771297 0.055042494 0.05634927
0.62264013 0.055487245 0.056327701
0.62794489 0.055107478 0.055484865
0.63286579 0.055357505 0.055078864
0.63689798 0.05528748 0.054798108
0.64224911 0.055344883 0.054636981
0.64716667 0.056054946 0.055259153
0.6528191 0.055448305 0.05515201
0.65791529 0.05555186 0.055740178
0.66265368 0.055128887 0.055859614
0.66787052 0.054932032 0.055877525
0.67268765 0.055062003 0.055811714
0.67736751 0.054815043 0.055329163
0.68275899 0.054998387 0.055767573
0.68728316 0.054916613 0.05593
0.6923213 0.054906528 0.05603645
0.69760025 0.054697506 0.055860281
0.70214105 0.054666284 0.056031942
0.70530975 0.054567464 0.056135815
0.71308959 0.054986246 0.055832643
0.71666777 0.055298194 0.05556618
0.72217554 0.056303561 0.054683395
0.72511494 0.057432845 0.054185472
0.12877819 0.055524208 0.059236825
0.13064018 0.055028111 0.0593534
0.15343656 0.056413002 0.06182038
0.15763579 0.056521215 0.061823349
0.16266769 0.057433058 0.062130041
0.16771445 0.056439895 0.061534937
0.17260648 0.056289215 0.06135774
0.177439 0.056154568 0.061200306
0.18283738 0.056031391 0.060945351
0.18763907 0.05580622 0.06061149
0.19264029 0.055640586 0.060494002
0.19754657 0.055628248 0.060490303
0.20198233 0.055706363 0.060313165
0.20773458 0.055474505 0.059901007
0.21276829 0.055893298 0.060149636
0.21714059 0.056151453 0.060316809
0.22254241 0.056060448 0.060400527
0.22743961 0.055494133 0.060157467
0.23242244 0.055514548 0.060371298
0.2374538 0.055340804 0.060528081
0.24247915 0.05498841 0.060494222
0.24724998 0.055020764 0.060580824
0.25263026 0.055092335 0.06060626
0.2573612 0.055148568 0.06065445
0.26208648 0.055026792 0.060555186
0.26769871 0.055258982 0.060563482
0.27272576 0.055481136 0.060514081
0.27738652 0.055579532 0.060476452
0.28203127 0.055630814 0.060513142
0.28732708 0.05560533 0.060725939
0.29218853 0.055444956 0.060723733
0.29794079 0.055103336 0.060576748
0.30257106 0.055070929 0.060783997
0.30716255 0.055116169 0.060846433
0.31241274 0.055201173 0.060856663
0.31765983 0.055277158 0.06086826
0.3373712 0.054667354 0.060458735
0.34911203 0.055020433 0.060453795
0.35283849 0.055988811 0.060914986
0.35784096 0.056473568 0.061043084
0.36286423 0.055724956 0.060481999
0.36754647 0.055031046 0.060061898
0.37237638 0.055034813 0.060179178
0.37664232 0.055000633 0.060453363
0.39308795 0.054965265 0.061028868
0.39727625 0.054966245 0.060837589
0.41241699 0.059152212 0.061222531
0.41898391 0.056149144 0.059550848
0.42356038 0.056580819 0.05986134
0.42695296 0.056356616 0.059780121
0.43294889 0.055976823 0.059852377
0.43584856 0.054490417 0.059234984
0.45945796 0.055075727 0.060069073
0.46315995 0.055304255 0.059773006
0.46820036 0.056346219 0.059659339
0.47272474 0.056367941 0.058980405
0.47721171 0.056582108 0.058498308
0.48226312 0.057274781 0.058561653
0.48775911 0.057173427 0.058480259
0.49228445 0.056566041 0.058015428
0.49787149 0.056694254 0.058615603
0.50243115 0.056803845 0.059520595
0.50662529 0.056180023 0.059278969
0.51951653 0.055217177 0.059184588
0.52119738 0.054967396 0.059075736
0.52953112 0.056899842 0.059958804
0.53268117 0.056225218 0.058865163
0.53678519 0.056415845 0.058626093
0.54493386 0.05720859 0.058070671
0.54810387 0.057047725 0.057548542
0.55246288 0.056836288 0.057019398
0.55557704 0.05742519 0.057361819
0.56436622 0.056664638 0.056161854
0.56778592 0.057052564 0.056497157
0.57253516 0.057852354 0.057212859
0.5775519 0.058183078 0.057256252
0.58265495 0.05809075 0.056895826
0.58640683 0.057979256 0.056714453
0.60857248 0.057926673 0.058260377
0.61219805 0.056944437 0.057799421
0.61791611 0.056583624 0.057652649
0.62230515 0.056896705 0.057604458
0.62796366 0.057636283 0.057531044
0.63298881 0.05766771 0.056893937
0.63719517 0.057511363 0.0564982
0.64235866 0.058185104 0.056961507
0.64624554 0.057881244 0.056769058
0.65377897 0.057872891 0.05748963
0.65681028 0.057648309 0.057402741
0.66032875 0.057280622 0.057471287
0.6736179 0.057777889 0.058299579
0.67751485 0.056964796 0.057486605
0.68205339 0.056621317 0.05738616
0.68775964 0.057076458 0.058093745
0.69219393 0.057366483 0.058400482
0.69739497 0.057399683 0.058517218
0.70446819 0.057190534 0.058710922
0.70908886 0.056785591 0.058203157
0.71276104 0.05675013 0.057789624
0.7167812 0.056994129 0.05724087
0.72507823 0.058791455 0.055584155
0.21844681 0.058992043 0.062150955
0.41711876 0.062068451 0.062771089
0.42350784 0.060752969 0.062313266
0.42691314 0.059548724 0.061797377
0.46783578 0.06039916 0.062064052
0.47260794 0.060269739 0.061373286
0.47774765 0.060224403 0.061036557
0.48235366 0.05981034 0.060579855
0.48760113 0.059788361 0.060870972
0.49202552 0.059030846 0.06060959
0.49746996 0.059603959 0.061895609
0.52754653 0.059424516 0.061820436
0.53308558 0.060036268 0.061357338
0.537637 0.060305856 0.060874242
0.54116189 0.060909353 0.061076108
0.55250496 0.060121335 0.059663843
0.55744123 0.060218804 0.059784755
0.56207108 0.06058199 0.060124088
0.56756473 0.060106039 0.059615117
0.57266396 0.060117502 0.059497904
0.57785797 0.060088143 0.059405811
0.58243608 0.060887262 0.059921697
0.58836168 0.061088979 0.06000023
0.59243643 0.060237985 0.059107084
0.59646064 0.061012588 0.059935302
0.60085315 0.060975131 0.060119327
0.60760784 0.061516453 0.060680971
0.61242038 0.060907155 0.060424451
0.61743891 0.060584012 0.060249187
0.62266332 0.060942687 0.060236558
0.62743425 0.061208297 0.059968207
0.63255733 0.061237343 0.059397928
0.63594645 0.060317531 0.058610693
0.65300697 0.06029284 0.059206564
0.6579864 0.060294252 0.059731498
0.66230941 0.060772497 0.060542133
0.66677654 0.06062514 0.060678907
0.6777761 0.060734503 0.060526349
0.68223089 0.059867769 0.060023732
0.68714446 0.059472561 0.060003996
0.69233769 0.060401253 0.060781386
0.69701725 0.059322465 0.060075402
0.70305747 0.059078392 0.060245302
0.70773554 0.059646901 0.060597621
0.71285027 0.060301736 0.060712345
0.71772617 0.060216408 0.059705526
0.7224983 0.061139531 0.059022151
0.72712094 0.062813967 0.057988472
0.41910243 0.064016633 0.063922569
0.42150277 0.064103246 0.064047761
0.46939516 0.06446334 0.064036064
0.47274807 0.063960873 0.063604854
0.47769022 0.063734874 0.063353859
0.48228604 0.063581318 0.063415617
0.48661146 0.062739097 0.06310723
0.49205822 0.061593145 0.062966458
0.53442216 0.06319382 0.063045457
0.53807586 0.063889191 0.063001201
0.54152793 0.064213902 0.062971659
0.54774559 0.063949049 0.062597819
0.55200446 0.063835412 0.06251213
0.55744374 0.063699692 0.062564276
0.56260639 0.064008325 0.062862389
0.56720549 0.063942589 0.062824741
0.57207835 0.063545644 0.062382825
0.57713389 0.063507348 0.062311415
0.58167565 0.063347504 0.062060319
0.58729273 0.061915863 0.060744669
0.59320563 0.063764326 0.061859876
0.59735984 0.063869148 0.062082425
0.60213166 0.063930795 0.062360756
0.60660368 0.064128414 0.062596492
0.62829095 0.065286286 0.062525272
0.63261163 0.065353379 0.06226461
0.63744962 0.064616598 0.061622977
0.64234549 0.064270079 0.061415233
0.64601845 0.062965922 0.060694862
0.66319209 0.063297369 0.062323328
0.66557235 0.063327663 0.062394865
0.67866427 0.063236475 0.062430203
0.68254149 0.063655376 0.06285546
0.68682361 0.063051902 0.062636636
0.69039178 0.063201688 0.062770657
0.71380633 0.063666381 0.063020155
0.71657324 0.063138552 0.062267553
0.72841787 0.065571085 0.059340931
0.4696444 0.067301713 0.065698139
0.47176784 0.067737743 0.065796889
0.6290974 0.067616917 0.064049155
0.6309545 0.067558117 0.063901976
0.63857985 0.067496806 0.063695207
0.64221996 0.067705303 0.063793488
0.7290656 0.069118656 0.061414361
0.13260259 0.054858133 0.059630442
0.13759218 0.054726426 0.060003385
0.14245704 0.054674674 0.060105085
0.14747091 0.05441989 0.060219169
0.15299043 0.054177176 0.060234502
0.15749831 0.054007735 0.06012132
0.16175 0.054878205 0.060586791
0.16832803 0.054244585 0.060118008
0.17297018 0.053918131 0.059873473
0.17778018 0.054410584 0.06002675
0.18233685 0.054311197 0.059795011
0.18689799 0.054947518 0.060037747
0.19276407 0.054691788 0.059862133
0.19764325 0.054760534 0.059944622
0.2027259 0.054908555 0.059789613
0.20726027 0.054669093 0.059380922
0.21244918 0.054622393 0.059311368
0.2175394 0.054902185 0.059554666
0.22231284 0.055001065 0.059710775
0.22556967 0.05465493 0.059526663
0.2315087 0.055237524 0.06012892
0.237591 0.054530613 0.059974287
0.2426867 0.054452717 0.060105264
0.24748011 0.054478712 0.060185511
0.25245497 0.054324631 0.060060896
0.25774083 0.054255504 0.060015433
0.26271963 0.054299966 0.060027927
0.26727161 0.054500375 0.060073651
0.27272719 0.054756399 0.06001512
0.27757481 0.054986283 0.060077854
0.28265664 0.054543816 0.059810363
0.28803039 0.054718357 0.060144901
0.29243404 0.054625425 0.06017033
0.29757822 0.054140605 0.059943032
0.30225399 0.053929739 0.060000923
0.30713895 0.054387584 0.060426284
0.3122842 0.054345112 0.060349453
0.31730628 0.054411672 0.060374126
0.32258621 0.053690869 0.059944343
0.32751435 0.053963482 0.060131051
0.33266377 0.054310769 0.060250595
0.33766752 0.053884689 0.060034055
0.34200835 0.054054305 0.060085729
0.34710306 0.05412754 0.059933562
0.35247952 0.053996038 0.059815418
0.35754281 0.054182712 0.059731055
0.36193016 0.054507576 0.059771325
0.36713481 0.054534249 0.059782181
0.37865928 0.054471418 0.0603167
0.38276935 0.054234136 0.060460255
0.38750827 0.053934552 0.06054553
0.39300367 0.05411524 0.060474839
0.39718798 0.054741733 0.060670547
0.40224355 0.054671351 0.060310401
0.40816727 0.054796897 0.059615083
0.41267964 0.054973848 0.059129447
0.41782349 0.054545108 0.058736455
0.4227342 0.05481679 0.058877241
0.42746314 0.054859065 0.058817893
0.43250784 0.054810528 0.059087221
0.437222 0.054626744 0.059487257
0.44270006 0.054557826 0.060244791
0.44764221 0.054408319 0.060583878
0.45282912 0.054325011 0.060357142
0.45729136 0.054532178 0.060060933
0.46297666 0.054886024 0.059536897
0.46761453 0.055335585 0.059165265
0.47180441 0.055874832 0.058779798
0.47809762 0.056459658 0.058114722
0.48248872 0.056315601 0.057654861
0.48756447 0.056523088 0.057612207
0.49240446 0.056928493 0.058139328
0.49747121 0.056777447 0.058449663
0.50258404 0.056349952 0.058955334
0.50763905 0.056742176 0.059770726
0.51221997 0.055544473 0.058928855
0.5177114 0.055192053 0.05891731
0.52269816 0.055311453 0.059151694
0.52722269 0.055567067 0.059059512
0.53147274 0.05614939 0.058828324
0.53751075 0.05584107 0.057894632
0.54078478 0.056124259 0.05779276
0.55780679 0.057352714 0.056929238
0.56120515 0.057257742 0.056863166
0.58427501 0.058184963 0.056825526
0.58689988 0.058110692 0.05680709
0.59271359 0.058255706 0.056960512
0.59650379 0.058278617 0.057090141
0.60380006 0.05688446 0.056876473
0.60772884 0.056555118 0.057040658
0.61215806 0.056580737 0.057257287
0.617953 0.05668924 0.057552297
0.62735552 0.056527406 0.056620616
0.63170427 0.057156466 0.056480125
0.6494593 0.057263464 0.056449946
0.65277416 0.056976542 0.056377191
0.65637803 0.05715083 0.056949332
0.66388988 0.056526083 0.057245787
0.66721171 0.056558311 0.057366028
0.67279583 0.056592587 0.057234678
0.67773968 0.056826692 0.057175253
0.68177164 0.05673733 0.057292782
0.68932521 0.056553356 0.057537146
0.69291615 0.056595847 0.05757039
0.69737846 0.056584567 0.057602115
0.70263177 0.056297828 0.057661261
0.7073825 0.055964302 0.057414219
0.71156758 0.056098711 0.057216488
0.71708804 0.0567807 0.056829538
0.72107732 0.057190303 0.055859003
0.12866874 0.058351178 0.061334472
0.13262767 0.057750061 0.061713673
0.13758121 0.057769835 0.062049378
0.14250726 0.057492804 0.062021419
0.14739217 0.057555098 0.062364239
0.15244217 0.057560295 0.062527843
0.15728916 0.057573352 0.062412787
0.1626385 0.057388257 0.062094569
0.16747506 0.057644252 0.062247641
0.17260371 0.057819519 0.062363625
0.17735977 0.058085352 0.062445138
0.18224278 0.057921696 0.062182162
0.18754981 0.058177304 0.062170953
0.1924724 0.057944201 0.061976474
0.19740091 0.058262452 0.062110372
0.20269944 0.057853166 0.061640956
0.20748512 0.058147166 0.06159465
0.21228142 0.057912696 0.061413471
0.21741101 0.057744946 0.061353978
0.22265065 0.057883762 0.061519511
0.22759815 0.057889815 0.061654061
0.23240833 0.057865459 0.061847616
0.23774533 0.057509359 0.061959352
0.24264288 0.057941891 0.062392134
0.24747796 0.058032967 0.062552579
0.25231296 0.057798374 0.062414568
0.25729755 0.057700623 0.062344469
0.26231104 0.057895429 0.062459052
0.26739761 0.05767864 0.062217396
0.27251241 0.057852264 0.062141407
0.27761954 0.057793729 0.061970487
0.28249821 0.057788029 0.062002707
0.28743061 0.057939634 0.062234294
0.29256371 0.057816725 0.062245086
0.29781246 0.057389591 0.062060285
0.30251846 0.057520363 0.062332593
0.30720642 0.057637211 0.062392849
0.31235448 0.057670884 0.062426202
0.31759357 0.057775266 0.062447313
0.322559 0.057390001 0.0621958
0.3275345 0.057712879 0.062271141
0.33223951 0.057491384 0.062112972
0.33747065 0.057568915 0.062075879
0.34255511 0.057482861 0.062061511
0.34754556 0.057684187 0.062166579
0.35253116 0.057589088 0.061879616
0.35759607 0.057666201 0.06175901
0.3627612 0.057883158 0.061708793
0.36781567 0.058066726 0.061714716
0.37239873 0.057858285 0.061723378
0.37735578 0.057614189 0.061984017
0.38231754 0.057407368 0.062125761
0.38739386 0.057405904 0.062245537
0.39246044 0.057585496 0.062289145
0.39747071 0.057948746 0.062164642
0.40264711 0.057545166 0.061500028
0.40753019 0.058029797 0.061091691
0.41242951 0.058144443 0.06073999
0.41763216 0.058300037 0.060652468
0.42256522 0.058133159 0.060630035
0.42761648 0.058043066 0.060762003
0.43239626 0.057902195 0.060957514
0.43771073 0.057617575 0.061570775
0.44256258 0.057538137 0.062144138
0.44756883 0.057451062 0.062425867
0.45272365 0.057876226 0.062283803
0.45753008 0.057799615 0.061715562
0.4625487 0.058110461 0.061354104
0.46732673 0.058445144 0.060920853
0.47227898 0.058835555 0.060502518
0.47760931 0.059215777 0.060213882
0.48243836 0.059131458 0.060002442
0.48738664 0.058893569 0.05995461
0.49234682 0.058685973 0.060076442
0.49748155 0.058534365 0.060527127
0.50286108 0.058488838 0.06112095
0.50758809 0.058262069 0.061294869
0.51269859 0.057888467 0.061164148
0.51747215 0.058327865 0.061518259
0.52222294 0.05828191 0.061413575
0.52716213 0.058137659 0.060998373
0.53223211 0.057920244 0.060147755
0.53750473 0.058311 0.059561431
0.54234153 0.058673192 0.059314094
0.54727966 0.059457026 0.059470654
0.55253869 0.059745409 0.059218749
0.55745059 0.059487078 0.058938984
0.56240892 0.059509467 0.059023697
0.5669018 0.059566706 0.058909897
0.57315469 0.060231708 0.059337486
0.57778323 0.060481943 0.059448034
0.58234054 0.060291819 0.059144143
0.58776331 0.060030781 0.058819521
0.59259915 0.060342431 0.058941595
0.59738588 0.059654623 0.058571741
0.60249931 0.059372116 0.058804661
0.60763162 0.059216227 0.059042133
0.61238343 0.059084695 0.059139214
0.61738461 0.059135817 0.059224389
0.62233663 0.059357807 0.05910489
0.62751156 0.059524901 0.058742713
0.63239288 0.060004488 0.058472637
0.63697958 0.060426433 0.05854892
0.64301181 0.061016463 0.059020281
0.64777201 0.060374223 0.058745522
0.65260857 0.059967693 0.058853608
0.6574508 0.059745148 0.059018541
0.66277218 0.059374791 0.059412163
0.66774327 0.059493221 0.059697285
0.67264497 0.059515711 0.059585545
0.67745918 0.059663709 0.059578814
0.68255377 0.059104141 0.059360702
0.68765092 0.059248887 0.059721421
0.69248992 0.059672106 0.060062476
0.69732815 0.059546944 0.060074084
0.70233458 0.059399806 0.060279626
0.70734572 0.059528183 0.060437161
0.71235234 0.059334263 0.059900008
0.71723551 0.05952099 0.059220109
0.7217961 0.060236264 0.058347754
0.72515178 0.060942959 0.057453874
0.12834117 0.062420517 0.064002268
0.13191982 0.06109415 0.063881338
0.1370396 0.06111018 0.064159431
0.14245184 0.060888793 0.0641983
0.14806969 0.061288908 0.064675085
0.15243484 0.06089114 0.064451441
0.15771067 0.060996816 0.064339571
0.16244036 0.061052501 0.064147346
0.16736589 0.061048977 0.064172558
0.17243436 0.060941212 0.064157702
0.17717555 0.061053418 0.064183712
0.18267557 0.061106458 0.064139225
0.1877372 0.061277766 0.064100452
0.1925566 0.061262719 0.064047895
0.19743657 0.061429299 0.06406337
0.20240909 0.061565153 0.063941918
0.20788302 0.06153582 0.063652746
0.21266602 0.061734404 0.063720442
0.21728177 0.06168681 0.063780978
0.22239862 0.061421156 0.063692227
0.22764391 0.061755877 0.063983746
0.23249073 0.061703261 0.064133413
0.23756523 0.061594564 0.064269386
0.2424248 0.061543487 0.064444594
0.24719162 0.061791517 0.064680137
0.25251588 0.061761983 0.064672366
0.25782719 0.062062439 0.064888559
0.2623516 0.061715826 0.064665563
0.26783442 0.061632104 0.064522222
0.27261031 0.061654046 0.064386308
0.27782601 0.061495241 0.064200304
0.2827127 0.061541252 0.064244516
0.2872059 0.06176804 0.064455681
0.29250449 0.061715271 0.064394549
0.29779258 0.06165193 0.064567633
0.3026363 0.061712813 0.06464427
0.30702639 0.061514121 0.064467959
0.31228662 0.061824653 0.06470976
0.31759953 0.06143738 0.064401388
0.32288736 0.061504729 0.064318821
0.32781732 0.061680749 0.064253494
0.33255029 0.061843656 0.064260051
0.3372958 0.061846733 0.064180695
0.34236887 0.061842408 0.064314961
0.34749588 0.061909828 0.064356305
0.3527489 0.061566673 0.064005725
0.35760492 0.061718889 0.06388592
0.3626245 0.061922412 0.063808031
0.3678087 0.062130556 0.063755609
0.37285307 0.061635759 0.063554518
0.37712216 0.062135164 0.063969776
0.38198248 0.06194514 0.064228848
0.38731891 0.061772604 0.06407965
0.39240605 0.061670311 0.064104512
0.39776608 0.061900534 0.063857451
0.40249208 0.061939701 0.063499585
0.40752065 0.06221503 0.063176811
0.41244197 0.062189952 0.062892057
0.41747561 0.062242031 0.062776066
0.4225454 0.062356688 0.06304124
0.42734322 0.06214137 0.063137367
0.43248403 0.06212505 0.063446276
0.43752384 0.061469119 0.063697949
0.4425669 0.061211202 0.064242147
0.44740954 0.061467849 0.064446755
0.45240241 0.061311185 0.06406112
0.45769581 0.061701395 0.063570142
0.46252233 0.062020931 0.063260883
0.46720737 0.06246243 0.063022614
0.47235361 0.062717237 0.0627691
0.47723344 0.063045725 0.062781304
0.48218024 0.062928572 0.062838241
0.48730493 0.062738165 0.063041046
0.49223644 0.062366042 0.063305169
0.4975087 0.061966941 0.063585557
0.50196469 0.061584909 0.063531458
0.50747389 0.061740607 0.063869372
0.51247019 0.061649904 0.063741185
0.51739633 0.062035628 0.063867867
0.52273875 0.062185872 0.063754342
0.52747983 0.062114488 0.063208275
0.53210038 0.062593095 0.062879786
0.53749567 0.062912062 0.062291391
0.54262471 0.063313223 0.062098701
0.54751903 0.063371256 0.062101707
0.55229855 0.063246772 0.06186885
0.55737537 0.06301 0.061798844
0.56255317 0.062714428 0.061719302
0.56718022 0.062904425 0.061737161
0.57244366 0.063142121 0.062002886
0.5773741 0.063211925 0.061983269
0.58256942 0.063210882 0.061775286
0.58758962 0.063647211 0.061884493
0.5921526 0.063461609 0.061434709
0.59773213 0.063267924 0.061345406
0.60260081 0.063193113 0.061730564
0.60758317 0.063202046 0.061854921
0.61247659 0.063154317 0.061792415
0.6176573 0.063229136 0.061746705
0.62272668 0.063292779 0.061545718
0.62766558 0.063487388 0.061213173
0.6324051 0.063594416 0.060923256
0.63756329 0.063828722 0.060980693
0.64191061 0.063548192 0.060847275
0.64643544 0.06317538 0.060734514
0.65324634 0.063193716 0.061286096
0.6574682 0.063007824 0.06159246
0.66259122 0.06302087 0.062044304
0.66781515 0.06327904 0.062346343
0.67259574 0.062654674 0.061884038
0.67715049 0.062960289 0.062100306
0.68260008 0.062711462 0.062048465
0.68700469 0.062533095 0.06207858
0.69261861 0.062516719 0.062251348
0.69734359 0.063518405 0.063058555
0.70259714 0.063070193 0.063035645
0.70824939 0.062522337 0.062594444
0.71217066 0.062364113 0.062207464
0.71709579 0.062800325 0.061791398
0.7217297 0.063585833 0.061032213
0.72530991 0.064450666 0.06028679
0.1274038 0.065240353 0.065395743
0.14888412 0.065335155 0.067034528
0.15272635 0.064811915 0.066621833
0.1578591 0.06492772 0.066552125
0.16270229 0.065052874 0.066455424
0.1675857 0.065546557 0.066795111
0.17261134 0.065586232 0.066872329
0.17730221 0.065400839 0.066799603
0.18277915 0.065224148 0.066616394
0.18753205 0.065156244 0.066494793
0.19255714 0.064764582 0.066238388
0.19741763 0.064852953 0.066201359
0.20226263 0.065002032 0.066073395
0.20737085 0.064851031 0.065688729
0.21262296 0.064707637 0.065536037
0.21738163 0.064733088 0.065603293
0.22277184 0.064769536 0.065667108
0.22749053 0.06478481 0.065754801
0.23225729 0.064791091 0.065859251
0.23636259 0.064776659 0.065987326
0.31421718 0.064425468 0.065904245
0.31749761 0.064483449 0.065896951
0.32272208 0.064611323 0.065778054
0.32793993 0.064709015 0.065710433
0.35258076 0.065035157 0.065748438
0.3577497 0.065191492 0.065594099
0.36095062 0.065257132 0.065542892
0.3681826 0.066508591 0.066032052
0.39814675 0.066637225 0.066216119
0.40244463 0.066045865 0.065573812
0.40699655 0.065749772 0.065105639
0.41322187 0.065712512 0.064833343
0.4175761 0.06624084 0.065065883
0.42209244 0.065730587 0.064839207
0.42645305 0.065169215 0.064741246
0.46397698 0.066202417 0.065339766
0.4670307 0.065536752 0.064740367
0.5224033 0.0659554 0.065919623
0.52714717 0.065800376 0.065288231
0.53292316 0.066089191 0.06470003
0.53725678 0.066327177 0.064521156
0.54235542 0.066262312 0.064132899
0.54707628 0.066431113 0.064127304
0.55211055 0.066231683 0.064157449
0.5583933 0.066148691 0.064450234
0.56225544 0.066422574 0.064752512
0.56875378 0.06587249 0.064347059
0.57267845 0.065825224 0.064161144
0.57728809 0.06613905 0.064457275
0.58181864 0.06614086 0.064234152
0.58684719 0.068411574 0.06555821
0.59302002 0.0672106 0.064536795
0.59691703 0.066878252 0.064361557
0.60380805 0.066591971 0.064397179
0.60808218 0.065730996 0.0636869
0.61250812 0.066089548 0.063873589
0.61750036 0.066441402 0.063885808
0.62264466 0.06626109 0.063403122
0.62585884 0.066028029 0.063289948
0.64892519 0.068189427 0.06458842
0.65253216 0.066514462 0.063676417
0.65750664 0.066140115 0.06383197
0.66231877 0.066345163 0.06427484
0.66764337 0.066376634 0.064364046
0.67254299 0.066340834 0.064278856
0.6773749 0.066128165 0.064270362
0.68189114 0.066673331 0.064863481
0.68804395 0.06594906 0.064622857
0.69249767 0.065672643 0.064409412
0.69729233 0.065847002 0.064545147
0.70296806 0.066212386 0.065070033
0.70761871 0.065543279 0.064724892
0.71228039 0.065600507 0.064505294
0.71811116 0.066808477 0.064280249
0.72239268 0.067641698 0.063668564
0.726219 0.068267308 0.062523991
0.32431164 0.070664443 0.06884896
0.32542679 0.071200937 0.069174871
0.36892709 0.069234602 0.067412183
0.37052891 0.070703655 0.068248928
0.40001971 0.069388531 0.067493424
0.40303478 0.070137911 0.06761957
0.40617537 0.069422387 0.067209363
0.41789564 0.07025186 0.067251876
0.42091036 0.069980659 0.067171551
0.46440572 0.069641627 0.067172147
0.46764451 0.069819517 0.067188434
0.48390862 0.069938026 0.067524157
0.48555058 0.069650702 0.06748917
0.50737315 0.070274197 0.069354981
0.51983821 0.069736168 0.068163298
0.5228588 0.069661498 0.067885503
0.52704751 0.07028506 0.067654237
0.53351313 0.070036724 0.066906877
0.5376972 0.06970486 0.066503219
0.54279155 0.070441738 0.066675231
0.54770535 0.070426956 0.066610448
0.55111754 0.069985434 0.066639833
0.56309813 0.069395162 0.066913307
0.56726217 0.068634786 0.066529155
0.57201719 0.068071045 0.065970846
0.57819885 0.069163129 0.066695713
0.58247495 0.069663227 0.066742256
0.58639336 0.069545887 0.066461317
0.59271067 0.069450274 0.066255637
0.59737796 0.069820806 0.066602215
0.60225236 0.069495089 0.066560246
0.60743308 0.070035286 0.066716537
0.61196309 0.069960654 0.066514798
0.61777848 0.069729276 0.066115089
0.62283349 0.070153944 0.066191666
0.62738419 0.069540076 0.065561429
0.63252145 0.0694343 0.065200232
0.63721675 0.069245949 0.064999402
0.64082903 0.069863185 0.065403894
0.6484791 0.070936374 0.066508211
0.65241408 0.07024207 0.066412821
0.6570071 0.070242457 0.066707939
0.66266853 0.069302775 0.06623698
0.66814572 0.069424078 0.066321231
0.67203033 0.069623955 0.066430949
0.67783284 0.06932015 0.066480197
0.68248612 0.069672056 0.066807956
0.68739223 0.069686063 0.066999495
0.69167179 0.069822125 0.067291275
0.70356983 0.069061406 0.06692455
0.70774645 0.068809956 0.066900142
0.71294105 0.069296733 0.066764675
0.71804869 0.070685379 0.066779353
0.72084498 0.071400613 0.066557243
0.72724724 0.071089827 0.063988931
0.37104887 0.073051102 0.069611117
0.40410832 0.073484212 0.069377847
0.40628803 0.072983466 0.069041878
0.46887487 0.07307528 0.068935424
0.48343945 0.072911136 0.069287337
0.48546597 0.072462335 0.069114901
0.50831485 0.071813211 0.070379652
0.51026297 0.072328418 0.070669025
0.52385449 0.072347857 0.069261417
0.52783203 0.073097862 0.069184363
0.53143138 0.073572844 0.069052711
0.56684858 0.071763925 0.068747066
0.59875476 0.072846159 0.068794698
0.60267586 0.073262215 0.069152631
0.60628057 0.073225655 0.069035731
0.62425721 0.073101416 0.068102844
0.62800795 0.073176272 0.068113849
0.63147306 0.072834462 0.067768708
0.64909548 0.072966501 0.067961857
0.65284252 0.073056869 0.068395048
0.65566564 0.072512485 0.068205968
0.71917206 0.073209472 0.068098903
0.16309705 0.056869969 0.061752282
0.53296089 0.057564072 0.059600111
0.53586835 0.058298074 0.059575357
0.53953803 0.059753105 0.060028195
0.59722614 0.059805781 0.058495622
0.15887271 0.059967883 0.063697129
0.16236351 0.060233694 0.063688375
0.16614249 0.060976304 0.064087771
0.1833154 0.059918229 0.063389011
0.1872905 0.0601537 0.063360997
0.19139341 0.060575362 0.063610919
0.19843002 0.060829435 0.063604333
0.20379058 0.06063835 0.063300565
0.22472295 0.060459297 0.063142672
0.22832841 0.060734071 0.063406959
0.23304987 0.06020255 0.063267775
0.23613709 0.059951246 0.063292757
0.24897817 0.059771325 0.063576698
0.25282505 0.059750624 0.063574329
0.25685003 0.059840258 0.063647002
0.29381514 0.060284592 0.063601494
0.29740614 0.060219556 0.063634314
0.30237091 0.060372531 0.063882418
0.30525231 0.060608655 0.063993469
0.31879547 0.060293246 0.06384635
0.32221967 0.059663586 0.063424885
0.33293688 0.060497835 0.063529149
0.35959148 0.060248401 0.062940538
0.3610197 0.060522664 0.063084275
0.37736616 0.060152076 0.063089743
0.39306974 0.059782505 0.063210353
0.39607894 0.059091225 0.062751889
0.42890775 0.060962211 0.062596694
0.43276849 0.060738042 0.06267792
0.43754208 0.060483254 0.063226879
0.4688952 0.060674354 0.061853379
0.47050449 0.061273836 0.062121842
0.48960966 0.061598875 0.062333405
0.49268132 0.061250377 0.062347408
0.49684879 0.061196994 0.062670358
0.50086015 0.06093264 0.062882423
0.5083459 0.060363907 0.062949777
0.51234812 0.060472049 0.06292776
0.51495689 0.060151596 0.062601678
0.52316028 0.060922667 0.062850125
0.52817136 0.060254119 0.06203315
0.53209943 0.060051583 0.061330322
0.53702706 0.061257567 0.061282229
0.54132801 0.062658846 0.061619345
0.56853342 0.064691424 0.06292773
0.59468102 0.062939465 0.06098146
0.59665585 0.062248271 0.060287748
0.69846046 0.061761603 0.061783772
0.70239806 0.061674759 0.061982684
0.7051149 0.06194691 0.062185332
0.12923865 0.064296573 0.065424003
0.13267691 0.063624464 0.065505758
0.13751648 0.063814998 0.065814987
0.14255692 0.063410223 0.065647997
0.14747982 0.063335523 0.065792181
0.15245567 0.063422859 0.065847509
0.15745483 0.063641481 0.065769084
0.16225754 0.063897043 0.065742679
0.16753308 0.063693509 0.06565804
0.17258963 0.063700445 0.065724246
0.17764372 0.062955983 0.06535209
0.18258138 0.063288696 0.065400809
0.18745567 0.063679069 0.065533139
0.19248794 0.063657925 0.065519325
0.19750552 0.063787334 0.065437451
0.20237622 0.063762121 0.065261267
0.20718491 0.063572481 0.064888068
0.21212997 0.064163715 0.065203726
0.21772717 0.064198613 0.065229096
0.22263211 0.063612401 0.064966507
0.22750171 0.063608132 0.065051354
0.23233008 0.063849032 0.065314777
0.23739849 0.063971125 0.065586515
0.24253733 0.063786454 0.06561783
0.24762598 0.063147381 0.065367758
0.25255856 0.063496284 0.065541998
0.25736144 0.063520715 0.065590806
0.26254198 0.06325493 0.065439582
0.26780322 0.063464843 0.065466002
0.27240074 0.063467935 0.065331474
0.27741477 0.063604012 0.065311201
0.28238747 0.06390956 0.065430664
0.28770295 0.0635342 0.065268643
0.29248798 0.063421734 0.065231524
0.29720923 0.063563183 0.065422595
0.30269119 0.063582458 0.065528706
0.30769864 0.063649341 0.065566108
0.31257105 0.063709348 0.065582395
0.31762853 0.063558042 0.065443777
0.32250583 0.063158669 0.065154389
0.32779562 0.063790135 0.065210663
0.33245972 0.063374788 0.064920805
0.33670363 0.06414403 0.065253109
0.34260228 0.064302288 0.065594487
0.34832776 0.064224504 0.06544026
0.3528865 0.064215638 0.065282077
0.35747683 0.064129435 0.065076739
0.3625164 0.064103745 0.064917512
0.36798272 0.064049058 0.06472782
0.3721548 0.06434492 0.064807408
0.37693393 0.063620426 0.064621665
0.38277704 0.063734181 0.06498903
0.38762966 0.064205237 0.065202862
0.39254367 0.063563131 0.064992964
0.39690664 0.063912094 0.064872272
0.40215188 0.064370364 0.064669959
0.40760183 0.064844616 0.064557202
0.41254979 0.064701468 0.064249143
0.41754067 0.064852342 0.0643434
0.42273989 0.064621344 0.064262636
0.4276202 0.064144261 0.064296067
0.43227056 0.064394072 0.064584918
0.43739408 0.064147726 0.06491518
0.44245315 0.063572004 0.065257967
0.44768506 0.064029239 0.065656647
0.45259058 0.063573845 0.065175727
0.45709553 0.064146958 0.064955026
0.46239519 0.06444376 0.064515844
0.46750498 0.064613618 0.064048938
0.47237596 0.064316057 0.063624352
0.47750959 0.064721256 0.063732661
0.48255965 0.064771101 0.063979484
0.48752043 0.064619698 0.064197563
0.492349 0.064417303 0.064628631
0.49752256 0.064255044 0.065048203
0.50266427 0.06402234 0.065211542
0.5076412 0.063965768 0.065212853
0.51223773 0.063925877 0.065021008
0.51731718 0.063830785 0.064946681
0.52214432 0.064057283 0.064767584
0.52772695 0.064099692 0.064181454
0.53235799 0.064567886 0.063797809
0.53712666 0.064878523 0.063451134
0.5420059 0.065571733 0.063451394
0.55328417 0.065549083 0.063549869
0.55792356 0.065293834 0.063563891
0.562509 0.065464355 0.063813157
0.567761 0.06580507 0.063928992
0.57466495 0.065869525 0.064104825
0.57854742 0.065929264 0.064118885
0.5822019 0.065749034 0.063737355
0.58742708 0.06571424 0.063405618
0.59267735 0.065678179 0.063177057
0.59698439 0.065892346 0.063298501
0.60250312 0.06569653 0.063569814
0.60694736 0.065832481 0.063609906
0.6118868 0.06591294 0.063562214
0.61724484 0.06599544 0.063474119
0.62222683 0.065787114 0.06302055
0.62719798 0.065944992 0.062865004
0.6325165 0.066079639 0.062649719
0.6372546 0.066405371 0.062734865
0.64303249 0.066131368 0.062638178
0.64771038 0.065672569 0.062598832
0.65241408 0.065541483 0.062839746
0.65762359 0.065407582 0.063191794
0.6627053 0.065348767 0.063517749
0.66723907 0.065579228 0.063742228
0.67273027 0.065553956 0.063695632
0.67757416 0.065451935 0.063748106
0.68247169 0.065357707 0.063864239
0.6875959 0.064999871 0.063823469
0.69250739 0.064688027 0.063666441
0.69758332 0.064399213 0.063577801
0.70241308 0.064466655 0.063878961
0.70701015 0.06421382 0.063804224
0.71214455 0.064869687 0.063914739
0.71713722 0.065525495 0.063539848
0.72187752 0.065975249 0.062653206
0.72523808 0.066922523 0.061977781
0.12851144 0.067376249 0.067083679
0.13236549 0.067471124 0.067793205
0.13715583 0.067429997 0.06797687
0.14250892 0.067299858 0.067829169
0.14749365 0.067439668 0.068087004
0.15240906 0.06737759 0.068022899
0.15750431 0.067655653 0.068041481
0.16243039 0.067531846 0.067867197
0.16754407 0.067700021 0.068013437
0.17254597 0.067588463 0.068035141
0.17753772 0.067330793 0.067944549
0.18244031 0.067545317 0.068012476
0.18746325 0.067645885 0.067998573
0.19259436 0.067496322 0.067859598
0.1973846 0.067584462 0.067853853
0.20236763 0.067518786 0.067620926
0.20759779 0.067680635 0.06745179
0.21257883 0.067648448 0.067283854
0.21747945 0.067653425 0.067295998
0.22257181 0.067569725 0.067335457
0.22751816 0.067632869 0.067443728
0.23244852 0.067652382 0.067515232
0.23754185 0.067834616 0.067742422
0.24255502 0.067434087 0.067593917
0.24734892 0.067564428 0.067663267
0.25246701 0.067503661 0.06765347
0.25760126 0.067312114 0.067584686
0.26272482 0.067533731 0.067687839
0.26737589 0.067423865 0.067566432
0.27261382 0.067332096 0.067409851
0.27753705 0.067388467 0.06733866
0.28253722 0.067472681 0.067309313
0.28743553 0.067501441 0.067284577
0.29239544 0.067621842 0.067412816
0.29752228 0.067569904 0.067538276
0.30251801 0.067430004 0.067518473
0.30749872 0.067592837 0.067569017
0.31241575 0.06763044 0.067528605
0.31733733 0.06725587 0.067227274
0.32257724 0.067471683 0.067174345
0.32758039 0.067434587 0.067054242
0.3327283 0.06733793 0.066944882
0.33719483 0.067387827 0.066895291
0.34235865 0.067529075 0.067148574
0.34742481 0.06740199 0.067063205
0.35255426 0.06771031 0.067178093
0.3576099 0.067636453 0.066914752
0.36279982 0.067674413 0.066756241
0.36748725 0.067889526 0.066706613
0.37253678 0.067725055 0.066634096
0.3773613 0.067521341 0.066660501
0.38224015 0.067671135 0.066908635
0.38739526 0.067746557 0.066910788
0.39238411 0.067897707 0.067126423
0.39720854 0.067587435 0.06675937
0.40243822 0.067967713 0.066508628
0.40699562 0.067744672 0.066158891
0.41219771 0.068018869 0.066130534
0.41768631 0.068244413 0.066124968
0.42241126 0.068095714 0.066093884
0.42733425 0.06823694 0.066556059
0.43248439 0.068411745 0.066854224
0.43738088 0.068206839 0.067050099
0.44241041 0.067835227 0.06735272
0.44736367 0.067825787 0.067450047
0.45252281 0.067864768 0.067193225
0.45764527 0.068036206 0.067021959
0.46215025 0.068063393 0.066520065
0.46731988 0.068124339 0.066086307
0.47232398 0.068111576 0.065839477
0.47730049 0.068039484 0.065758467
0.48273394 0.068089604 0.066029407
0.48770073 0.068073019 0.066414386
0.49276912 0.067984052 0.067002945
0.49760491 0.067704745 0.067337543
0.50255746 0.067757577 0.067506328
0.50735766 0.067747988 0.067591183
0.51234663 0.067669652 0.067396656
0.5174526 0.067523718 0.06707073
0.52243173 0.067861982 0.066832349
0.52756506 0.068393819 0.066381395
0.53234839 0.068467654 0.065983228
0.53744709 0.068615124 0.065679915
0.5423333 0.06863182 0.065396883
0.54761058 0.068951473 0.065528855
0.5524891 0.069185674 0.066037521
0.55708468 0.068880647 0.066109098
0.56236941 0.068736672 0.066245332
0.56755471 0.068570606 0.066124164
0.57241464 0.068514526 0.066057928
0.57734162 0.06860517 0.066129625
0.5824399 0.068762638 0.066010103
0.58785719 0.068590201 0.06557329
0.59255403 0.06893374 0.065776058
0.59746754 0.069174819 0.065844789
0.60260427 0.068773523 0.065849565
0.60756642 0.06878186 0.065742753
0.61260855 0.068842202 0.065584823
0.61744004 0.069155894 0.065550752
0.6224544 0.069408968 0.06535954
0.62740713 0.06944868 0.065120287
0.63236761 0.069533192 0.065130852
0.63744873 0.069176584 0.064762279
0.64229846 0.069269925 0.064804912
0.6475513 0.069470033 0.06523969
0.65265357 0.069255911 0.065533891
0.65756172 0.068915591 0.065617763
0.66250437 0.06865187 0.06576664
0.66747826 0.068580098 0.065751635
0.67257041 0.068741024 0.065777466
0.67757201 0.068903506 0.066007197
0.68256462 0.068525024 0.06590084
0.68755871 0.068359464 0.065989859
0.69270986 0.06848035 0.066241495
0.69778603 0.068338752 0.066235572
0.70217144 0.068442322 0.066407911
0.70746183 0.068526872 0.06662786
0.71240133 0.068587653 0.066370651
0.71715945 0.069228791 0.065964311
0.72204226 0.069651268 0.065076187
0.72559142 0.069904558 0.06390623
0.1283205 0.071291283 0.069351763
0.13158965 0.070573129 0.069403522
0.13823813 0.070790999 0.069861181
0.14253834 0.071238056 0.070116341
0.14692715 0.07041081 0.069719404
0.15232794 0.071313486 0.070235565
0.1578089 0.07142809 0.070164606
0.16263694 0.070928916 0.069804966
0.16753514 0.070917591 0.069868922
0.17237139 0.070858501 0.069931373
0.17696124 0.070460439 0.069733799
0.18333772 0.070378147 0.069619022
0.18762486 0.071294673 0.070193306
0.19255869 0.071139447 0.069985799
0.19726574 0.071340173 0.070107996
0.20226374 0.071444668 0.069949277
0.2075457 0.071640812 0.069733597
0.2123194 0.071694247 0.069642276
0.21744263 0.071429908 0.069551274
0.22267061 0.071568653 0.069659278
0.22745767 0.071494691 0.069645181
0.23214628 0.071566686 0.069745503
0.23739322 0.072152741 0.07020314
0.24285248 0.07170777 0.069951564
0.24763903 0.071223572 0.069642663
0.25248724 0.071613371 0.069889568
0.25761005 0.071623437 0.069917142
0.26235637 0.071813025 0.070007272
0.26709017 0.07138443 0.069687843
0.27229944 0.071416453 0.069648691
0.2777614 0.071624517 0.069645889
0.28258327 0.071841285 0.069679894
0.28719288 0.071609147 0.069511726
0.29232931 0.071794845 0.069645055
0.29760569 0.071772866 0.069815934
0.30272791 0.071414784 0.069650203
0.30761334 0.071719497 0.069796667
0.31209737 0.071966834 0.069828831
0.3173449 0.07209184 0.069718815
0.32252088 0.071888804 0.069435388
0.32795042 0.071518667 0.069230899
0.33319864 0.071466915 0.069062293
0.33756432 0.071301222 0.068868592
0.34211904 0.071837656 0.069319881
0.34728777 0.071842514 0.069415137
0.35255235 0.071600191 0.069198057
0.35768852 0.071426235 0.068939209
0.36279351 0.071615271 0.068837501
0.36764404 0.071603924 0.068706252
0.37285665 0.071634576 0.06875927
0.37760019 0.071652658 0.068942644
0.38197857 0.071746983 0.069023535
0.38747397 0.071521893 0.068984404
0.39190307 0.071624458 0.069143005
0.3977806 0.07182999 0.069016948
0.40234277 0.072084062 0.068683498
0.40680742 0.072205402 0.06852968
0.41225383 0.072060257 0.068284191
0.41759834 0.072037041 0.068199493
0.42254764 0.071914643 0.06827683
0.4270632 0.071421221 0.068306662
0.43194821 0.071587943 0.068672396
0.43745235 0.071466751 0.068901978
0.4425447 0.071215399 0.069059312
0.44721225 0.071425162 0.069196135
0.45197558 0.071408622 0.068976887
0.45774677 0.071704701 0.068961821
0.46222165 0.071467333 0.068519101
0.46749955 0.071697235 0.068119697
0.47225016 0.071847178 0.067953609
0.47714436 0.071928978 0.068083279
0.48313236 0.07172735 0.068311453
0.48777407 0.071528986 0.068607479
0.49268723 0.07142394 0.069080822
0.49742451 0.07108967 0.069264859
0.50231326 0.071499959 0.069869086
0.50800508 0.070859775 0.069661237
0.51275152 0.070843756 0.06947042
0.51733804 0.070866428 0.069022149
0.52254003 0.071353979 0.068763845
0.52762985 0.071842052 0.068243109
0.53255486 0.071392864 0.067677021
0.53691328 0.071984552 0.067752138
0.54217601 0.072019592 0.067493409
0.54761684 0.07207182 0.067606658
0.5524022 0.072270021 0.068146624
0.5577268 0.07234519 0.068645939
0.56142569 0.07196115 0.068595387
0.57246512 0.071587846 0.068276733
0.57798457 0.071648076 0.068372279
0.58288467 0.072124422 0.068410181
0.58772737 0.071848169 0.068061575
0.59197891 0.07238441 0.068331219
0.59737438 0.071935743 0.067978717
0.60297477 0.07184609 0.067992017
0.60789537 0.071908794 0.067870975
0.61304909 0.071934097 0.067764625
0.61756849 0.072302662 0.06777072
0.6213659 0.072708465 0.067939065
0.62793243 0.072090656 0.067035273
0.63327271 0.072397687 0.067097999
0.63743061 0.072526149 0.067075171
0.64255476 0.072385103 0.067132883
0.64747858 0.072488375 0.067335084
0.65255171 0.072225608 0.067578822
0.65788096 0.072080076 0.067810595
0.6625492 0.071801275 0.067859665
0.66758752 0.071791723 0.067843907
0.67254245 0.072160937 0.067981169
0.67753237 0.072146371 0.068128213
0.6816268 0.072323844 0.068467431
0.68740934 0.072460324 0.068761393
0.69361061 0.071241736 0.068221398
0.69757622 0.072027683 0.068668664
0.70221287 0.071504824 0.068445206
0.70774907 0.072055511 0.068788238
0.71244967 0.072103791 0.068462409
0.71677577 0.072092727 0.067783199
0.72290075 0.072241008 0.066471137
0.72607881 0.073665261 0.066259459
0.15327172 0.074547186 0.072130539
0.15798095 0.074728668 0.072153658
0.16226925 0.074712485 0.072044089
0.16747501 0.074451052 0.071923845
0.17234793 0.074453808 0.071992576
0.17652747 0.07445886 0.072065257
0.1945684 0.074613355 0.072049573
0.20278876 0.074789055 0.071909174
0.20552875 0.074879318 0.071822286
0.2422013 0.074052803 0.071312673
0.24693607 0.074116692 0.071308717
0.25165811 0.07416106 0.071331106
0.25798973 0.074299946 0.071457952
0.26238021 0.074225783 0.071417436
0.26704034 0.074303925 0.071372844
0.27241024 0.074872039 0.071645163
0.27781263 0.075218529 0.071779057
0.2828657 0.075692929 0.071941406
0.28749698 0.07575345 0.071925923
0.29214057 0.075770885 0.072003633
0.29745615 0.075768515 0.07214959
0.30288404 0.075360075 0.071960986
0.30771211 0.075785637 0.072154865
0.31233156 0.075563043 0.071847312
0.31769353 0.07617598 0.072011299
0.32254776 0.07545422 0.071491279
0.3273111 0.075615928 0.071497679
0.33303177 0.075733215 0.071366526
0.33744556 0.075872608 0.071446165
0.34204942 0.075801775 0.071577586
0.34723905 0.075753465 0.071729399
0.35242265 0.075820453 0.071701996
0.35759968 0.07595972 0.071577549
0.36261889 0.075926587 0.071471438
0.36805162 0.075136423 0.070807509
0.37284559 0.075579643 0.071118206
0.37742302 0.076223679 0.071639195
0.38188824 0.075817943 0.071454957
0.38664943 0.074944042 0.07093782
0.39215139 0.074571282 0.070843533
0.39818615 0.074967518 0.070632674
0.40182304 0.075625494 0.070764452
0.40547687 0.076611474 0.071075976
0.41772091 0.074053556 0.06943582
0.43292776 0.076145172 0.071467429
0.43746918 0.075937323 0.071335934
0.44264534 0.075260445 0.071198471
0.44764075 0.075648308 0.071448579
0.45258471 0.075823158 0.07140895
0.45772323 0.07556323 0.071190998
0.46256003 0.075693823 0.071172416
0.46714747 0.075623199 0.070579909
0.47943857 0.076967523 0.071472727
0.48221743 0.07572291 0.07086847
0.49877679 0.075020276 0.07175079
0.50299609 0.0744012 0.071664169
0.50728244 0.074482016 0.071918868
0.51242214 0.073809221 0.071487479
0.5178346 0.074540824 0.071203977
0.52284342 0.075008303 0.070911825
0.52785474 0.075927071 0.070787765
0.53336686 0.075602554 0.070085838
0.53788716 0.0755601 0.069894522
0.5427261 0.075881347 0.069903985
0.5473634 0.075348102 0.069797218
0.55246943 0.075460948 0.07031057
0.55743748 0.075683258 0.070899352
0.56254625 0.075495079 0.071004078
0.56608045 0.076064393 0.071596794
0.5738917 0.076615937 0.071978576
0.57786667 0.075545937 0.071025014
0.58239222 0.075341038 0.070691958
0.58770084 0.075356126 0.070521772
0.59299582 0.075671263 0.070501968
0.59718138 0.075599395 0.070536144
0.60198081 0.075510077 0.070654839
0.60755235 0.075005814 0.070103921
0.61291844 0.075362727 0.070185721
0.61756647 0.0755511 0.070068076
0.62267119 0.075869337 0.070090085
0.62703747 0.07608436 0.070179909
0.63041759 0.0758311 0.069867589
0.63978952 0.076948799 0.070360929
0.64266288 0.076949768 0.070360683
0.64757138 0.076267786 0.070150957
0.65224946 0.076040827 0.070301786
0.65728319 0.075341366 0.070086904
0.66220474 0.075513653 0.07015378
0.66752404 0.075625107 0.0703784
0.67242283 0.076017365 0.070512921
0.67768621 0.076102003 0.0706793
0.68230182 0.075350285 0.070310816
0.68748659 0.075601883 0.070750192
0.69254154 0.075526677 0.070811026
0.69749105 0.07551989 0.070849538
0.70258218 0.075566828 0.070995569
0.70730329 0.075309716 0.070766166
0.71275175 0.075887643 0.070773222
0.71773106 0.075467058 0.069805264
0.72213912 0.075921543 0.069125794
0.7272324 0.076833166 0.067690171
0.73065454 0.079842165 0.067530416
0.29808092 0.078024097 0.073534667
0.30269524 0.078106895 0.073515154
0.31912357 0.078445658 0.073260725
0.32191995 0.078453369 0.073213302
0.3277967 0.078967445 0.073429987
0.33212218 0.078802608 0.073218442
0.33736327 0.078650579 0.07314346
0.34194961 0.078569427 0.073291667
0.34718931 0.078482695 0.073423617
0.35239828 0.078532912 0.073462345
0.36311811 0.078567043 0.073092707
0.36790726 0.078321837 0.072835073
0.37280387 0.07843969 0.072937399
0.4039917 0.07886339 0.072452962
0.40692985 0.080694482 0.073470697
0.42952615 0.078310631 0.072546773
0.43283245 0.079518884 0.073362567
0.43653306 0.080350757 0.073689751
0.44105056 0.078545608 0.072817259
0.4522796 0.078562304 0.072968982
0.45787558 0.078772791 0.073203079
0.46241534 0.078976788 0.073184714
0.46750316 0.078956127 0.072812006
0.47229975 0.079570346 0.072853893
0.47761551 0.079862095 0.073184311
0.4829042 0.079063334 0.073102318
0.48577684 0.081455044 0.074800566
0.50870204 0.078030251 0.073985636
0.51150006 0.077612482 0.073803924
0.51794714 0.078418463 0.073522396
0.521878 0.078372426 0.072949409
0.52963507 0.078892291 0.072359726
0.53306586 0.079866476 0.072633415
0.53699577 0.079988651 0.072557308
0.54379743 0.079697773 0.072472416
0.54704875 0.079465322 0.072541855
0.5525375 0.078742109 0.072429821
0.5573315 0.078843676 0.072936036
0.56036806 0.078683384 0.072971046
0.56804723 0.078215681 0.073037751
0.57225132 0.078601986 0.073387973
0.57714808 0.078571267 0.07309819
0.59835202 0.078415103 0.072474271
0.60180295 0.077870384 0.072210863
