# .PCD v0.7 - Point Cloud Data file format
VERSION 0.7
FIELDS x y z
SIZE 4 4 4
TYPE F F F
COUNT 1 1 1
WIDTH 1379
HEIGHT 1
VIEWPOINT 0 0 0 1 0 0 0
POINTS 1379
DATA ascii
0.63171178 0.047108989 0.084438838
0.694094 0.048907075 0.082777783
0.69885612 0.049562249 0.082235903
0.70239991 0.049924888 0.081005201
0.70688534 0.050794914 0.078589119
0.71751082 0.10472894 0.079294436
0.71516639 0.10754765 0.077733882
0.7170772 0.10735319 0.07730177
0.49947265 0.038431212 0.080362834
0.50336719 0.036601316 0.078847036
0.50697654 0.036063168 0.078673378
0.51038027 0.036739632 0.079597376
0.52254373 0.036173191 0.078704752
0.52702636 0.036238588 0.078285262
0.53268647 0.036129244 0.077782221
0.53746098 0.036072105 0.077313416
0.54183352 0.036307827 0.076879278
0.54780519 0.037046783 0.076940566
0.55261683 0.036374696 0.076556444
0.55739903 0.036733359 0.077097006
0.56192952 0.037252527 0.077899925
0.5735833 0.038020276 0.079710342
0.57794988 0.037316706 0.079415083
0.5823794 0.037160479 0.079317726
0.5878033 0.037174497 0.079049289
0.59263176 0.036398724 0.078368813
0.59681726 0.036040142 0.077940941
0.60239905 0.03648334 0.078181334
0.60716671 0.03667381 0.078100264
0.6122449 0.036654096 0.077796221
0.61737722 0.036378607 0.077094838
0.62241238 0.036851399 0.077053934
0.62762886 0.036685869 0.076721244
0.63228631 0.037336782 0.077238135
0.63811737 0.037894707 0.077779271
0.6428324 0.037642416 0.077743582
0.64778978 0.037413459 0.077803969
0.65249312 0.036625445 0.07734625
0.65733588 0.036000766 0.076864108
0.66213578 0.03636758 0.07686159
0.66687953 0.036504366 0.076582476
0.67057228 0.036618736 0.076422028
0.27342719 0.038266283 0.084069997
0.27733693 0.039345328 0.081975721
0.28149295 0.040079493 0.080246061
0.32939866 0.041324802 0.079589903
0.33261004 0.041783005 0.079329103
0.3350834 0.042533781 0.079910427
0.38270706 0.038580056 0.083323032
0.38754627 0.038913935 0.083161689
0.39251035 0.038551092 0.083167307
0.39702752 0.038789731 0.083960377
0.40930292 0.036567509 0.085475378
0.4127858 0.036587745 0.085496239
0.41727844 0.036140688 0.085583463
0.42248893 0.036988597 0.085571326
0.4274739 0.036926478 0.085485116
0.43241543 0.037763793 0.085458077
0.43665379 0.038657784 0.08535111
0.44871801 0.03886009 0.084053539
0.4527669 0.038293112 0.083935514
0.45780352 0.03852348 0.084526733
0.4620761 0.038627513 0.084433205
0.46815881 0.038133301 0.082993515
0.47276643 0.038166221 0.081899777
0.4829635 0.039502379 0.08044681
0.48522356 0.04053795 0.081269756
0.49880058 0.039010298 0.081093453
0.50265288 0.038273372 0.080533005
0.50730306 0.038267128 0.080836475
0.51209545 0.038564257 0.081156805
0.51731896 0.039349109 0.081800431
0.52320087 0.038845237 0.080774747
0.52758878 0.039526705 0.080835029
0.53223616 0.039420422 0.080359772
0.53780884 0.039211627 0.079649515
0.54242396 0.039198719 0.078920498
0.54730171 0.039525609 0.078862719
0.55249822 0.040039945 0.079455107
0.55763769 0.039866123 0.079627119
0.5620777 0.039563205 0.079809442
0.56889635 0.03917456 0.080257349
0.57224512 0.039412744 0.080803551
0.57773572 0.039042898 0.080763593
0.58254969 0.039326791 0.081018105
0.58795178 0.03894015 0.080426477
0.59253222 0.039034545 0.080463223
0.59722203 0.039354868 0.080578998
0.60215271 0.039498024 0.080657929
0.60721469 0.038951747 0.079993263
0.61249393 0.039585195 0.080012366
0.6176405 0.039788291 0.079750709
0.62247968 0.039537624 0.079362854
0.62722063 0.039670065 0.079233214
0.63251323 0.039835244 0.079258695
0.63650006 0.040514462 0.079675399
0.6424818 0.039893217 0.079222798
0.64739001 0.03971038 0.079410531
0.6525895 0.039955165 0.079756647
0.65715992 0.039485238 0.079411976
0.66207522 0.039459899 0.07930617
0.66730082 0.039920188 0.07900437
0.67198247 0.04001224 0.078713253
0.67611969 0.04060135 0.078921616
0.70195025 0.04331759 0.076431744
0.27841303 0.041388303 0.082561143
0.28353202 0.043378577 0.081837445
0.28706509 0.043866791 0.080919005
0.29046229 0.044237457 0.080728099
0.30790192 0.043404147 0.081694789
0.31223187 0.042897128 0.081980437
0.31595099 0.042443525 0.082020901
0.32957125 0.042334031 0.080528185
0.33210945 0.043333117 0.080928497
0.34516034 0.043959145 0.081459954
0.38384548 0.041794699 0.085357346
0.38723505 0.041906796 0.085081808
0.39977136 0.040573835 0.085385159
0.4020634 0.041881319 0.08574263
0.40857664 0.041620713 0.085892819
0.41258192 0.041137777 0.085804857
0.41749257 0.041286103 0.08575207
0.42235112 0.041397069 0.08589913
0.4271102 0.040787954 0.085909329
0.4329229 0.040382914 0.085871764
0.43676731 0.040187147 0.085697509
0.4489868 0.040872563 0.085491665
0.45216766 0.040454738 0.085329443
0.45572069 0.039953556 0.085600205
0.46389461 0.040127169 0.085468277
0.46812886 0.040685903 0.085223265
0.47272754 0.041090585 0.084506415
0.47774246 0.041468009 0.083680332
0.48261923 0.041961506 0.083098836
0.48630559 0.042903893 0.083552942
0.49900624 0.04186511 0.083404317
0.50261754 0.042107139 0.083894148
0.5075832 0.041753516 0.08380577
0.5121122 0.041981254 0.083952188
0.51754051 0.04215458 0.083799936
0.52274948 0.041952316 0.083335564
0.52798337 0.04204439 0.082927085
0.53206462 0.042247038 0.082716636
0.53762466 0.042603888 0.082321748
0.54234397 0.043019969 0.081916206
0.54737586 0.042804874 0.081517272
0.55259168 0.042693533 0.081608132
0.55747849 0.042060275 0.081581272
0.56203008 0.042443413 0.08236324
0.56753224 0.042334057 0.082919426
0.5723083 0.042104501 0.083172053
0.57753265 0.041836768 0.083169028
0.58281481 0.041580956 0.082845569
0.58746618 0.041693762 0.082779691
0.59231573 0.04193287 0.082745172
0.59731233 0.042218745 0.082721829
0.60287666 0.042218186 0.082587123
0.60775137 0.042578205 0.082650214
0.61268687 0.042639341 0.082371712
0.61722994 0.042883545 0.082140438
0.62243205 0.042902276 0.081762537
0.6276105 0.043433718 0.081874162
0.63246012 0.043954469 0.082116455
0.63599485 0.043957066 0.08195284
0.6478796 0.041991778 0.081045344
0.65288234 0.042217381 0.081194147
0.65760249 0.043127559 0.081583053
0.66250616 0.043219469 0.081495099
0.66760707 0.042894665 0.081057951
0.67284614 0.043652046 0.081169508
0.67688209 0.043431804 0.080698848
0.68217766 0.044026319 0.080540352
0.68710649 0.044707745 0.080176063
0.69193691 0.044692233 0.079858594
0.69722128 0.04520138 0.079435512
0.70123714 0.04511869 0.078045152
0.70362329 0.046381533 0.077652737
0.28297132 0.046843801 0.0843677
0.28758532 0.047233973 0.083479919
0.29240733 0.046813969 0.082758367
0.29733515 0.047143754 0.083250158
0.30256543 0.047093842 0.083505645
0.30742535 0.046699684 0.083903655
0.31235954 0.046116482 0.084335275
0.31724942 0.045585059 0.084355518
0.32235253 0.046040177 0.084436744
0.32773399 0.045842964 0.083540797
0.33246073 0.045759503 0.083087519
0.33713403 0.046628077 0.0833451
0.34235767 0.04618128 0.083106339
0.34533796 0.044561464 0.082172312
0.38443604 0.044311203 0.087028109
0.38778883 0.044736568 0.086926915
0.41824305 0.045027643 0.086657465
0.42203763 0.04441883 0.086506449
0.46797076 0.043599643 0.087605275
0.47271585 0.044048678 0.086862758
0.47757164 0.044360202 0.086147927
0.48276985 0.045663651 0.086395107
0.48639506 0.045931913 0.08626654
0.49916571 0.046782892 0.087214604
0.5027895 0.045213267 0.086314604
0.5075677 0.04536451 0.086479343
0.51199299 0.044916943 0.086219795
0.51762325 0.045532916 0.086224236
0.52281445 0.045464542 0.085817091
0.52805918 0.045182191 0.085282341
0.53264827 0.045579169 0.085067064
0.53735161 0.046109825 0.08492516
0.54214185 0.046279706 0.084346563
0.54727477 0.046411581 0.084314965
0.55246496 0.046268921 0.08454562
0.55772322 0.04561964 0.084474742
0.56233525 0.045473084 0.084825076
0.56742001 0.045505855 0.085387677
0.57234204 0.045179784 0.085625194
0.5776338 0.044737492 0.085372038
0.58268201 0.045299001 0.08564689
0.58753532 0.045743823 0.085651718
0.59253341 0.045643058 0.085239328
0.59753913 0.045849767 0.085237704
0.60295343 0.045833502 0.085150398
0.60753077 0.046203062 0.085210994
0.61273146 0.046425153 0.084935099
0.61699975 0.045904063 0.084416799
0.62031525 0.046882175 0.084984303
0.63319749 0.04653177 0.083857894
0.63775492 0.046886493 0.083967477
0.64208019 0.046870209 0.083863683
0.64893758 0.046491202 0.083737113
0.65268683 0.047178358 0.084101036
0.65769351 0.047081418 0.0838788
0.66239679 0.046812665 0.083560415
0.66803497 0.04651428 0.083257765
0.67239779 0.046719801 0.083113439
0.67729735 0.04707209 0.082782507
0.68237001 0.047316913 0.082561985
0.68716258 0.047745839 0.082314804
0.6927495 0.047530115 0.081597112
0.69709682 0.048620198 0.081902012
0.70134294 0.049087409 0.080847532
0.70441717 0.049569588 0.079436228
0.28058556 0.049114719 0.086556599
0.28815642 0.049832817 0.085622318
0.29307207 0.05021495 0.085591443
0.2974993 0.050282434 0.085418984
0.30287251 0.049942557 0.08549837
0.3077808 0.050003976 0.086238682
0.31231424 0.049952175 0.086857662
0.31752917 0.049478605 0.086895332
0.32245246 0.049689062 0.086695276
0.32742578 0.050018236 0.086418875
0.33236355 0.049938746 0.086242333
0.3372016 0.050009847 0.086155072
0.34091508 0.049581662 0.08607398
0.48366424 0.048398793 0.088656247
0.48576647 0.048961043 0.089004196
0.49883854 0.048163339 0.088142857
0.50294745 0.048026036 0.08821328
0.50753319 0.04808915 0.088453121
0.51253688 0.048700858 0.08877898
0.51755357 0.049117427 0.088754632
0.5225035 0.048655674 0.088150702
0.52802598 0.048855066 0.087904721
0.53266555 0.049038939 0.087545186
0.53719759 0.048812367 0.086962163
0.54044211 0.04759606 0.085700795
0.5563516 0.048693568 0.08681754
0.56174129 0.048667524 0.087391548
0.5676136 0.04827597 0.087659195
0.56994951 0.04842275 0.087887891
0.57882953 0.047905378 0.08767771
0.58161676 0.048620243 0.088033371
0.58849984 0.04869733 0.087520063
0.59317738 0.049425617 0.08776027
0.59775591 0.049485836 0.087633267
0.6022833 0.049238358 0.087294303
0.60636824 0.048990067 0.087027818
0.61448228 0.049799424 0.087171189
0.61793584 0.049432401 0.086830199
0.62247509 0.049711984 0.086657971
0.6275208 0.050129853 0.086512074
0.6326797 0.050189823 0.08624313
0.63766342 0.050433896 0.086057246
0.64247441 0.049873136 0.085598506
0.64750892 0.049821354 0.085534208
0.65275782 0.050408933 0.08583989
0.65758532 0.050606407 0.085790135
0.66260266 0.050706714 0.085764214
0.66803521 0.050748028 0.085583955
0.67235082 0.050609205 0.085394025
0.67765433 0.050709311 0.08499337
0.68253708 0.051573247 0.08514303
0.6876933 0.051180594 0.084408723
0.69231796 0.051331479 0.084528387
0.69956017 0.051901832 0.08361838
0.70309937 0.052494939 0.082332887
0.70569825 0.05356105 0.081293687
0.32674828 0.052634649 0.088263966
0.33206543 0.052554403 0.088240117
0.33725947 0.052836351 0.088626571
0.63853526 0.053403139 0.087970264
0.64306974 0.054095883 0.088096179
0.64770943 0.054537807 0.088121496
0.65226382 0.054111455 0.087705381
0.6581533 0.054655619 0.087745003
0.66268152 0.054830261 0.087819993
0.66769397 0.055019125 0.087808207
0.6727407 0.054933053 0.087663628
0.67743188 0.054794006 0.08737471
0.68121576 0.054431319 0.086976781
0.6899628 0.054869667 0.08676172
0.6934855 0.054738846 0.086866096
0.69881898 0.055119906 0.086194605
0.70277435 0.055649675 0.084959604
0.70701802 0.056908935 0.082595915
0.64499575 0.057027958 0.089874454
0.64589304 0.057252921 0.08995273
0.65938795 0.058015462 0.089623176
0.66268331 0.057988916 0.089564212
0.66702402 0.058037117 0.089574993
0.67179674 0.057750758 0.08932028
0.67599648 0.057432786 0.089033484
0.41356242 0.033216767 0.086274676
0.41767448 0.033988088 0.085998148
0.42238507 0.034318887 0.085866131
0.42668006 0.034545381 0.085602105
0.46823499 0.037417721 0.082129985
0.5190407 0.03809477 0.080506317
0.23783961 0.037628725 0.08949741
0.24268307 0.038414579 0.089201048
0.24766324 0.038656652 0.088852257
0.25321499 0.038827416 0.088731498
0.2579256 0.038820375 0.089005634
0.26271346 0.038939144 0.088313527
0.26724923 0.038855769 0.087233931
0.27134788 0.039281502 0.085637458
0.27569333 0.040612444 0.083738878
0.30396152 0.043534521 0.080779389
0.30757055 0.043180648 0.081172168
0.31241357 0.04256358 0.081636921
0.31726196 0.042722668 0.082306609
0.32238913 0.042561539 0.08199428
0.32723066 0.042850997 0.081208803
0.33164683 0.042972345 0.080569714
0.36828056 0.04104694 0.085904673
0.37310696 0.040544949 0.085397616
0.37776709 0.039418831 0.084207602
0.38064533 0.039405365 0.08404094
0.39255106 0.039448738 0.083665319
0.42290583 0.037396584 0.085573763
0.42715463 0.037215829 0.0854972
0.44177768 0.040076427 0.085302815
0.45689014 0.039792512 0.085478954
0.46777076 0.03984369 0.084525689
0.47061753 0.040525638 0.084121689
0.49987242 0.040202465 0.081848875
0.50279158 0.040128663 0.082067445
0.50763959 0.040528793 0.082708895
0.51237208 0.041173827 0.083127588
0.51757199 0.04109066 0.082850754
0.52193218 0.041170027 0.082639568
0.52681404 0.040995017 0.082058154
0.56842911 0.041490216 0.082006499
0.5728513 0.041189812 0.082298771
0.57736933 0.041009255 0.082409248
0.58235294 0.041153546 0.082427092
0.58742034 0.040950116 0.081980608
0.59167832 0.041455254 0.08220239
0.59555101 0.041552231 0.082233787
0.60266048 0.041503493 0.081909835
0.60757917 0.041904826 0.081990384
0.61191142 0.041865028 0.081710443
0.61612594 0.042028848 0.08151976
0.63868743 0.041337535 0.080237903
0.64280623 0.041732214 0.080594882
0.64744836 0.041871209 0.080785625
0.65083373 0.04220539 0.08102075
0.66679198 0.042377584 0.080612905
0.67008626 0.042632226 0.080618143
0.24477483 0.040186737 0.089628242
0.24819937 0.041159838 0.08974684
0.25312176 0.041837864 0.090225197
0.25770196 0.04212451 0.090046316
0.26164338 0.041712824 0.089427397
0.26722795 0.042342234 0.088435657
0.27189574 0.042806663 0.086792737
0.27563843 0.041494284 0.084268376
0.30391514 0.045963179 0.082511
0.30748862 0.046227135 0.083290197
0.31247145 0.045814294 0.084019646
0.31736848 0.045924831 0.084522083
0.322238 0.045586843 0.08395949
0.32738701 0.046010777 0.08352758
0.33123839 0.044598684 0.082088374
0.35449332 0.045371443 0.085728325
0.35669041 0.045376625 0.086446531
0.36437014 0.043573193 0.087578826
0.36737421 0.043016456 0.08760529
0.37243024 0.043572731 0.087669663
0.37749195 0.04251869 0.086517595
0.38134751 0.0423324 0.085961238
0.38928598 0.043297317 0.085995816
0.39246568 0.042786408 0.085728899
0.3973383 0.042808518 0.085912064
0.40199205 0.04398711 0.086329699
0.40643862 0.044000939 0.086501047
0.41168302 0.043950029 0.086456679
0.42445308 0.043928489 0.08650808
0.4278549 0.043441758 0.086482964
0.43215752 0.04294683 0.08640264
0.43758768 0.043258317 0.086503558
0.44243696 0.043130722 0.086298846
0.44698575 0.043025251 0.086498603
0.45246026 0.04296663 0.08694192
0.45774475 0.042172357 0.087137349
0.46222568 0.042689886 0.087435707
0.46610811 0.042734012 0.087170266
0.47210512 0.043349013 0.086129054
0.47597373 0.0442685 0.086257488
0.4844214 0.044825345 0.085393332
0.48753047 0.044811513 0.085007094
0.49099281 0.046032384 0.086259216
0.49750596 0.045165237 0.085860901
0.50440282 0.043782678 0.085186675
0.50719291 0.044057894 0.085481338
0.51253116 0.043796241 0.085203536
0.51733941 0.044328671 0.085200623
0.52293062 0.044702381 0.085137911
0.52699089 0.043937173 0.084364273
0.53208339 0.044745736 0.084326804
0.5370605 0.045171537 0.084070131
0.54218501 0.045637969 0.083804414
0.5485248 0.045751423 0.083713986
0.55179113 0.045311723 0.083610192
0.56838864 0.045043495 0.084832132
0.57273507 0.044716712 0.085106269
0.57744282 0.044640794 0.085169151
0.58265167 0.044488154 0.084893219
0.58771271 0.044716161 0.084717043
0.59268343 0.044589356 0.084421784
0.59726286 0.044159561 0.083991781
0.60231715 0.04417485 0.083868995
0.60738379 0.044658501 0.084000491
0.61212426 0.044640549 0.08370135
0.61741602 0.045007508 0.083616659
0.6224727 0.045349576 0.083498247
0.6266979 0.045556422 0.083378166
0.63276148 0.045644153 0.083142802
0.63742316 0.045365781 0.082769051
0.64249068 0.045542151 0.08281751
0.64754778 0.045350168 0.082752332
0.65208566 0.045228384 0.082774527
0.65681362 0.045803163 0.083035693
0.66374761 0.045563787 0.082675874
0.66724455 0.045217443 0.082333297
0.67055267 0.045368079 0.08212059
0.25740609 0.045153335 0.090795808
0.28418487 0.049450073 0.085958838
0.28696963 0.049361374 0.085292026
0.29053754 0.049707629 0.085223973
0.30847478 0.049124785 0.085455351
0.31214905 0.048976727 0.086062074
0.31671867 0.049267452 0.086598888
0.32985747 0.048656993 0.085293986
0.35348988 0.047846295 0.087846719
0.35656652 0.046976086 0.08802551
0.36895022 0.047588114 0.090690479
0.37318769 0.046513785 0.089723758
0.37753686 0.046543419 0.089318633
0.38217524 0.045957163 0.088323645
0.38747209 0.046536513 0.087982595
0.39260456 0.047658708 0.087972641
0.39753619 0.047878873 0.087822378
0.40293357 0.047846992 0.087901913
0.40752688 0.047562435 0.087886252
0.412386 0.047163524 0.087541848
0.41736048 0.047457121 0.087523781
0.42201096 0.047360454 0.087523498
0.42782128 0.04759695 0.087794714
0.43258703 0.048042715 0.08807072
0.43753591 0.047974803 0.088135347
0.44245571 0.048200417 0.088275351
0.44818702 0.047356285 0.088978834
0.45253846 0.047366831 0.089450948
0.45740989 0.04690817 0.089976363
0.46270624 0.046643976 0.089929573
0.4674288 0.046352331 0.089656055
0.47246066 0.046246145 0.088624373
0.47798258 0.04666844 0.087924898
0.48264205 0.047210991 0.0875865
0.48747915 0.047436345 0.087335773
0.492403 0.047986224 0.087726817
0.49772349 0.047606576 0.087589413
0.50170183 0.047197182 0.087499373
0.50735277 0.047474988 0.087951556
0.51280618 0.047153417 0.087552495
0.51737016 0.047925159 0.087784871
0.5226382 0.047730256 0.087342337
0.52758485 0.047648508 0.086968705
0.53218395 0.047824726 0.08661332
0.53801835 0.04840254 0.086258538
0.54250628 0.048387494 0.085947648
0.54742807 0.048898656 0.086024761
0.55199194 0.049096581 0.086474493
0.56809539 0.048322514 0.087601013
0.57208097 0.048162229 0.08780127
0.57776713 0.047593173 0.087372027
0.58240628 0.047863923 0.087339573
0.58801371 0.047937725 0.086920455
0.59244299 0.047935106 0.08659929
0.59749746 0.048051108 0.086471632
0.60231906 0.048181232 0.086404085
0.60822618 0.048533447 0.086463928
0.61240774 0.048321556 0.086121544
0.61738431 0.048792388 0.086136431
0.6225636 0.048855431 0.085826583
0.6276623 0.048884768 0.085464522
0.63239455 0.048740871 0.085115485
0.63730353 0.049191758 0.085107639
0.64203203 0.049806554 0.085292056
0.64775425 0.049658071 0.085064538
0.65247035 0.049406268 0.08503519
0.65741879 0.048738044 0.084631853
0.6622709 0.048730731 0.084555522
0.66738844 0.049327932 0.084649131
0.67237931 0.049420848 0.084497705
0.67728037 0.049591675 0.084239021
0.68252343 0.049839448 0.083889693
0.6872375 0.050283495 0.083649188
0.6918959 0.050564826 0.083323352
0.70144498 0.051594447 0.082695529
0.27993399 0.051895648 0.088763997
0.28276041 0.051814087 0.087885395
0.28743976 0.052512545 0.0875993
0.29257548 0.052978244 0.087320752
0.29763243 0.052767068 0.087173432
0.3022033 0.052550603 0.087198667
0.30708203 0.052227505 0.087712042
0.31276679 0.052140519 0.088254295
0.31719875 0.051876098 0.088395871
0.32247153 0.052297641 0.088223204
0.32595459 0.052314609 0.088072307
0.33009374 0.052495692 0.088114209
0.33885261 0.052153677 0.088099219
0.36920613 0.04964349 0.091871351
0.37798688 0.049761146 0.090771206
0.38157105 0.04948343 0.090212598
0.39301923 0.050824214 0.089725822
0.39721671 0.050685693 0.089280128
0.4041715 0.050458603 0.089208625
0.40836841 0.050852351 0.089534357
0.41256446 0.051281027 0.089730024
0.41747051 0.051478703 0.089621536
0.42262232 0.051423248 0.089458339
0.42735597 0.051203504 0.089432217
0.43216923 0.051626612 0.089478649
0.4375307 0.051421314 0.089691974
0.44205508 0.050644014 0.089543082
0.44876182 0.050431222 0.090487093
0.45235446 0.050331853 0.090829641
0.45657295 0.049949147 0.0913416
0.4681322 0.049775567 0.091616996
0.47287813 0.050094675 0.09142784
0.47789636 0.050128791 0.090676293
0.48271722 0.050259735 0.090086088
0.48751283 0.050384328 0.089737497
0.49215892 0.051396117 0.090121396
0.49816287 0.051167298 0.090077676
0.50245041 0.050761078 0.089966647
0.50757045 0.050480437 0.089933038
0.5126124 0.050817363 0.090110324
0.51749909 0.051260542 0.090084985
0.5225929 0.050958999 0.089648776
0.52782112 0.051234409 0.089443319
0.53290105 0.051149778 0.088895388
0.53717744 0.051347096 0.088655926
0.54247189 0.051883396 0.088476911
0.54733396 0.051922202 0.08827471
0.55249524 0.051707048 0.088536352
0.55750853 0.051321015 0.088826746
0.56291437 0.051305175 0.089385554
0.56722206 0.051122319 0.089661688
0.57203925 0.051093359 0.089828864
0.57775474 0.051130291 0.089899898
0.58277446 0.051302616 0.08966168
0.58748657 0.051062014 0.089151859
0.59222609 0.051465392 0.08895383
0.5968439 0.052156422 0.08926177
0.60339475 0.05161684 0.088644527
0.60763246 0.051692251 0.088542871
0.61230445 0.051271133 0.088062026
0.6176669 0.05244996 0.088655993
0.62252849 0.052853253 0.088590749
0.62804568 0.052819878 0.087987654
0.63266265 0.052704316 0.087634653
0.63687098 0.052494451 0.087248586
0.642676 0.05242848 0.086804576
0.65278751 0.052588787 0.086682685
0.65744442 0.05268956 0.086673349
0.66219318 0.052648187 0.086527087
0.66654158 0.052667301 0.086408295
0.6730026 0.052749075 0.086218469
0.67730653 0.053182766 0.086218365
0.68231106 0.053259704 0.085999638
0.68763638 0.053612031 0.08594729
0.69258106 0.053713851 0.085558333
0.69704217 0.053470217 0.085272804
0.70134848 0.054261789 0.084624313
0.70445311 0.055606071 0.083721913
0.27930856 0.055978611 0.091675259
0.28269267 0.056165863 0.090923108
0.28765401 0.056576014 0.090225823
0.29226846 0.056523547 0.089659214
0.29725713 0.055997804 0.089500941
0.30295017 0.055541154 0.08969748
0.30776766 0.055489693 0.090053529
0.31245473 0.055498898 0.090357803
0.31744236 0.05523229 0.090386018
0.32234907 0.055487383 0.090103865
0.32730809 0.055255648 0.089960091
0.33215901 0.055167131 0.090101801
0.33579803 0.053876352 0.089350544
0.41849017 0.054251421 0.091204882
0.4223823 0.055162121 0.091673404
0.47511542 0.052926973 0.093091145
0.4789705 0.053822339 0.093121178
0.48319441 0.05444368 0.092892714
0.48744249 0.054365374 0.092460088
0.49278188 0.055615582 0.092885576
0.49759588 0.055078566 0.09246394
0.50293016 0.054744881 0.092367008
0.50757933 0.054713789 0.092478611
0.51236534 0.054255433 0.092274889
0.51745462 0.054005507 0.091807388
0.52257031 0.053794004 0.091501899
0.52791756 0.054447725 0.091574587
0.53192675 0.054778725 0.091407992
0.53919697 0.054586768 0.090511031
0.54199761 0.054996498 0.090554118
0.54870087 0.055765342 0.091088615
0.55253977 0.055493515 0.091227725
0.5572347 0.055238381 0.091474697
0.5619514 0.054456696 0.091400228
0.56754297 0.05412076 0.091639251
0.57301271 0.053905763 0.091816291
0.57796282 0.054084435 0.091808222
0.58244723 0.054444611 0.091811545
0.58756268 0.055030078 0.091767997
0.59269941 0.054899007 0.09118589
0.59759289 0.055185955 0.091068193
0.60285842 0.055459309 0.090997219
0.60729808 0.055671535 0.090951867
0.61255968 0.055528615 0.090824254
0.61763752 0.055623606 0.090770677
0.62248558 0.055804562 0.090555213
0.62759346 0.055831112 0.090040609
0.63269186 0.055996228 0.089895144
0.63742536 0.05584627 0.089588486
0.64162177 0.05622603 0.089595497
0.64872813 0.057058811 0.089705914
0.65321589 0.056572001 0.089099407
0.6566487 0.05667394 0.088936083
0.6681999 0.057035431 0.088798128
0.67417067 0.057079196 0.088870369
0.67851245 0.057081413 0.088665053
0.68287343 0.056524798 0.088222831
0.68753183 0.056498133 0.088076264
0.69266677 0.057145312 0.088111438
0.69695365 0.057088803 0.087789953
0.70239282 0.057974312 0.086801477
0.70577538 0.059017148 0.085308172
0.70864642 0.060752269 0.083416015
0.27931792 0.058542561 0.093318991
0.28193355 0.058497578 0.092575781
0.31292415 0.059178445 0.092610709
0.31733909 0.059039455 0.092426777
0.32274213 0.059050247 0.092399552
0.32744771 0.058660924 0.092247106
0.33128574 0.058699694 0.092464872
0.50852734 0.058030542 0.094432592
0.51259059 0.058694601 0.094840989
0.51661044 0.057891026 0.094285883
0.58974618 0.058171865 0.093473367
0.59238738 0.058412302 0.0934093
0.59694493 0.058404159 0.093028657
0.60441184 0.058414094 0.0925835
0.60797602 0.059169728 0.093029939
0.6119718 0.058944862 0.09295059
0.63403982 0.059314914 0.092103884
0.63803673 0.059872799 0.092334464
0.642712 0.059555914 0.091702275
0.64789426 0.059586301 0.09134835
0.65275431 0.060440384 0.091519207
0.65738976 0.060051039 0.091056652
0.66266733 0.060543962 0.091135532
0.66782129 0.060050853 0.090701073
0.67273557 0.060136832 0.090612948
0.67780954 0.060297668 0.090585649
0.68289697 0.060514577 0.090861298
0.68770134 0.060580797 0.090804763
0.69277966 0.060591232 0.09068244
0.69806194 0.060329534 0.089998655
0.70236236 0.06133372 0.089013912
0.7065829 0.062831648 0.087086253
0.70859832 0.065215737 0.086653665
0.51324564 0.061337512 0.096386068
0.63950437 0.062693588 0.094284952
0.64264607 0.062857889 0.094129466
0.64760417 0.062708482 0.093516462
0.65437311 0.063013241 0.093194254
0.65816998 0.063577592 0.093461789
0.66251224 0.063607343 0.093204021
0.66751868 0.064037919 0.093199566
0.67245346 0.063838191 0.092814475
0.67773026 0.064230293 0.093013331
0.68262279 0.064026803 0.093042187
0.68746054 0.06345515 0.092794888
0.69168699 0.063602366 0.092839688
0.70831847 0.068179898 0.088589996
0.70955777 0.071756013 0.089452431
0.71412903 0.092550114 0.088722676
0.71501124 0.094726369 0.087424867
0.71474934 0.094969504 0.088581435
0.71486527 0.095537685 0.087982975
0.41424891 0.033698328 0.086183414
0.4160817 0.035716895 0.085642859
0.23337992 0.03869839 0.090412505
0.23680961 0.038632523 0.089965478
0.24252671 0.039941818 0.089710221
0.41969192 0.038176361 0.085502878
0.42183045 0.040067773 0.085684821
0.46470857 0.043200251 0.087528825
0.46672657 0.042638469 0.086873844
0.23303248 0.042418856 0.091288425
0.23759852 0.042422701 0.090863265
0.24272238 0.043029547 0.090516984
0.24734674 0.043307688 0.090432718
0.25139722 0.043426611 0.090646848
0.25590771 0.044708908 0.090741485
0.26290503 0.043542642 0.089691348
0.26680166 0.043944407 0.088893496
0.27048066 0.046340182 0.088335156
0.31781405 0.047925659 0.08582294
0.32222506 0.047909707 0.085523248
0.3282758 0.048655435 0.085308582
0.36451292 0.045571808 0.089257836
0.36770177 0.045226067 0.089119345
0.42168629 0.043298077 0.086212657
0.46426448 0.044646073 0.088568859
0.46788898 0.044995934 0.088578574
0.47120464 0.045490194 0.08802525
0.50405312 0.047068264 0.087373823
0.50625443 0.046446357 0.08707837
0.52312559 0.046443123 0.086312503
0.52568173 0.047354002 0.086832032
0.56870508 0.047819782 0.087053575
0.57062054 0.047303252 0.086836345
0.23358664 0.046638664 0.091802157
0.23694424 0.047352254 0.091728948
0.24196327 0.046445809 0.091166116
0.2473608 0.045952931 0.090971231
0.25297162 0.045907974 0.091147535
0.25777185 0.046507195 0.091092668
0.2626991 0.046225458 0.090411462
0.26718429 0.046587583 0.089542739
0.26984605 0.047174554 0.088930294
0.31293118 0.049803384 0.086618893
0.31750655 0.049877286 0.087067902
0.32229123 0.050750796 0.087144412
0.32713452 0.051032037 0.08699695
0.34986073 0.051327296 0.089732543
0.35312527 0.049896978 0.089569926
0.357757 0.048977956 0.09006872
0.36258611 0.048685435 0.091023825
0.36772215 0.048509028 0.091126703
0.37205189 0.048776504 0.091090247
0.39788833 0.05018419 0.088973776
0.40228257 0.050233211 0.089065455
0.43875062 0.049954224 0.089017957
0.44296485 0.048881195 0.088693626
0.44657812 0.048852481 0.089179821
0.45194978 0.049305316 0.090236351
0.45800501 0.048730258 0.090825103
0.46252549 0.048879005 0.091235884
0.47183558 0.048615843 0.09025149
0.48901668 0.049487095 0.089025944
0.49245307 0.049846653 0.088896126
0.49591383 0.049777068 0.088936768
0.50399774 0.049645606 0.089043558
0.50750583 0.049926367 0.089410432
0.51009369 0.050621681 0.089898378
0.52355534 0.050206643 0.088826507
0.52726632 0.0500292 0.088484727
0.53188908 0.050207347 0.088151366
0.53673297 0.050700035 0.087975159
0.54193497 0.051324081 0.087937169
0.56490749 0.051913731 0.08972659
0.56784302 0.050286692 0.088835858
0.57253695 0.049895953 0.08892744
0.5773443 0.049641363 0.088753529
0.58250594 0.050079823 0.08882767
0.58715016 0.049791094 0.08824569
0.59217381 0.050271511 0.088118829
0.59704387 0.050836362 0.088167481
0.60260957 0.051079299 0.088145986
0.6069358 0.050845101 0.087931626
0.61198884 0.051047876 0.08784271
0.61708236 0.051297642 0.087715231
0.62208933 0.051454552 0.087538175
0.62645906 0.051603381 0.087149948
0.64283603 0.052262891 0.086648256
0.64707363 0.051602785 0.086185776
0.6686455 0.052414201 0.086212583
0.68291056 0.052793909 0.085607395
0.32414356 0.054782126 0.089468554
0.32725129 0.055126294 0.089643009
0.34885186 0.054105625 0.09174744
0.35242593 0.053173762 0.092040479
0.35737833 0.052664246 0.093138881
0.36248225 0.052321758 0.093767524
0.36749086 0.051807631 0.093369983
0.37229246 0.051126909 0.092458121
0.37567854 0.049828298 0.091394864
0.38910025 0.050652783 0.090132669
0.39263105 0.05261476 0.090760425
0.3977122 0.053410422 0.090936631
0.40240782 0.052978016 0.090706289
0.4070403 0.053163208 0.090857014
0.41189164 0.053241238 0.0909013
0.41507944 0.054006539 0.09120246
0.42288107 0.053386081 0.090608314
0.42804259 0.053668983 0.090695404
0.43258837 0.053423692 0.090417556
0.43738559 0.053417325 0.090323702
0.44276562 0.052833054 0.090199515
0.44791493 0.052910503 0.091061957
0.45236927 0.052469246 0.09169957
0.45751497 0.051771715 0.09247157
0.46255204 0.051659603 0.092836991
0.46732801 0.052024897 0.093116738
0.47245437 0.05219949 0.092872314
0.47741318 0.052904345 0.092529431
0.4827581 0.052870706 0.091794193
0.4877761 0.052595589 0.091123156
0.49258217 0.053401027 0.091286987
0.4967922 0.053254865 0.091186576
0.50052112 0.053787272 0.091711722
0.50890702 0.052660711 0.091065064
0.51311225 0.053470533 0.091591291
0.51791579 0.053418525 0.091259114
0.52267212 0.054150179 0.091469213
0.52762091 0.053587124 0.090798467
0.53215599 0.054139048 0.090662777
0.53752869 0.054350078 0.090324685
0.54247415 0.054258417 0.089796409
0.54762 0.054770976 0.090097927
0.55258024 0.054215729 0.089951701
0.55775595 0.055301506 0.091376245
0.56318349 0.053825419 0.090805322
0.56776196 0.052665792 0.09045402
0.57320619 0.053357854 0.091199517
0.57735193 0.052962381 0.090955056
0.58222699 0.053270012 0.090957083
0.58748734 0.053553846 0.090677984
0.59195286 0.054112189 0.090522118
0.59676951 0.053846519 0.090104863
0.60213155 0.054049909 0.09000174
0.60744315 0.054536887 0.090087064
0.61236322 0.054001775 0.089650832
0.61695731 0.054211222 0.089672491
0.62236059 0.054683015 0.089479335
0.62715149 0.054711595 0.089155301
0.63233286 0.054845601 0.088915609
0.63755131 0.054657765 0.088531032
0.6421842 0.054759752 0.088293925
0.64725876 0.054811247 0.087988116
0.65205067 0.055098392 0.088059597
0.65724546 0.055433638 0.087992266
0.66229957 0.055671986 0.088001505
0.6675908 0.055280566 0.087641984
0.67231339 0.055249065 0.087550826
0.6773439 0.055814944 0.087698713
0.68249208 0.055556837 0.087377116
0.68713802 0.055248752 0.087070867
0.69052607 0.056052394 0.087186344
0.2850014 0.058596142 0.091946475
0.28779331 0.058755916 0.091414131
0.2933549 0.058842067 0.091122314
0.29776105 0.05850859 0.091159508
0.30221328 0.05829988 0.091508545
0.30665162 0.058488384 0.091910735
0.31154057 0.060132571 0.093152538
0.35301289 0.056054704 0.094685324
0.35555178 0.055868659 0.095297962
0.36901537 0.05523229 0.095137283
0.37895891 0.056414999 0.094509736
0.38231444 0.057721633 0.094841287
0.38737062 0.057463083 0.09442839
0.39302537 0.057124365 0.09384381
0.39794457 0.057124704 0.093722977
0.40240607 0.057223838 0.093578078
0.40742788 0.057313953 0.09366098
0.41273573 0.057106078 0.093321405
0.41774166 0.05708966 0.093128063
0.42284316 0.057249222 0.093033232
0.42764753 0.057265818 0.09286315
0.43243355 0.057697341 0.092980862
0.4372806 0.057426367 0.09276481
0.44270688 0.057337862 0.092380852
0.44777313 0.057057176 0.092865653
0.4524264 0.056786392 0.093677111
0.45723218 0.056468304 0.094745882
0.46221158 0.056047671 0.09518978
0.46738878 0.055707883 0.095365465
0.47242659 0.055975895 0.095380649
0.47732818 0.056383122 0.095123343
0.48232293 0.056815647 0.094444051
0.48740378 0.056796059 0.09390974
0.49278748 0.056705378 0.09339036
0.49780029 0.056686152 0.093239322
0.50204974 0.056751058 0.093543082
0.50734228 0.057046063 0.093816385
0.51278859 0.056716442 0.093612328
0.51773781 0.056722749 0.093338691
0.52217811 0.057313278 0.093459129
0.52760154 0.057101179 0.0929057
0.53249168 0.057539783 0.092883945
0.53746873 0.057708107 0.092641197
0.54255164 0.057278905 0.091990538
0.54762197 0.057603162 0.092026174
0.55228102 0.057604242 0.092379443
0.55753648 0.057412475 0.092957094
0.56282496 0.057036415 0.093185104
0.56765008 0.056724116 0.093284763
0.5723657 0.056611333 0.093416102
0.57736164 0.057001546 0.093736917
0.58246583 0.056872558 0.093308456
0.58753109 0.057116218 0.092969723
0.59258324 0.057224635 0.092495792
0.59759825 0.05748662 0.092352927
0.6025992 0.058123402 0.092501894
0.60778767 0.057674874 0.092001863
0.61218905 0.057744678 0.091999009
0.61736602 0.057497729 0.091727197
0.62230843 0.057570312 0.091569848
0.6274249 0.057728685 0.091207266
0.63246578 0.058092251 0.091103151
0.63739038 0.058252972 0.090943508
0.64223373 0.058806218 0.090930752
0.64686269 0.058834042 0.090638272
0.65243733 0.058705892 0.090195127
0.65718275 0.05886792 0.089970313
0.66220206 0.058797836 0.08975482
0.66772836 0.058900289 0.089708582
0.67244375 0.059415519 0.089935936
0.67716229 0.059129588 0.089716285
0.68221188 0.059170611 0.089706592
0.68724227 0.059411641 0.089851275
0.69209248 0.059271388 0.089539282
0.69760484 0.059732232 0.089547984
0.70157951 0.060137752 0.088584237
0.70425814 0.061117258 0.087580726
0.2754907 0.062519647 0.096057422
0.27799955 0.060826275 0.094791777
0.28278878 0.061194457 0.093964875
0.28768256 0.061502721 0.093291268
0.29249093 0.061834019 0.093089409
0.29724652 0.061889231 0.093233682
0.3023518 0.061534628 0.09355212
0.3076798 0.061767846 0.094009541
0.3120777 0.061304491 0.094047621
0.31764567 0.06175378 0.094026759
0.32239062 0.061395936 0.093869008
0.32715303 0.061256725 0.09417785
0.33110133 0.061027963 0.094319426
0.39371842 0.060207184 0.09590926
0.39747736 0.060055442 0.095941909
0.40234748 0.059594672 0.095538951
0.40667689 0.059904944 0.095630996
0.41365671 0.059803866 0.095275357
0.41782185 0.059928659 0.095168576
0.42276198 0.060029298 0.095005028
0.42717394 0.060850091 0.095346175
0.43276986 0.060745649 0.095035262
0.43726227 0.061019804 0.095102921
0.44242084 0.061105587 0.094696887
0.4478761 0.061184593 0.095096312
0.4522295 0.060804211 0.095588796
0.45714971 0.060047995 0.096480042
0.46197355 0.05917218 0.096949495
0.46763372 0.059420612 0.097552083
0.47244093 0.059679531 0.09768156
0.47751963 0.059801709 0.097377867
0.48247302 0.060031433 0.096639194
0.4876315 0.06057632 0.09628243
0.49329728 0.060431805 0.095651694
0.4978388 0.060233966 0.095458649
0.50265241 0.060337842 0.095581323
0.50743729 0.060361981 0.095748357
0.51226264 0.060448408 0.095783278
0.5175004 0.060786191 0.095848247
0.52104038 0.060938455 0.095712729
0.52970403 0.061478458 0.0956394
0.53224462 0.061096147 0.095333561
0.53746778 0.061785631 0.095388979
0.54278064 0.061051644 0.094639614
0.54769415 0.061021566 0.094560698
0.55237764 0.061398584 0.094972067
0.55741566 0.061175529 0.095353052
0.5625484 0.060969777 0.095635682
0.56736189 0.060495961 0.09567564
0.57270342 0.060461607 0.095855556
0.57750624 0.060639996 0.095923431
0.58256739 0.060711283 0.095703006
0.58756268 0.060733002 0.095328033
0.59261757 0.061294112 0.09513548
0.59745222 0.060983367 0.094539925
0.60255867 0.061110388 0.094208047
0.60735148 0.061583839 0.094358079
0.61266732 0.061485901 0.094341956
0.61751997 0.061123837 0.094220638
0.62258703 0.061328776 0.094231211
0.62741089 0.06149761 0.093972877
0.63243955 0.06147705 0.093752109
0.63724262 0.061775584 0.093619287
0.64294749 0.062079161 0.093154356
0.64770257 0.062018234 0.09276627
0.66388458 0.063267276 0.092724174
0.66628498 0.063284516 0.092539243
0.67319095 0.06254831 0.091773078
0.6776498 0.062580682 0.091785751
0.68193138 0.06262859 0.091884278
0.68667018 0.062418368 0.091747925
0.69285315 0.06255544 0.091723055
0.69776803 0.063092247 0.091652498
0.70217025 0.064065859 0.090753213
0.70543802 0.064606719 0.089113101
0.27511105 0.064734526 0.097233236
0.27814621 0.065164976 0.096831843
0.28288868 0.065865874 0.096530944
0.28742862 0.065546483 0.095931165
0.29234433 0.065221079 0.095628135
0.29574651 0.064875156 0.095205411
0.30905014 0.065882489 0.096318327
0.3124471 0.065410338 0.096299142
0.31713101 0.065487005 0.09636271
0.32191777 0.065124407 0.096445993
0.32706261 0.065103956 0.096918516
0.33026183 0.064132504 0.096750207
0.47450304 0.062382773 0.099252142
0.48298746 0.063333578 0.098669566
0.48673111 0.063740321 0.098222986
0.49394557 0.064482734 0.097998351
0.49764299 0.064484119 0.097928353
0.50254345 0.064224236 0.097978249
0.50759667 0.0640058 0.097870164
0.51201439 0.063200928 0.097470105
0.51754212 0.063679263 0.09762045
0.52067202 0.063809246 0.097494833
0.52863759 0.064701721 0.097703598
0.53214544 0.064046301 0.097112648
0.53655332 0.06448064 0.097189277
0.55302596 0.064708434 0.097143918
0.55659008 0.064892329 0.097485505
0.5619489 0.063833736 0.097262166
0.56810993 0.064119563 0.097886994
0.57189506 0.064203791 0.09799093
0.57677162 0.063905746 0.097954184
0.58275318 0.063879006 0.097709619
0.5876596 0.064039238 0.097423382
0.59261411 0.064881071 0.097490683
0.59757775 0.065356739 0.097180329
0.60299516 0.065357424 0.096692801
0.60753304 0.065080181 0.096435472
0.61277431 0.064967752 0.096441567
0.61778134 0.065370239 0.096800253
0.62255293 0.06529215 0.09678559
0.62739056 0.065263376 0.096754715
0.63278133 0.065421142 0.096684754
0.63754994 0.06509719 0.096230321
0.64256656 0.065355256 0.095957182
0.64769781 0.065583296 0.095609166
0.65275109 0.065603189 0.095211439
0.65745914 0.066323802 0.095341668
0.66319501 0.066298246 0.094814651
0.66695708 0.066445425 0.094762541
0.67284602 0.066609271 0.094590969
0.67741466 0.066466421 0.094487756
0.6826669 0.066461138 0.094663501
0.68802017 0.066211239 0.094441757
0.69271249 0.066478185 0.094447725
0.69752008 0.066697732 0.094058387
0.70264465 0.067699388 0.092791781
0.70599931 0.068515241 0.090930715
0.30910936 0.068651728 0.098075569
0.31230953 0.068773471 0.098200239
0.31586608 0.068319909 0.098040067
0.50291443 0.067240991 0.099622026
0.55354255 0.068987988 0.099743947
0.55669653 0.068947934 0.099799521
0.59410268 0.067720503 0.099150933
0.59691775 0.068302065 0.099212296
0.60816705 0.068565145 0.098474942
0.61216742 0.068854019 0.098778024
0.61652678 0.068294033 0.098598309
0.62304968 0.067944773 0.098585159
0.63828647 0.067930095 0.098152168
0.64298302 0.068285406 0.0979793
0.64765382 0.068707265 0.097845219
0.65247291 0.068779342 0.097524315
0.65813273 0.069373108 0.097462729
0.66257799 0.069702014 0.097259715
0.66759533 0.069604263 0.096834041
0.67261648 0.069822229 0.096692123
0.67780942 0.069692433 0.096577428
0.6825859 0.069628172 0.096720435
0.68725228 0.069347352 0.096557774
0.69203722 0.06930048 0.096349083
0.69654965 0.069357499 0.095975399
0.70350879 0.071395844 0.094380558
0.70698982 0.072641395 0.092582643
0.55409163 0.072418846 0.10181289
0.55540788 0.071714915 0.10141969
0.66476238 0.072254784 0.098906428
0.66793406 0.072529517 0.098803803
0.67021203 0.072620824 0.098721027
0.70522702 0.075125605 0.095354475
0.70809048 0.076785505 0.093559526
0.70902795 0.081279382 0.094504245
0.46472868 0.046685569 0.089797936
0.46609816 0.047651697 0.090382613
0.46792981 0.050704483 0.092113189
0.47164437 0.051418502 0.09224502
0.49842423 0.052959539 0.090790987
0.50232166 0.052128788 0.090514116
0.50588334 0.05235368 0.090811223
0.51887864 0.052940208 0.090865321
0.52261227 0.05254975 0.09033832
0.3244071 0.057325687 0.091034979
0.32781616 0.057236273 0.091050498
0.34677407 0.055940613 0.092597142
0.36240804 0.054657549 0.095278978
0.36721462 0.054196898 0.094794914
0.37077329 0.05438678 0.094068401
0.46977633 0.053907871 0.09400396
0.47285441 0.054584816 0.094225876
0.47641301 0.055012759 0.094078593
0.49390268 0.057962 0.093917266
0.49762046 0.055954516 0.092616037
0.5027135 0.056130771 0.092929445
0.50722128 0.055064585 0.092469893
0.51130968 0.055546287 0.092792682
0.51692843 0.055427309 0.092466794
0.52246147 0.055738583 0.092321657
0.52655816 0.055935815 0.092106029
0.5432021 0.057134919 0.091676719
0.55742013 0.0568332 0.092323638
0.56312346 0.055992648 0.092201158
0.56788135 0.055593647 0.092191339
0.57246512 0.055406537 0.092427671
0.57745755 0.055790935 0.0926743
0.58232743 0.055981927 0.092537053
0.58652055 0.055996474 0.09219043
0.59274709 0.056537066 0.091875568
0.59742635 0.056746356 0.0917238
0.60206324 0.056774616 0.091488324
0.60501337 0.057149544 0.091624394
0.2845715 0.062530868 0.094216228
0.28821209 0.06215439 0.093364939
0.29263416 0.061706696 0.092782624
0.29550028 0.061027147 0.092367366
0.32013261 0.062919162 0.094466172
0.32316539 0.060883831 0.093332753
0.3277716 0.060138881 0.093114257
0.34476674 0.060763724 0.096257843
0.34769964 0.058671471 0.095284551
0.35203138 0.0581837 0.096136272
0.35744175 0.057393074 0.09677165
0.36257294 0.057603586 0.096980989
0.36737758 0.058360223 0.096598923
0.37253711 0.058375988 0.096269809
0.37723422 0.05865103 0.096031278
0.38229823 0.05944657 0.095959842
0.38766482 0.058882013 0.095309466
0.39260259 0.059229437 0.095187336
0.39749461 0.058905642 0.095078088
0.40147209 0.059440095 0.095346726
0.41114247 0.059739713 0.095321052
0.42724568 0.06018804 0.094841152
0.43195587 0.059783619 0.094456531
0.43513745 0.05969131 0.094200097
0.45855215 0.05896055 0.096263029
0.46315053 0.058501624 0.096638702
0.46739528 0.058000512 0.096741095
0.47888401 0.058609474 0.096099265
0.48815796 0.059380449 0.095445745
0.49226511 0.05914183 0.094846584
0.49710655 0.0593752 0.094799899
0.5030067 0.058706466 0.094406173
0.50793403 0.058974508 0.094735041
0.51187909 0.059168052 0.094815768
0.51785529 0.059145369 0.09468203
0.52318412 0.059573952 0.094636612
0.52718091 0.059799489 0.094426252
0.53188837 0.059557363 0.093990192
0.53755498 0.059321642 0.093466386
0.54206818 0.058475547 0.092650585
0.54725915 0.05925063 0.093046553
0.55264479 0.059484713 0.093582161
0.55763447 0.059525955 0.094073534
0.56247658 0.059680693 0.094642617
0.56761616 0.059551667 0.094841123
0.57222259 0.059217811 0.094826519
0.57761568 0.059351366 0.094833441
0.5824393 0.059594125 0.09469872
0.58741593 0.059432477 0.094257176
0.5921374 0.059595596 0.093895763
0.59746152 0.059958283 0.093671218
0.60252643 0.060339198 0.093530804
0.60718483 0.059628859 0.093101017
0.61205602 0.060551744 0.093629822
0.6174587 0.059778381 0.093188994
0.6222893 0.060041033 0.093104854
0.62736231 0.060146809 0.092732742
0.63209271 0.060645644 0.092867978
0.63730592 0.060776968 0.092659406
0.64245015 0.061170507 0.092491418
0.64700139 0.061270129 0.092113785
0.65216345 0.061665777 0.092065379
0.65710115 0.061758462 0.091830112
0.66254115 0.061426025 0.09136714
0.66736001 0.061725087 0.091412537
0.67142624 0.061975125 0.091373831
0.27892518 0.063779466 0.095753096
0.28256863 0.063966334 0.095340498
0.28733742 0.064267218 0.094842345
0.29202211 0.063963637 0.094330847
0.29852045 0.064660251 0.094941117
0.30275333 0.064332806 0.095090084
0.3062734 0.064341299 0.095236734
0.31998441 0.063783862 0.09502098
0.32376325 0.06373702 0.095377833
0.32733136 0.063610964 0.095584504
0.34877524 0.061974913 0.09855172
0.35263336 0.061666053 0.099022657
0.35797462 0.061630443 0.099390589
0.36215973 0.062157597 0.099341445
0.36756089 0.062196665 0.098707519
0.37294099 0.062668942 0.098650165
0.37760961 0.062324584 0.098183081
0.38264039 0.062397253 0.097783819
0.38773847 0.06241915 0.097554557
0.39227086 0.062530331 0.097415015
0.39782363 0.06243616 0.097594216
0.40273696 0.062098958 0.097465783
0.40741324 0.062055387 0.097355232
0.41235963 0.062143974 0.097237945
0.41565776 0.061145239 0.096269898
0.42855322 0.062523492 0.096507989
0.43250623 0.062613726 0.096452467
0.43755919 0.062640168 0.096219294
0.44274494 0.063662209 0.096576326
0.44691712 0.06337858 0.096363932
0.45269191 0.062993079 0.097176872
0.45741418 0.062112123 0.09763363
0.46231022 0.061731964 0.098340601
0.46742588 0.061490998 0.09875498
0.47232777 0.061377734 0.098725282
0.47747403 0.062147297 0.098808855
0.48269042 0.062150553 0.097817451
0.48744342 0.062271588 0.097221687
0.49259487 0.062780038 0.096963242
0.49715912 0.062663935 0.09681382
0.50163054 0.06334886 0.097270735
0.5071975 0.063293457 0.097394481
0.51306832 0.063015401 0.097213328
0.51764852 0.062513076 0.096810304
0.52284998 0.062889718 0.096679516
0.52733374 0.062876612 0.096359402
0.5322699 0.062707238 0.096034549
0.53721136 0.062693059 0.095903397
0.5424816 0.063337058 0.095920004
0.54767984 0.063541442 0.09609586
0.55773568 0.063083068 0.096230686
0.56294638 0.062997289 0.096680634
0.56717485 0.063085079 0.096939765
0.57214409 0.062727995 0.097075753
0.57691127 0.062921211 0.097295724
0.58290184 0.062877081 0.096838795
0.58757567 0.062636085 0.096284002
0.59279412 0.063189834 0.0961629
0.59764844 0.06352929 0.0959334
0.60244548 0.063652113 0.095590726
0.60767025 0.063850835 0.095531419
0.61247975 0.064014949 0.095711432
0.61709034 0.063883677 0.09558823
0.62240624 0.063647382 0.095462911
0.62798321 0.063812569 0.09538009
0.6323877 0.064176574 0.095548555
0.63740367 0.064059287 0.095077053
0.64218259 0.064118437 0.094701156
0.64738148 0.064447753 0.094407268
0.65227014 0.064490683 0.093977906
0.65729743 0.06487 0.093969963
0.6630348 0.064565279 0.093404993
0.66759712 0.065261506 0.09370628
0.67232311 0.06486807 0.093248174
0.67691636 0.065283194 0.093385518
0.68218589 0.065322265 0.093671866
0.6872797 0.065078408 0.093605906
0.6917699 0.065271966 0.093524262
0.6972785 0.065645859 0.093178198
0.70082325 0.066060066 0.092496969
0.27440757 0.067087464 0.098495953
0.277486 0.067570329 0.098113872
0.28087392 0.06792438 0.097775333
0.2880995 0.067864433 0.097482137
0.29275531 0.067965344 0.097232603
0.29753819 0.067670681 0.096705981
0.30252352 0.067484327 0.096826226
0.30658033 0.067007363 0.096834712
0.3225337 0.067561664 0.098253794
0.32911423 0.067271024 0.098812811
0.33061484 0.067441441 0.099284075
0.35368258 0.065378226 0.10140986
0.35704499 0.064948432 0.10136276
0.36162317 0.065154955 0.10078692
0.36940509 0.064836703 0.1000004
0.372017 0.065213986 0.10010841
0.38277796 0.065790266 0.10007694
0.38734227 0.065931618 0.099957466
0.39234912 0.065712787 0.0996776
0.39730477 0.065012053 0.099326015
0.40319407 0.065387912 0.099838071
0.40734857 0.065393083 0.09989582
0.41134563 0.065409653 0.099902421
0.42848927 0.064686172 0.098305136
0.43218827 0.064985231 0.098361306
0.43682888 0.06477955 0.097915493
0.44355515 0.066552185 0.098672874
0.44757938 0.06670896 0.098675244
0.4524852 0.066145979 0.098836757
0.45738572 0.065752223 0.099760368
0.46258032 0.065494873 0.10056083
0.46785554 0.065779656 0.10124771
0.47261059 0.065233611 0.10096406
0.47774827 0.065220252 0.10060312
0.48272216 0.065712243 0.10006654
0.4878611 0.066403806 0.099464923
0.49280196 0.066823579 0.099225998
0.49748805 0.066720553 0.099057645
0.50235957 0.066259496 0.098984152
0.50750583 0.066136755 0.099087581
0.5126856 0.066537812 0.099410549
0.51758075 0.066749558 0.099506751
0.52260941 0.066656783 0.09919887
0.52772027 0.066685654 0.098903947
0.53232515 0.066393718 0.098440558
0.53754544 0.066434421 0.098057695
0.54243994 0.066697203 0.097940922
0.54762256 0.067133546 0.098339207
0.5520469 0.066572897 0.098063394
0.55785805 0.066774555 0.098565258
0.56245768 0.066493444 0.098679364
0.56723565 0.066919006 0.099175379
0.57287067 0.066633798 0.099309884
0.57735056 0.066599123 0.099326178
0.58257788 0.066048659 0.098998621
0.58763087 0.066625006 0.099064827
0.59276038 0.066987872 0.098706082
0.59758002 0.066842437 0.098040313
0.60227263 0.067332268 0.097888641
0.60764396 0.067093343 0.097530313
0.61263579 0.067285977 0.097701311
0.61741596 0.067313686 0.097932741
0.62269193 0.06739714 0.098073632
0.62751281 0.067227468 0.097948231
0.632348 0.067591347 0.098072924
