# .PCD v0.7 - Point Cloud Data file format
VERSION 0.7
FIELDS x y z
SIZE 4 4 4
TYPE F F F
COUNT 1 1 1
WIDTH 1416
HEIGHT 1
VIEWPOINT 0 0 0 1 0 0 0
POINTS 1416
DATA ascii
0.38691643 0.15712398 0.2062913
0.39527595 0.15525304 0.20455581
0.40434462 0.15459575 0.2011846
0.41090262 0.15417826 0.19910914
0.37706572 0.16587617 0.20405735
0.38439053 0.16590743 0.20418462
0.3949807 0.16491793 0.20272858
0.4025968 0.16265397 0.20047861
0.40996939 0.16148345 0.19852825
0.3683742 0.17826217 0.20592789
0.37476498 0.17540769 0.204245
0.38447231 0.17449562 0.20173806
0.39049643 0.17308512 0.19927429
0.36625227 0.18453978 0.20452689
0.37417078 0.18478757 0.20221224
0.38200414 0.18367034 0.19918732
0.38976324 0.179693 0.19824713
0.35748935 0.19794606 0.20466173
0.3656716 0.19522317 0.20278175
0.37360629 0.19407266 0.20126148
0.38010895 0.19289744 0.19792607
0.34469384 0.20782419 0.20493467
0.35607129 0.20532759 0.20368701
0.36277619 0.20355175 0.20044969
0.37380064 0.20328134 0.19842091
0.33456728 0.21597306 0.20326467
0.34371939 0.21358396 0.20275368
0.35345864 0.21376358 0.20178755
0.36371255 0.21387881 0.19980881
0.37120563 0.2114166 0.19768471
0.32391873 0.22762436 0.20366828
0.33497196 0.22405586 0.20101613
0.34373367 0.22436008 0.2006149
0.35158342 0.22386171 0.19895339
0.36175868 0.22210827 0.19931008
0.3175332 0.22954947 0.20353748
0.32352641 0.23276055 0.20130864
0.33406067 0.23224983 0.19905628
0.34423983 0.23355946 0.19873421
0.34916192 0.23202682 0.1961433
0.30475605 0.24638049 0.20251195
0.31350654 0.24599595 0.20240603
0.3234458 0.24488907 0.19980115
0.33196035 0.24412754 0.19759348
0.34411114 0.24348311 0.19857194
0.30403537 0.25308463 0.20102099
0.31251377 0.2523919 0.19840321
0.32239902 0.25237226 0.1995789
0.33262292 0.25361365 0.19869794
0.34186447 0.25351334 0.19748281
0.23586254 0.26186287 0.1906549
0.24122314 0.26478827 0.19377069
0.29467264 0.26565644 0.20170514
0.30184174 0.26400748 0.20051329
0.31064901 0.2638365 0.19678257
0.3206245 0.25919461 0.20042202
0.33219761 0.25873175 0.19981487
0.34251377 0.26057586 0.19863784
0.23659241 0.26883385 0.18988821
0.24510489 0.2673749 0.19452405
0.25034133 0.27067035 0.19309007
0.28477079 0.27456665 0.20017983
0.29178387 0.27312177 0.19971456
0.3021948 0.27156749 0.19649911
0.30951181 0.26985076 0.19457276
0.25592279 0.2790575 0.19309734
0.27477089 0.28220925 0.20055652
0.28147557 0.28362846 0.19979309
0.29205444 0.28233638 0.19640604
0.29808158 0.2792936 0.1950921
0.25569439 0.29629946 0.20058085
0.25964439 0.29346904 0.1942064
0.27481329 0.29355541 0.19681205
0.28139308 0.29140303 0.19579653
0.29079455 0.28929973 0.19372559
0.26290298 0.29910356 0.19738878
0.27133694 0.30000877 0.19501391
0.28019223 0.30018482 0.1939528
0.59324461 -0.08697325 0.22028035
0.59530514 -0.089002565 0.21894798
0.58155423 -0.07818871 0.21850979
0.58816546 -0.082852572 0.2186324
0.57300007 -0.06699536 0.21842043
0.57652318 -0.071996279 0.21799389
0.56736648 -0.062203735 0.21783432
0.55929357 -0.05063327 0.21867558
0.56534022 -0.05429706 0.2175822
0.54318482 -0.037674133 0.21916611
0.54878598 -0.040424652 0.21763805
0.55502117 -0.044871725 0.21828252
0.16102642 -0.038723778 0.19719379
0.16741799 -0.039424922 0.19847
0.53872561 -0.032016527 0.21685165
0.54565871 -0.033189222 0.21544823
0.1574702 -0.033343147 0.19387639
0.17186463 -0.033531476 0.19653441
0.17502479 -0.030568996 0.19839865
0.52251989 -0.018530063 0.2161058
0.52799517 -0.021437816 0.21560346
0.53658694 -0.023882782 0.21596365
0.17656477 -0.017614283 0.19860247
0.52067012 -0.011186813 0.21817434
0.5260067 -0.012908503 0.21452655
0.15075269 -0.0059215939 0.20190559
0.17977533 -0.011142531 0.19879811
0.18389264 -0.0051067411 0.19547334
0.51130915 0.0014510257 0.2208427
0.51690811 -0.0026437379 0.21686468
0.52345365 -0.0066506034 0.21394618
0.15143836 -0.0039555551 0.20094927
0.18496916 -0.0031666667 0.19440384
0.50043184 0.0097689386 0.21838117
0.5071848 0.0072553689 0.21659133
0.51409191 0.0044166595 0.21451722
0.14603513 0.011481308 0.19855024
0.49110559 0.020195184 0.2180571
0.49701953 0.017228309 0.21631454
0.50387549 0.013826179 0.21453238
0.5127337 0.013085142 0.21306084
0.070950523 0.021484854 0.1969284
0.077615604 0.019996805 0.19613461
0.083933294 0.020027746 0.19737053
0.14081439 0.021570558 0.19412901
0.14484565 0.019085046 0.19528909
0.47946185 0.028952647 0.21767673
0.48650458 0.02707931 0.21547708
0.4941462 0.022699464 0.21276705
0.060958344 0.030851087 0.19506466
0.067495383 0.02746601 0.19335032
0.076957121 0.027381878 0.19192089
0.084115461 0.028466806 0.19601789
0.14044341 0.026587546 0.1919464
0.47029334 0.039678894 0.21711577
0.47734639 0.036577374 0.21673864
0.48479202 0.036569156 0.21359369
0.49563062 0.037274674 0.2128247
0.048105612 0.040344574 0.19109444
0.056934867 0.036436807 0.19137181
0.067273967 0.036111619 0.18916239
0.0777824 0.036398213 0.18983451
0.084322892 0.034550812 0.19538027
0.13735013 0.041432463 0.19694813
0.45830128 0.050840102 0.21790335
0.46900567 0.046400733 0.21800336
0.47628391 0.046373747 0.21509747
0.48386967 0.044264428 0.21330675
0.030034741 0.04996831 0.18866083
0.037138253 0.046328742 0.1911362
0.04330568 0.043156333 0.19381052
0.080210201 0.045910694 0.19043581
0.084116042 0.04898968 0.19400975
0.13770682 0.044923477 0.19392499
0.2379878 0.048543539 0.19836538
0.45069176 0.058304403 0.21721035
0.45654324 0.057071641 0.21604192
0.46570456 0.055431787 0.21526554
0.47512561 0.054876938 0.21425089
0.027022578 0.052700762 0.18764238
0.086422727 0.056230992 0.19404478
0.13517934 0.058992643 0.19522114
0.18545289 0.061022706 0.20340163
0.23297401 0.065048672 0.2073044
0.43918303 0.069595061 0.21841046
0.44729695 0.067589521 0.21747774
0.45477116 0.065588608 0.21343425
0.46270582 0.064762674 0.21186589
0.089565784 0.070765883 0.19013834
0.13630757 0.065651178 0.19382662
0.18668912 0.069715783 0.20092452
0.19226347 0.072841123 0.20432357
0.22975846 0.072154492 0.20475423
0.2318653 0.069559239 0.19911534
0.42922968 0.07718154 0.21532688
0.43710843 0.076545417 0.21624969
0.4462561 0.075533532 0.21380331
0.45218089 0.074518934 0.21171506
0.089422181 0.07315933 0.19402808
0.094792925 0.079395793 0.19158779
0.13268349 0.080598615 0.20038547
0.18972458 0.077442333 0.20164973
0.19233389 0.078043535 0.20381147
0.22838652 0.077697009 0.20514286
0.42664444 0.088560335 0.21570449
0.43636504 0.085710481 0.21431166
0.44408074 0.084410578 0.21163516
0.45187765 0.082716063 0.21083821
0.090462506 0.086001277 0.19928928
0.098250262 0.086361453 0.19482003
0.10301369 0.090265445 0.1968703
0.17628103 0.091484286 0.20174451
0.18136764 0.09268266 0.20425504
0.20852973 0.092028633 0.20548393
0.21457843 0.091329046 0.20558695
0.22392897 0.091117613 0.20225696
0.40682051 0.099816136 0.21684553
0.41963896 0.099032715 0.21753667
0.42497003 0.095767297 0.21366732
0.43575913 0.092442483 0.21110561
0.44119361 0.093600288 0.21074462
0.10709459 0.097395159 0.19671755
0.11516316 0.10001555 0.19830863
0.122867 0.10200758 0.20074584
0.13769381 0.10351844 0.20179236
0.1414735 0.10346401 0.20236385
0.16967285 0.10186849 0.20283872
0.17612742 0.10169761 0.20375682
0.18432383 0.10327614 0.20411292
0.19653292 0.1018462 0.20272784
0.20496859 0.099976577 0.20300163
0.21564998 0.10052212 0.20320925
0.22212043 0.096631333 0.19895649
0.40555885 0.107172 0.2141498
0.41659814 0.10563838 0.21533388
0.42434239 0.10539653 0.21267097
0.43320742 0.10661165 0.21124026
0.10620601 0.10948557 0.19776025
0.11656144 0.1052634 0.19394116
0.12587795 0.107425 0.1964889
0.13545129 0.10861691 0.1969136
0.14527629 0.10960888 0.19856091
0.155342 0.110431 0.19946177
0.16536073 0.11020676 0.20039077
0.17537454 0.1102201 0.1998959
0.18539712 0.11019825 0.19930561
0.19466968 0.10958864 0.19845825
0.20553841 0.11143471 0.20030639
0.21381167 0.108941 0.20197976
0.40583241 0.11505417 0.21424931
0.41509125 0.1153324 0.21280335
0.42245314 0.11479052 0.21142751
0.14898278 0.11465539 0.1941485
0.15608031 0.1161608 0.19436307
0.16542801 0.11823709 0.19544846
0.17464435 0.11609126 0.19513582
0.1924955 0.1154653 0.19570252
0.20912415 0.11607445 0.20226549
0.38660246 0.12697911 0.21509865
0.39598712 0.12616384 0.21403478
0.40486014 0.12477658 0.21171203
0.4145717 0.12189554 0.20927382
0.42074129 0.12118432 0.20872919
0.38808557 0.13297005 0.21249411
0.39512211 0.13484807 0.21202695
0.40344825 0.13318862 0.20895557
0.37447524 0.14852552 0.21562612
0.38544026 0.14596948 0.21247043
0.39290151 0.14335032 0.21066549
0.36746997 0.15564993 0.21428913
0.37481672 0.15463801 0.21352117
0.38352624 0.15408188 0.2107386
0.39101687 0.15485246 0.20806228
0.3474209 0.1682298 0.21412082
0.35768637 0.16846474 0.21533391
0.36494267 0.16500589 0.21383871
0.37426579 0.1641814 0.21161751
0.38163736 0.16340911 0.20942391
0.39415053 0.1637556 0.21079576
0.34753898 0.16993849 0.21326968
0.35504663 0.1737541 0.21333703
0.36352968 0.17332955 0.21169665
0.37249038 0.17353965 0.21077757
0.34466976 0.18655875 0.21271354
0.35482693 0.1829949 0.21185198
0.36422658 0.1839285 0.2100784
0.3699328 0.18053901 0.21061513
0.33507866 0.19426875 0.21263188
0.34393921 0.19452494 0.21011838
0.35267472 0.19384597 0.21037041
0.36348119 0.19399035 0.21079946
0.32424736 0.20609471 0.21266362
0.33342418 0.20496847 0.21144564
0.34287825 0.20352162 0.20919876
0.35352543 0.20371893 0.20885062
0.35955817 0.20069052 0.20863837
0.31567273 0.2169909 0.21326992
0.32337874 0.21358339 0.21161416
0.33256885 0.21241127 0.20791502
0.3430517 0.2131784 0.20719768
0.35117823 0.21177545 0.20639658
0.30570796 0.22462738 0.2122543
0.31297052 0.22288704 0.21121626
0.32270229 0.22280349 0.20862184
0.32982048 0.2235947 0.20672539
0.34380841 0.22373913 0.20868963
0.29414549 0.2362888 0.21180631
0.30298835 0.23340261 0.20992149
0.31201655 0.23390558 0.20939021
0.32325184 0.2334076 0.20959088
0.33247069 0.23345482 0.20761293
0.34249234 0.23370215 0.20788738
0.28620082 0.2427261 0.21040702
0.29310569 0.24293128 0.20975088
0.30194968 0.24204421 0.20624709
0.31270993 0.24214445 0.20843828
0.32085255 0.2423466 0.20716056
0.3299337 0.23950212 0.20585364
0.34560841 0.24021441 0.20722726
0.28365657 0.25450215 0.20951694
0.29316863 0.25260165 0.20853132
0.29979062 0.25333968 0.20688304
0.31622976 0.25007218 0.2047544
0.31967747 0.25403628 0.20580111
0.23876628 0.26589569 0.20056953
0.27431574 0.26402986 0.20929845
0.28157654 0.26198301 0.20661341
0.29181415 0.26141855 0.20430383
0.29865989 0.25961149 0.20473298
0.31879634 0.25887266 0.20485733
0.24132827 0.26725233 0.20247316
0.26456589 0.27530289 0.21027018
0.27193063 0.27247036 0.20634204
0.2807076 0.2712841 0.20388252
0.28864554 0.26811975 0.20264578
0.25413615 0.28291154 0.2085288
0.2614556 0.28186318 0.20706347
0.26985374 0.2796579 0.20399874
0.27762634 0.27791479 0.20224041
0.24539763 0.28668177 0.20930472
0.25181085 0.29047042 0.20633611
0.26120514 0.29252449 0.20397255
0.26932892 0.29235977 0.20358986
0.26216537 0.29753745 0.20196623
0.26657683 0.29777175 0.20179585
0.16196264 -0.046095125 0.21022238
0.1653302 -0.046038959 0.21040636
0.16136585 -0.041362025 0.20574802
0.16885071 -0.042154398 0.20744754
0.15672913 -0.031258613 0.20898636
0.17238472 -0.034230471 0.20740752
0.17488673 -0.030568155 0.20937002
0.15443681 -0.024436388 0.20709117
0.17730454 -0.01956705 0.20682652
0.15068921 -0.01071958 0.20584427
0.15303823 -0.010586081 0.20532005
0.18022388 -0.01165919 0.20774516
0.1825842 -0.0057512443 0.20801786
0.50989544 0.0029021883 0.22278143
0.071541563 0.011274841 0.20074022
0.07402321 0.01117005 0.20055853
0.060564898 0.020912917 0.20583929
0.067264907 0.018529348 0.20109919
0.076916024 0.015629716 0.19934949
0.085816041 0.017800562 0.20053734
0.05097992 0.030373449 0.20495944
0.057619266 0.027869653 0.20245086
0.063733414 0.024185199 0.19970787
0.087970987 0.029058687 0.20128277
0.10972596 0.030840635 0.20810379
0.11336595 0.031404886 0.20861681
0.040221263 0.041110251 0.1989726
0.047146615 0.037499767 0.20050207
0.053868614 0.034614757 0.19974381
0.089455046 0.035689488 0.20195571
0.10846189 0.037413567 0.20656626
0.11435743 0.037632689 0.20581186
0.13680436 0.041387759 0.20524426
0.21872762 0.042600557 0.21418123
0.22214089 0.044577107 0.21529895
0.46574691 0.04998108 0.22138965
0.037851404 0.043156687 0.1978851
0.08802776 0.048460051 0.20203386
0.095834129 0.048510879 0.2072576
0.10484547 0.049415398 0.20834482
0.11488796 0.047992777 0.20412812
0.1347727 0.046324059 0.20876731
0.21937799 0.049901489 0.21439174
0.22603895 0.052891195 0.21615349
0.45967287 0.053165589 0.2207693
0.46307647 0.051813103 0.22139135
0.089351282 0.058361236 0.20254014
0.095700286 0.058775246 0.20657586
0.10642607 0.060640249 0.20867416
0.11677048 0.058538008 0.20424008
0.12188219 0.062604189 0.20923544
0.1874896 0.0607839 0.20860517
0.19193152 0.064284325 0.20927499
0.21675046 0.060928922 0.21502449
0.2258582 0.061618671 0.21416932
0.23193079 0.064720213 0.21213759
0.44815511 0.064929843 0.22028022
0.45173004 0.063525684 0.22056331
0.088915527 0.066810466 0.20259896
0.09606 0.06767299 0.20612925
0.10561383 0.067501724 0.20709445
0.11565531 0.068475068 0.20491479
0.12652172 0.068296216 0.20791113
0.13127016 0.067933895 0.20784011
0.19027102 0.066381693 0.20541927
0.19577537 0.069752797 0.2099005
0.20476441 0.072976016 0.21397889
0.21622546 0.070696704 0.21259268
0.22518648 0.06885983 0.21066067
0.23194966 0.067026921 0.21019821
0.43384922 0.078333139 0.21976502
0.089177094 0.082489766 0.20855221
0.097363882 0.078025393 0.20621715
0.10497004 0.078648485 0.20679176
0.11504104 0.079972669 0.20735161
0.12572309 0.077120617 0.20416339
0.13096133 0.077892616 0.20220476
0.19719811 0.080036052 0.20944256
0.20607722 0.081111178 0.21212161
0.21493579 0.080884442 0.20963688
0.22338024 0.081298135 0.21073321
0.42620176 0.08845529 0.2189564
0.43241149 0.083516456 0.2205037
0.089818202 0.084342293 0.20507966
0.094872877 0.085734539 0.20366347
0.10620628 0.087718055 0.20344144
0.11520393 0.089380257 0.20598829
0.12164284 0.092244737 0.20895545
0.18504597 0.090579793 0.20640491
0.1965006 0.091160469 0.20948423
0.2040143 0.089546427 0.20885479
0.2177128 0.088485703 0.20748816
0.22309527 0.090215422 0.20842728
0.40869775 0.098269947 0.21830308
0.41632032 0.097459726 0.21984367
0.4219411 0.092804648 0.2197708
0.11704204 0.095312871 0.20276259
0.12550771 0.098143607 0.20518534
0.1347588 0.099772193 0.20444521
0.14363962 0.1024432 0.20398082
0.17710581 0.10146492 0.20461726
0.18654324 0.09939573 0.20669414
0.19371018 0.098329484 0.20739086
0.40590355 0.10563853 0.2178703
0.41730243 0.10318375 0.21964626
0.10689786 0.10885828 0.20275204
0.11059437 0.10956634 0.20276074
0.14823547 0.10527381 0.20372622
0.15217337 0.10618671 0.20347197
0.39728174 0.11744444 0.21959537
0.40166548 0.11579292 0.21917859
0.38769153 0.12388191 0.21809973
0.3943252 0.12462139 0.21897238
0.39996439 0.12077881 0.22044896
0.38748357 0.13880172 0.22077064
0.3916415 0.13438855 0.22003086
0.36793345 0.14809614 0.21673417
0.37613603 0.14533564 0.2192851
0.38273168 0.14306776 0.21850955
0.35828558 0.15635028 0.21819489
0.36563927 0.1562334 0.21808033
0.37235361 0.1516965 0.21823412
0.34729382 0.166509 0.21540383
0.35490489 0.16593301 0.21759143
0.36175311 0.16309656 0.21786883
0.34448069 0.17681292 0.21661963
0.35608327 0.1737006 0.21950674
0.36698058 0.17681731 0.21611279
0.36940399 0.17770731 0.21640742
0.33377522 0.18601465 0.22022662
0.3426443 0.18598418 0.21928334
0.35356036 0.18356274 0.21895269
0.36159807 0.18772258 0.21619383
0.32557639 0.19379404 0.21799679
0.33203664 0.19116949 0.21633214
0.34276047 0.19352068 0.22009423
0.35084176 0.19042276 0.21648297
0.36162737 0.19023131 0.21631709
0.31448588 0.20471807 0.21848416
0.32131901 0.20310712 0.21679649
0.33336282 0.20254356 0.21794358
0.33951411 0.19940129 0.21876013
0.30405572 0.21416526 0.21642278
0.31338456 0.21332859 0.21641617
0.31930536 0.21309561 0.21553981
0.29355407 0.22434005 0.21715781
0.30270353 0.22252087 0.21565284
0.31048363 0.22167113 0.21624142
0.32402369 0.22521222 0.21811733
0.3275255 0.2281158 0.21859983
0.28431955 0.2349081 0.21661235
0.29176638 0.23230049 0.21505883
0.30264819 0.23071322 0.21594942
0.30787084 0.23080181 0.21802989
0.32269749 0.23155546 0.21953087
0.32816201 0.22906066 0.21738705
0.27428418 0.24309446 0.21471483
0.2804549 0.24131526 0.21475822
0.29321271 0.24335566 0.21308614
0.30603266 0.23885353 0.21364476
0.3159709 0.24539384 0.2138321
0.26397631 0.25461644 0.21721572
0.2712597 0.25387964 0.21623029
0.27977574 0.25154853 0.21353862
0.29326463 0.2482754 0.21268108
0.25397438 0.26381245 0.21625587
0.26175568 0.26177174 0.21565109
0.27012318 0.26101476 0.21355294
0.27663755 0.25758922 0.21226847
0.24358359 0.27393124 0.21521041
0.25159115 0.27206776 0.21524587
0.26060292 0.27175769 0.21367855
0.26698783 0.26829273 0.21192646
0.24244219 0.28118476 0.21379447
0.25013572 0.28066811 0.2128039
0.25801513 0.27772874 0.21171302
0.2467792 0.28657001 0.21042766
0.1614504 -0.049418643 0.21697897
0.16715212 -0.048621234 0.21816316
0.15609093 -0.036483549 0.21956855
0.17138121 -0.042268228 0.21575069
0.17360471 -0.038274825 0.21521659
0.152152 -0.029647095 0.21663164
0.15553629 -0.033821337 0.21607834
0.17529297 -0.032039843 0.21849731
0.17625542 -0.015754066 0.21685921
0.17812985 -0.011918975 0.21602747
0.10593635 0.020996962 0.21479528
0.18016064 0.018504364 0.22291565
0.18186016 0.02019481 0.2228681
0.10821999 0.027612964 0.2120692
0.11237269 0.030440783 0.21445844
0.090625033 0.039583709 0.2103634
0.097322389 0.040432829 0.21686888
0.10271396 0.040817183 0.21728607
0.11632466 0.038980111 0.21752842
0.12075464 0.042690124 0.21946105
0.21924911 0.040644061 0.21773326
0.2231991 0.041827008 0.21855597
0.09659934 0.04565398 0.21274294
0.10360149 0.046868891 0.21194784
0.11841916 0.046399858 0.21486303
0.12354141 0.047412809 0.21776231
0.13663034 0.050437279 0.21790121
0.14084587 0.047171291 0.21762049
0.1831679 0.052540403 0.22020569
0.21480764 0.052600402 0.21949816
0.22523385 0.049575701 0.21742214
0.10555329 0.057223413 0.21055025
0.11923961 0.059076186 0.21496131
0.12286828 0.060963541 0.21635002
0.13179615 0.058218338 0.21645927
0.18492173 0.057443671 0.2178182
0.20707573 0.065320149 0.22530679
0.21740645 0.056091327 0.21677592
0.2220352 0.056212243 0.21698843
0.12689963 0.065942474 0.21664727
0.13149554 0.064162232 0.21283387
0.18794484 0.07086201 0.2198163
0.19481267 0.072588064 0.22106114
0.20557378 0.070349067 0.22102027
0.21081629 0.069429345 0.2199026
0.0910495 0.08225207 0.21024546
0.35765943 0.1761819 0.22646198
0.35794401 0.177589 0.22640601
0.35799485 0.18032965 0.22656918
0.33937117 0.19558634 0.22593319
0.33688244 0.2003319 0.22530685
0.33825502 0.19928533 0.22554779
0.16005072 -0.051703718 0.22819102
0.16710979 -0.051786404 0.22806713
0.17257968 -0.046382941 0.23077369
0.15706867 -0.037919953 0.22527558
0.17172085 -0.040685028 0.22618598
0.17396285 -0.039315376 0.22851335
0.17416151 -0.033271428 0.22457999
0.17966145 0.011788825 0.22856584
0.18140182 0.011599859 0.23081464
0.10686867 0.020472519 0.22555557
0.18030179 0.01645972 0.22484052
0.18400145 0.019065745 0.22711635
0.10920729 0.026055334 0.22349039
0.11232032 0.029762346 0.22600476
0.099573165 0.037368536 0.22022739
0.10236197 0.037578274 0.22071207
0.11628371 0.036336936 0.22523579
0.18308683 0.04304231 0.2310428
0.1191176 0.048770871 0.22730537
0.12098264 0.051401213 0.22875381
0.13845477 0.050862573 0.22559376
0.18417236 0.047459695 0.22794652
0.12613451 0.058805067 0.22832857
0.13436039 0.059036102 0.2276952
0.18503058 0.062446423 0.22895794
0.20777948 0.064314045 0.22788979
0.2113459 0.063585177 0.22863306
0.12767088 0.066430621 0.22380972
0.13068812 0.066244841 0.22677475
0.1872177 0.069579005 0.22991724
0.1947016 0.072435364 0.22967273
0.20274661 0.070314094 0.23106188
0.19170758 0.076721124 0.23468357
0.16059597 -0.057523154 0.23866086
0.16499053 -0.05689894 0.23954166
0.16005099 -0.054248355 0.23407882
0.16750924 -0.054153159 0.2362244
0.1717689 -0.045747813 0.23638053
0.17081887 -0.044959802 0.24114285
0.17363383 -0.040904384 0.23908858
0.17673144 -0.0071097142 0.24097167
0.10757488 0.0017181849 0.23877764
0.10634099 0.01885692 0.23596159
0.10758898 0.02599558 0.23783186
0.11288279 0.030233635 0.23446406
0.11488388 0.034875352 0.23720214
0.18479724 0.041913237 0.23453736
0.13685432 0.052621648 0.23483691
0.12555458 0.06088534 0.23458728
0.1347305 0.059765644 0.23500651
0.18449441 0.063173413 0.23599853
0.12499973 0.066762924 0.2376643
0.13246481 0.065188169 0.2372274
0.18650842 0.07073161 0.23849429
0.20549564 0.072830915 0.24041578
0.20975788 0.073080987 0.24182251
0.18752863 0.077689044 0.24307001
0.19275869 0.081362262 0.24208018
0.20128083 0.076010354 0.24274337
0.16000867 -0.05947094 0.24783728
0.16548596 -0.058910001 0.24761763
0.15900977 -0.052095897 0.24736603
0.17021686 -0.052903019 0.24706465
0.17250578 -0.048637476 0.24740294
0.17429966 -0.043694533 0.24488011
0.17449878 -0.015947251 0.24637766
0.1762265 -0.0097025605 0.24746166
0.10790931 0.00047788699 0.23983078
0.10863401 0.017982841 0.2423443
0.11117327 0.020189015 0.24433777
0.10894838 0.024628676 0.24057534
0.11271919 0.028260663 0.24328296
0.11511374 0.035560779 0.24368623
0.13409358 0.060317561 0.24440725
0.11793901 0.066534854 0.24803087
0.12143062 0.070031293 0.24752177
0.13309194 0.069585487 0.2480287
0.18581502 0.071270041 0.24979509
0.20687725 0.073930927 0.24947569
0.20941998 0.073413372 0.25130051
0.1254527 0.076738119 0.24739203
0.12980716 0.077781953 0.24933149
0.18762162 0.07635507 0.24912786
0.19201903 0.082014814 0.24980691
0.20288345 0.076865241 0.25053406
0.20821194 0.075616665 0.25610307
0.19547161 0.085793562 0.25341409
0.19827674 0.086358592 0.25268206
0.16002905 -0.060896967 0.25498804
0.16521575 -0.059822753 0.25717074
0.16982397 -0.05295027 0.25952625
0.17135261 -0.050773069 0.25510931
0.17274332 -0.044556126 0.25393564
0.10861734 0.02425357 0.25944811
0.11178461 0.029587409 0.25548986
0.11454746 0.035669558 0.25262982
0.1174693 0.066139236 0.25409701
0.12442588 0.070527822 0.25517049
0.13250381 0.069482185 0.25812393
0.13839033 0.065658867 0.26024187
0.17579755 0.065095991 0.26364771
0.18143956 0.067118376 0.26112822
0.12215919 0.077141106 0.25764394
0.13031819 0.0749017 0.25343916
0.18480651 0.082453668 0.26219738
0.18962494 0.082034983 0.25845203
0.20467412 0.081802376 0.25927684
0.19390312 0.086772069 0.26096284
0.20086585 0.088257402 0.26275003
0.15990187 -0.059174262 0.26490733
0.16380061 -0.058717024 0.26736164
0.15871978 -0.0531605 0.26304266
0.16816279 -0.054167334 0.26913017
0.16881911 -0.03850729 0.26993504
0.17098673 -0.037057083 0.26985019
0.1721288 -0.034029435 0.26632491
0.10746623 0.030291378 0.26571128
0.10969673 0.030644115 0.263789
0.11026619 0.035223115 0.26690993
0.18118569 0.053004663 0.27117956
0.11642702 0.060070474 0.26903376
0.11783085 0.062493589 0.26537156
0.1750358 0.063756682 0.27074832
0.1819372 0.060560413 0.26883093
0.11738788 0.063136645 0.26571637
0.12051426 0.0682289 0.26487559
0.13269444 0.069051653 0.26595256
0.13804026 0.068858035 0.26473939
0.17573236 0.064841568 0.26735741
0.17860383 0.065020151 0.26869413
0.12165135 0.079162546 0.2661525
0.12901659 0.074528642 0.2698797
0.18215019 0.083062917 0.2743032
0.20225137 0.08298178 0.27427384
0.20693956 0.084838174 0.27581632
0.12335289 0.084032632 0.27005377
0.18359944 0.088704266 0.27090773
0.19201395 0.089533351 0.27107769
0.20189455 0.08754959 0.27013198
0.20757109 0.086744085 0.27269879
0.15962826 -0.057338312 0.2738817
0.16338024 -0.057927899 0.2770988
0.15903997 -0.053504631 0.27364749
0.16780671 -0.052321251 0.27916208
0.16908206 -0.039361812 0.27451751
0.16997679 -0.038424063 0.27477148
0.17164542 -0.031826939 0.27455536
0.17574036 0.051166583 0.27493343
0.11245146 0.060458194 0.27859792
0.11725009 0.062496703 0.2714577
0.17476776 0.057533447 0.28090489
0.17828888 0.060068902 0.28172278
0.11503977 0.06565775 0.27768728
0.11767616 0.072119989 0.2762197
0.13571341 0.072812393 0.27351218
0.13731278 0.071656495 0.27431425
0.18048291 0.066259913 0.2789495
0.11933 0.07701657 0.27429694
0.13247353 0.077414572 0.2753363
0.13827337 0.07611727 0.27976403
0.1825445 0.081998535 0.2790837
0.20343837 0.079589501 0.27834892
0.20753837 0.079668142 0.28071186
0.12355195 0.088627391 0.27733082
0.12860531 0.087066181 0.27972335
0.18465224 0.087937728 0.27979273
0.19111852 0.089637555 0.27935237
0.19796433 0.087295644 0.28177577
0.19139464 0.094684303 0.28476122
0.16365002 -0.059082899 0.28552818
0.16624472 -0.054036215 0.28394148
0.1115538 0.060813088 0.28178215
0.17395742 0.0609558 0.28972661
0.17747883 0.061183766 0.2868261
0.10434835 0.06583152 0.28899056
0.10942341 0.06883429 0.28745732
0.17246512 0.064517945 0.29321995
0.17738159 0.069508269 0.29032522
0.11352523 0.076221794 0.28823623
0.11653584 0.079599924 0.28601098
0.13443598 0.080923818 0.29091206
0.1386749 0.079524219 0.28965086
0.20447604 0.083425276 0.29210705
0.20660569 0.082129702 0.29210931
0.12154102 0.091251761 0.28698078
0.13090289 0.087502211 0.28661126
0.13695578 0.085945465 0.28821161
0.17918684 0.091831774 0.29196146
0.19161507 0.093616664 0.28652084
0.20116743 0.088096887 0.2894583
0.18275967 0.096925378 0.29136941
0.19053034 0.095880248 0.29080591
0.1967448 0.09494593 0.29329959
0.10359547 0.060797166 0.29411188
0.10610618 0.061891612 0.29789847
0.10469455 0.063431576 0.29283586
0.11005278 0.066639051 0.29542086
0.1723108 0.070768304 0.2986998
0.17591758 0.070996836 0.2962338
0.11366103 0.076583773 0.29383153
0.11640016 0.081220835 0.29684955
0.1347698 0.079474524 0.29291621
0.13758428 0.079879597 0.2963827
0.16821264 0.076168507 0.30189654
0.17601006 0.080439091 0.30041614
0.2035348 0.082289428 0.30478221
0.2060965 0.082553245 0.30512547
0.12001923 0.089076504 0.29544151
0.13093881 0.092293002 0.29378673
0.13717349 0.084028475 0.30176902
0.1776945 0.090257384 0.29841349
0.20117643 0.091124356 0.30214259
0.20647353 0.086274691 0.30280146
0.12338908 0.10185055 0.30039445
0.12866993 0.099674828 0.29902038
0.18118045 0.097885288 0.3004331
0.18956462 0.10075311 0.30116388
0.1967878 0.099407077 0.30112308
0.12497641 0.10300609 0.29884028
0.19309577 0.10460908 0.29878619
0.10334763 0.071742773 0.30682614
0.10844032 0.066733502 0.30162609
0.10893572 0.078579977 0.30858576
0.1161049 0.08091598 0.30258116
0.16852184 0.079585157 0.3064895
0.20420678 0.081511915 0.30861345
0.20594783 0.080942191 0.30787739
0.10318786 0.086324058 0.30968788
0.11343959 0.08380767 0.30810919
0.11645004 0.085490748 0.30635628
0.13779925 0.090936974 0.3071593
0.17195688 0.087062031 0.31092149
0.17501193 0.089826301 0.31162122
0.20253862 0.085711196 0.31067732
0.12195665 0.098743446 0.30672997
0.1291178 0.099028915 0.30645511
0.13639536 0.096157506 0.31019473
0.18014565 0.10253299 0.30960155
0.18935829 0.1008952 0.31060949
0.1960604 0.10074571 0.31170478
0.17713958 0.10603687 0.31324184
0.10369375 0.071043015 0.3117401
0.10307086 0.076008283 0.31706142
0.10863342 0.078354381 0.31378835
0.10308969 0.085111476 0.31154969
0.10943548 0.085007243 0.31260183
0.11507035 0.085202977 0.31210575
0.14053394 0.09082596 0.31575999
0.16467786 0.093370453 0.32121527
0.11877122 0.10073677 0.31538039
0.12791532 0.10170892 0.31341556
0.13807693 0.097705826 0.31675351
0.16806385 0.097931139 0.31995654
0.1741257 0.10326348 0.31983492
0.19107877 0.10238705 0.32271764
0.1975449 0.10219555 0.32133365
0.12008792 0.10357861 0.31906152
0.12806034 0.10918022 0.31845358
0.13469312 0.10878868 0.31868851
0.17155424 0.10704915 0.32417354
0.1785534 0.10862457 0.32027563
0.18813254 0.10849489 0.32129592
0.20217372 0.10488427 0.32535428
0.13197753 0.11311197 0.32049164
0.13358182 0.11340285 0.32087955
0.10247047 0.088368841 0.32602125
0.10541132 0.090495452 0.32592002
0.1616714 0.09162388 0.32888719
0.1634475 0.093237855 0.32939833
0.11108234 0.097316392 0.32497627
0.11470413 0.10021299 0.32512203
0.13832417 0.099796653 0.32858625
0.16256794 0.09380649 0.33234584
0.16680908 0.099988557 0.32933918
0.19068813 0.10139128 0.32627946
0.19785763 0.10169703 0.32720965
0.10861361 0.10278194 0.32978711
0.11928359 0.10904801 0.32660726
0.12761335 0.11212374 0.32302582
0.13697858 0.10543116 0.32747158
0.17160377 0.10609778 0.32852468
0.17812964 0.10861063 0.3298761
0.18692264 0.1108758 0.33160707
0.19844793 0.10780152 0.33224472
0.20319939 0.10591181 0.3304069
0.12160228 0.11294319 0.32667565
0.12816933 0.11364186 0.3277151
0.13421512 0.11428004 0.32754603
0.10087719 0.091694973 0.33167008
0.15915665 0.093363956 0.33380786
0.10213926 0.096366659 0.33235118
0.10410117 0.1009332 0.33464786
0.13980918 0.10116148 0.33456483
0.16056062 0.095692262 0.33763582
0.16497365 0.10048199 0.33631617
0.20161568 0.098458491 0.34281716
0.20322955 0.10147088 0.33901316
0.10149372 0.10988642 0.33928734
0.10850982 0.10602213 0.33595189
0.11490103 0.10986043 0.33659986
0.13989669 0.10954753 0.34052953
0.16091916 0.10743495 0.34366828
0.16612354 0.10900107 0.33976218
0.18079928 0.10827576 0.33633962
0.18917657 0.10804484 0.33862129
0.1968267 0.10787695 0.34065673
0.20249461 0.1080568 0.33927658
0.11846729 0.11493038 0.33691302
0.12706685 0.11686423 0.33722928
0.13491333 0.11520628 0.33730721
0.16945973 0.11490385 0.34143156
0.17646198 0.11459937 0.34112266
0.18449761 0.1184849 0.34262237
0.10089494 0.099395879 0.34899446
0.1027701 0.10153358 0.34996504
0.15796632 0.097627297 0.34579438
0.20060933 0.10424747 0.34873956
0.10102211 0.10750221 0.34347469
0.10481915 0.10907262 0.34516272
0.15949593 0.10955361 0.349637
0.16253528 0.11261564 0.34655502
0.19025782 0.11322136 0.35088477
0.19558951 0.11239275 0.35200194
0.10845207 0.11432021 0.34737197
0.1164832 0.1165558 0.34675464
0.12542012 0.11922833 0.34346545
0.13780276 0.11887749 0.34675524
0.14204441 0.11588895 0.35110572
0.16135268 0.12068471 0.35247311
0.16740198 0.11753016 0.34915009
0.17660664 0.11887275 0.35047388
0.18579036 0.11711858 0.35046643
0.19763166 0.11433008 0.35444558
0.1208831 0.12414841 0.34998491
0.12789996 0.12658572 0.34901926
0.13386427 0.12466268 0.34972471
0.12563342 0.13415179 0.35033569
0.10062497 0.098032735 0.35597098
0.10239521 0.10094547 0.35448524
0.14906736 0.10138804 0.35778278
0.15243487 0.10301789 0.36055994
0.10468044 0.10613025 0.35425475
0.14606744 0.10780451 0.35999459
0.15486006 0.10590292 0.35849088
0.18988751 0.11291464 0.35703963
0.19617909 0.11172205 0.36009631
0.20167913 0.109429 0.36382252
0.10822544 0.1169796 0.35594073
0.11366948 0.11925023 0.35400778
0.14116043 0.11679932 0.35333258
0.1419394 0.11519721 0.35491544
0.15848832 0.12002951 0.36130843
0.17025757 0.12092065 0.35689536
0.17709389 0.11977579 0.35878533
0.18490857 0.12086806 0.36168113
0.1965259 0.11779264 0.36153769
0.20191392 0.11530001 0.35797909
0.11058029 0.12396853 0.36033607
0.11538656 0.12765318 0.35795453
0.1280437 0.12807058 0.35408077
0.13611668 0.12613033 0.35650665
0.14080642 0.12337312 0.36279532
0.16008782 0.12395658 0.35822308
0.16523801 0.1251601 0.36001396
0.17304131 0.12674403 0.36297637
0.11765263 0.13461848 0.35981002
0.12515065 0.13556704 0.35787696
0.13319166 0.13501513 0.36142391
0.10059665 0.094224513 0.36118907
0.10156184 0.097112991 0.36161885
0.10317507 0.10929031 0.36675152
0.14708745 0.11045288 0.36508292
0.19820526 0.11121246 0.36875635
0.20176651 0.10844415 0.36944959
0.10487667 0.11747886 0.3656624
0.14464298 0.11700752 0.36697769
0.15402962 0.11744736 0.36627397
0.16065547 0.12256135 0.3648445
0.17967075 0.12266496 0.36671019
0.18546604 0.1196533 0.36783978
0.19339406 0.11734819 0.36801502
0.10746554 0.12497477 0.36755592
0.11261229 0.12873913 0.36859804
0.13867877 0.13174082 0.37131292
0.14439882 0.12773702 0.37173381
0.1539927 0.13168631 0.37167516
0.16535246 0.12872657 0.36877915
0.175275 0.12944767 0.36969417
0.18610999 0.12648109 0.37410215
0.19314545 0.12674932 0.37530699
0.11612913 0.13683067 0.36730298
0.12478971 0.13603602 0.3667157
0.13469946 0.13672887 0.3674081
0.14056692 0.13326137 0.36889151
0.15791698 0.13360628 0.37171951
0.16297016 0.1342001 0.37273002
0.17206299 0.13439833 0.37316656
0.12772933 0.14310095 0.37176797
0.09935113 0.10940211 0.37551737
0.10377198 0.10909171 0.37417299
0.19802059 0.11029589 0.37800539
0.099665776 0.11212792 0.37948945
0.10488238 0.11599737 0.37574369
0.19603556 0.11903863 0.3823733
0.10859019 0.12515984 0.37572002
0.112744 0.1285229 0.37594742
0.13955843 0.13001047 0.37323943
0.14597169 0.12891436 0.37700447
0.15212663 0.13104318 0.37758204
0.16280647 0.13291854 0.37556505
0.17792274 0.13278867 0.37680548
0.18544337 0.12760772 0.3801983
0.19306478 0.12671676 0.38002557
0.11741559 0.13501698 0.37759745
0.12321877 0.13957661 0.37735742
0.1356288 0.13986592 0.37842104
0.14257628 0.13545571 0.38092586
0.15628724 0.13599677 0.37972042
0.16506456 0.1358998 0.38003477
0.17371982 0.13632964 0.3804251
0.18005969 0.13637 0.38333213
0.12806159 0.14310345 0.37728515
0.13087086 0.14318357 0.37810126
0.098071203 0.11085316 0.38450187
0.098728843 0.11245145 0.38246986
0.10131352 0.11705088 0.38360536
0.19536406 0.12321816 0.38842899
0.19965872 0.1197646 0.3872135
0.10658489 0.12565158 0.38353646
0.11269581 0.12962463 0.38358635
0.18615326 0.12907039 0.38767558
0.19186123 0.12599063 0.38788211
0.11726351 0.13519597 0.38370213
0.12176038 0.14071649 0.38417611
0.13572112 0.13952595 0.38463712
0.14349186 0.13779655 0.3851766
0.15394486 0.13919698 0.38605911
0.16434394 0.13599765 0.38636389
0.17428979 0.13815618 0.38669857
0.18001568 0.13946544 0.38793725
0.12665491 0.143195 0.38455635
0.13051286 0.1438814 0.38486472
0.56911761 0.27948737 -0.00019729882
0.57146227 0.27771196 -0.00061814114
0.56461716 0.28550532 -0.00056160148
0.56133699 0.29217529 -0.00011697784
0.3531377 0.46987113 -0.00024358276
0.34681174 0.47381026 -0.001660854
0.35380101 0.4724831 -0.0016104772
0.40967417 0.53884578 -0.00063578878
0.41596031 0.53419572 -0.0005696945
0.42196661 0.53465676 -0.00070342282
0.41128132 0.54520458 -0.00043187477
0.42696881 0.54596764 -0.00067969691
0.38700449 0.55860686 -0.002235126
0.41520917 0.55225748 -0.00050333375
0.42415252 0.55218256 -0.00023899414
0.37860352 0.56963587 -0.0033343295
0.3853218 0.56544191 -0.0021195705
0.3928217 0.56556863 -0.0018368184
0.37914655 0.57174134 -0.0032250248
0.38564226 0.57287091 -0.0020248436
0.3921892 0.57235479 -0.0017561202
0.31491673 -0.052139498 0.0097168386
0.32177004 -0.059221789 0.0099845175
0.35378736 -0.050601423 0.009571217
0.34690839 -0.043515816 0.0091776866
0.29592922 -0.032139804 0.007987869
0.30155191 -0.036913875 0.0096142078
0.33580643 -0.032059513 0.0091013853
0.34173742 -0.038867339 0.0097291516
0.2871049 -0.022647031 0.008310182
0.29235214 -0.027716797 0.008618718
0.32830697 -0.023635216 0.0093744062
0.2772111 -0.012280464 0.0078045954
0.28201714 -0.017057348 0.0081545897
0.31618479 -0.011600454 0.0089175915
0.3230533 -0.018103153 0.0084602265
0.26780611 -0.0026695281 0.0078644278
0.27333951 -0.0072134249 0.0087054549
0.30867022 -0.0025458261 0.0084669637
0.31205502 -0.006593816 0.008890043
0.25768632 0.0085440502 0.0078067621
0.26279092 0.0034188628 0.008333887
0.29866305 0.0079042418 0.0081702946
0.30351645 0.0030438229 0.0080589997
0.24860787 0.016178921 0.0069962125
0.25375679 0.013259198 0.00873206
0.28894794 0.018595956 0.0074340478
0.29337946 0.013796804 0.0075548999
0.23736955 0.027995175 0.0063892938
0.24332348 0.02351756 0.0083891358
0.2778554 0.029117502 0.0084433453
0.28330472 0.024506444 0.0072760102
0.22887886 0.037860334 0.0058618188
0.23375139 0.03475707 0.0081415754
0.26930177 0.037808813 0.0085713919
0.27365768 0.033686325 0.0073095462
0.2278499 0.043242827 0.0085724108
0.23099442 0.041464508 0.0097145941
0.26416624 0.044424627 0.0074583329
0.25527754 0.054525822 0.0071693035
0.23990402 0.069229051 0.0099564372
0.2452177 0.064305335 0.0072273854
0.23865122 0.071550637 0.0076431455
0.62870914 0.2085541 0.0080473265
0.6317392 0.20771307 0.0068211909
0.61825997 0.21825905 0.0061022094
0.62531459 0.215177 0.0066502118
0.63156605 0.21262364 0.0064094812
0.60890007 0.22857065 0.0080038207
0.61571592 0.22537731 0.0064312876
0.62172949 0.22299534 0.004864248
0.59909475 0.23849303 0.0080241738
0.60591274 0.23586053 0.0074285432
0.61267483 0.23325004 0.0053541102
0.58872837 0.24876411 0.0069773155
0.59610766 0.24574402 0.006328186
0.60364991 0.24280439 0.0054570418
0.68142825 0.24981336 0.009815421
0.57803887 0.25847694 0.0027572773
0.58560091 0.25597817 0.0039869468
0.59388095 0.25326392 0.0051880362
0.67827296 0.2531988 0.0099470355
0.68128031 0.25102869 0.0098704994
0.56920314 0.26974842 0.0047527859
0.57600445 0.26534227 0.0048322533
0.58175129 0.26379874 0.0029941134
0.66764098 0.26517197 0.009890018
0.55922443 0.27882802 0.005809383
0.56575811 0.27589497 0.0038698004
0.5732941 0.27299616 0.0022261871
0.54960275 0.28869402 0.0063528754
0.55527484 0.28599188 0.0043445895
0.56313992 0.28416595 0.002975177
0.54724103 0.29595619 0.0065873908
0.55438352 0.29389217 0.0041438546
0.5607934 0.291421 0.0014779344
0.54673183 0.30085453 0.0051587382
0.55023497 0.30019099 0.0041791536
0.34593105 0.4657858 0.0019575635
0.35267213 0.46666864 0.0026051928
0.35794878 0.47066778 0.00043628225
0.41569012 0.53731561 0.0014453591
0.42085439 0.53768075 0.00077389041
0.4163928 0.54416949 0.0025366342
0.42289442 0.54477227 0.0019765114
0.41751567 0.55092365 0.0010923265
0.42106551 0.55274802 0.00019427808
0.66302967 0.61834145 0.0093331356
0.62883556 0.62898701 0.0095312539
0.63672698 0.62918377 0.0097761182
0.65474439 0.62975532 0.0090889158
0.58840919 0.6373992 0.0083802231
0.59248972 0.63654548 0.0088776955
0.61946452 0.63627172 0.0089468285
0.62495792 0.63535631 0.0071342578
0.6332345 0.63459963 0.0085340431
0.65206927 0.63404632 0.0081970291
0.67912269 0.63736403 0.0094036311
0.68452048 0.63513768 0.0083819181
0.59554535 0.64466262 0.0089581227
0.60217631 0.64743185 0.0089852763
0.6150648 0.64571708 0.0078556929
0.63127977 0.64527225 0.0075702136
0.65610176 0.64115196 0.0075468607
0.6613242 0.64243603 0.0083440421
0.67309451 0.64031661 0.0071005691
0.68523419 0.6481061 0.0083087916
0.69370848 0.64462966 0.0086591253
0.70162547 0.64626884 0.0084678121
0.59786266 0.6549952 0.007611806
0.60481483 0.65492624 0.0065789837
0.61215097 0.65249026 0.0061901654
0.63397884 0.65606618 0.0076273158
0.6444065 0.65797579 0.0079236692
0.65301609 0.65815854 0.0086400388
0.52520669 0.66650438 0.0070865382
0.60630935 0.66231215 0.0065745534
0.61473536 0.66771418 0.0072879875
0.62604547 0.66841012 0.0078519741
0.63534969 0.66604799 0.0064717471
0.64511156 0.66440409 0.0064292271
0.65349019 0.66178811 0.0085642654
0.5260039 0.67012 0.006519069
0.46489659 -0.20091799 0.017644629
0.47036874 -0.20031667 0.017459439
0.45716435 -0.19265659 0.018404204
0.46425408 -0.19538115 0.017850325
0.4481568 -0.18387321 0.017700197
0.45520627 -0.18456529 0.019384731
0.46402597 -0.18445581 0.017807823
0.43741038 -0.17226063 0.016818825
0.44520763 -0.17481594 0.01791303
0.45464647 -0.17504044 0.018783988
0.46248171 -0.17583306 0.017971599
0.42693409 -0.16307788 0.016052771
0.43522558 -0.16443214 0.018088909
0.4448297 -0.16490342 0.018500054
0.45373657 -0.16620004 0.017984342
0.41694179 -0.15223829 0.016340038
0.42534733 -0.15492448 0.018303117
0.43487954 -0.15491152 0.018512774
0.44410819 -0.15548491 0.017941259
0.45092452 -0.15972987 0.016167637
0.40702534 -0.14352028 0.015027742
0.41515878 -0.14455265 0.018112205
0.42498639 -0.14503078 0.018116815
0.43458143 -0.14533772 0.017631639
0.44178501 -0.14819549 0.016070036
0.39760652 -0.13274851 0.014345664
0.40569815 -0.13505091 0.017430719
0.41495979 -0.13490343 0.017847041
0.42402884 -0.13556492 0.016526006
0.43067572 -0.13868636 0.015615385
0.38865304 -0.12188083 0.014557981
0.39559776 -0.12455157 0.016870236
0.40513226 -0.12510937 0.017860577
0.41465378 -0.12541372 0.016694043
0.42117897 -0.12825796 0.014832318
0.37756047 -0.11228653 0.014441378
0.38539031 -0.11461858 0.017038638
0.39528421 -0.1149122 0.018866891
0.40503421 -0.1148213 0.017479874
0.4116888 -0.11822305 0.015409035
0.36811265 -0.10172547 0.014249805
0.37480816 -0.10480266 0.017568821
0.38531429 -0.10471456 0.019332366
0.39505467 -0.10503785 0.018068064
0.40219188 -0.10709539 0.015752187
0.35829124 -0.092243634 0.013456929
0.36544371 -0.09478876 0.017080184
0.37665561 -0.095097698 0.01960877
0.38484788 -0.094957612 0.017993925
0.39289942 -0.097337857 0.015010262
0.34869063 -0.082166836 0.013218542
0.35532796 -0.084664524 0.016092014
0.36457607 -0.084792994 0.019319002
0.37543544 -0.08458478 0.01865842
0.38233611 -0.086849175 0.015423945
0.3368642 -0.07167843 0.012952585
0.34527907 -0.074448414 0.016406583
0.35517532 -0.075190261 0.01891035
0.36498684 -0.074839003 0.019019671
0.37336716 -0.076040402 0.015889883
0.32780328 -0.062875532 0.012657355
0.33532864 -0.064665295 0.016830245
0.34503275 -0.064967014 0.019069495
0.35500616 -0.065146104 0.018218402
0.36377659 -0.065808557 0.014666376
0.37056378 -0.069794774 0.010476818
0.31759298 -0.052055527 0.012179009
0.32526502 -0.05452447 0.015651513
0.33520129 -0.055144586 0.018980769
0.34511414 -0.055007786 0.018912023
0.35404232 -0.055679832 0.015533605
0.3084023 -0.043255731 0.012209401
0.31548947 -0.04426476 0.016577324
0.32484439 -0.045018028 0.018225772
0.33491135 -0.04522818 0.017926054
0.34430954 -0.045638882 0.01586814
0.35116291 -0.048753247 0.012328218
0.29875386 -0.031766579 0.010509026
0.30602062 -0.03466979 0.014937673
0.31519228 -0.034732286 0.018946592
0.3248454 -0.035207253 0.018539647
0.33411992 -0.03537669 0.01596644
0.34019306 -0.039014988 0.013056146
0.28887698 -0.020535529 0.011210439
0.29593575 -0.024279259 0.012789682
0.3052232 -0.025000049 0.015769798
0.31517336 -0.02482909 0.017402621
0.32459328 -0.025478804 0.016337821
0.33109105 -0.028148148 0.012763297
0.28588995 -0.014014122 0.01296503
0.29491004 -0.014895723 0.015554896
0.30489463 -0.014847207 0.016312012
0.31450284 -0.015510431 0.015260622
0.32125103 -0.01859628 0.013078686
0.2679767 -0.00025358796 0.01022952
0.27602932 -0.0040984498 0.013170034
0.2850906 -0.0046735164 0.015690025
0.29500973 -0.0049996879 0.016305331
0.30537543 -0.0051758015 0.015928056
0.31202647 -0.0086128665 0.012513612
0.26659867 0.0063485247 0.013438775
0.27539766 0.0048395125 0.016582796
0.28502041 0.0049124206 0.017169891
0.29504776 0.0049058883 0.015734041
0.30240336 0.001765412 0.012751037
0.24958864 0.019625887 0.011058421
0.25642926 0.016839404 0.013443286
0.2648719 0.015009371 0.015601994
0.27479699 0.014768515 0.017029848
0.28521648 0.014679826 0.016514523
0.29237258 0.012245822 0.012972404
0.24672857 0.0262891 0.013543264
0.25533983 0.025268175 0.016691862
0.26474363 0.024795892 0.016214207
0.27483538 0.025033386 0.015432777
0.28274152 0.021917708 0.013278507
0.23800322 0.036153801 0.012318371
0.24523327 0.035356563 0.015187857
0.25498754 0.035066891 0.016593846
0.2648516 0.034856915 0.01565324
0.27168587 0.032583449 0.01270964
0.22903198 0.046384245 0.010958161
0.23544598 0.045250606 0.013045742
0.24524212 0.044937421 0.01556383
0.25522527 0.045529976 0.016277457
0.26239365 0.042871006 0.013670641
0.2299553 0.050603375 0.012841295
0.23546641 0.054742064 0.014893894
0.24532509 0.055006385 0.016554523
0.25287986 0.053486064 0.014176308
0.23679326 0.064821057 0.01677865
0.24264431 0.06306918 0.014445961
0.23649836 0.071481332 0.014210107
0.73967797 0.19875216 0.018964682
0.74299568 0.19833931 0.017813755
0.72902459 0.20732784 0.019222094
0.73685199 0.20729469 0.0195051
0.7420668 0.2051122 0.018145734
0.73629469 0.21248634 0.017561119
0.74460125 0.21558769 0.017639089
0.7532925 0.21566884 0.018807154
0.73662847 0.22624913 0.018538466
0.74579024 0.22516485 0.01852309
0.75110841 0.22096598 0.017606219
0.74622458 0.23108287 0.017394457
0.68608701 0.24862726 0.010824527
0.6944927 0.24902506 0.011497526
0.70278537 0.24895805 0.012628241
0.67872244 0.25631142 0.012308976
0.68537122 0.25519651 0.012077982
0.69543815 0.2550278 0.015572979
0.70458263 0.25513178 0.01603221
0.71192342 0.25702953 0.014087117
0.73259884 0.25821647 0.015132404
0.65778512 0.26955312 0.014053051
0.66540474 0.26831239 0.012485017
0.67535532 0.26548541 0.013767078
0.68487781 0.26506922 0.014840895
0.69517654 0.2649307 0.018280549
0.7049368 0.26503411 0.017217996
0.71361643 0.26485974 0.014756073
0.72332931 0.26878408 0.017567327
0.73456997 0.26559916 0.015696129
0.65634233 0.27507529 0.015666502
0.66383559 0.27442956 0.016439592
0.67478758 0.27209765 0.016181372
0.68683946 0.27447394 0.01752962
0.69541347 0.27501491 0.018488711
0.70508492 0.27496022 0.017271601
0.71425283 0.27538425 0.015179117
0.7249431 0.2746228 0.016235339
0.73379946 0.27460623 0.015471685
0.63761204 0.28829744 0.011261356
0.64595604 0.28743753 0.013561086
0.65351862 0.28360149 0.014406653
0.66458285 0.28646576 0.018838121
0.67308217 0.2870895 0.018692661
0.68754137 0.28590932 0.018721532
0.69502211 0.28494439 0.017813656
0.70515394 0.2848984 0.016450927
0.71534604 0.28492072 0.015810566
0.72543335 0.2858631 0.016437337
0.73219782 0.28349572 0.015076505
0.6367532 0.29510602 0.013190011
0.64406943 0.29476005 0.015570453
0.65954399 0.290925 0.019707885
0.66527152 0.29483643 0.017808622
0.6718061 0.29639307 0.016829971
0.68666142 0.29265076 0.017102262
0.69457835 0.29528302 0.014423844
0.70477635 0.29469517 0.013633612
0.71532631 0.29473546 0.016475746
0.72460222 0.29525787 0.015486949
0.73336738 0.29778481 0.0151334
0.6364364 0.30191857 0.016123936
0.64288181 0.30173406 0.017127555
0.66776955 0.30272561 0.018960178
0.67295223 0.30258128 0.018226966
0.68824905 0.30442831 0.01649005
0.69492584 0.30399799 0.014092773
0.70398134 0.30505335 0.014961786
0.71527457 0.30471581 0.015866632
0.72497493 0.30490306 0.015171385
0.73421037 0.30404899 0.015391562
0.74002242 0.30106339 0.015713427
0.61593843 0.58990818 0.015179371
0.60800266 0.5929203 0.017328117
0.61534798 0.59157705 0.016487222
0.62486023 0.59693122 0.016925076
0.63611889 0.59865695 0.018923884
0.64658266 0.60671806 0.016964529
0.61567301 0.61578774 0.017200995
0.62419653 0.61622113 0.017809825
0.6354112 0.61790586 0.017500147
0.64556581 0.61838228 0.018576149
0.65516198 0.61427158 0.017475456
0.66377687 0.61822766 0.014035757
0.59839392 0.62753683 0.017986251
0.60873926 0.62982327 0.019982494
0.61620569 0.62389982 0.014530275
0.62463212 0.62403315 0.012509518
0.63504308 0.6243158 0.012605971
0.64242923 0.6258651 0.012875969
0.65423441 0.6237933 0.014204188
0.66400534 0.62336183 0.011378386
0.57877123 0.63643032 0.013869856
0.58431286 0.63765103 0.014298211
0.5963921 0.63447672 0.011807253
0.60468662 0.63500613 0.01616805
0.61483824 0.63610941 0.012907133
0.63772595 0.63627422 0.013724551
0.6444478 0.63437772 0.014405185
0.65143454 0.63875645 0.013643655
0.6667757 0.63895297 0.017466256
0.67354119 0.63909543 0.015165202
0.68485028 0.63837671 0.010764289
0.56887978 0.64861012 0.016615571
0.57117367 0.64768302 0.019021614
0.58799374 0.64348137 0.016885873
0.59312397 0.64420915 0.012000468
0.60608184 0.6440469 0.012119588
0.61342072 0.64256787 0.011088863
0.63580137 0.64442402 0.014624414
0.64572567 0.64528751 0.017491763
0.65536892 0.64429027 0.015160403
0.66264451 0.64367163 0.017400946
0.67660552 0.6436221 0.015338053
0.68499625 0.64263356 0.011514708
0.69572061 0.6455273 0.012172932
0.70332545 0.64739031 0.01510027
0.55485088 0.65764105 0.018660238
0.56630898 0.65773594 0.015217263
0.57464719 0.65583932 0.016773857
0.58386976 0.65626478 0.019405324
0.59466618 0.655352 0.015291232
0.63547719 0.65197992 0.011346998
0.64470285 0.65265149 0.012011662
0.65589857 0.65392119 0.011943839
0.66492867 0.65495646 0.015451942
0.67269385 0.65331841 0.013922021
0.69881177 0.65278566 0.010173731
0.70458597 0.65424103 0.016684491
0.52846336 0.66415858 0.012004022
0.53422946 0.66826582 0.015925666
0.54638785 0.66549075 0.015561863
0.55025804 0.66979891 0.019247796
0.57602584 0.66100991 0.018450385
0.58196229 0.66116351 0.019314334
0.59868395 0.6605767 0.018537048
0.60417175 0.66315025 0.014719971
0.61426544 0.66729879 0.01529481
0.62463868 0.66797715 0.014906919
0.63418269 0.66940546 0.014826083
0.6439597 0.66640973 0.015142745
0.65553468 0.66287583 0.014097888
0.66549611 0.66449618 0.015482399
0.67223823 0.66594148 0.013790268
0.52955079 0.67180049 0.011581501
0.53151101 0.67399728 0.017069796
