0.51563621 0.21133368 0.15431516
0.52171642 0.21270351 0.15460068
0.49429098 0.22280638 0.15900734
0.50036001 0.22031048 0.15748844
0.50734794 0.22017477 0.15473087
0.51524633 0.21673642 0.15232469
0.52234566 0.2164353 0.15259328
0.49253386 0.2288494 0.15792449
0.50021529 0.22813584 0.15549898
0.50601274 0.22734901 0.15394993
0.48584437 0.23721229 0.15763208
0.49221304 0.23574501 0.15522626
0.49906039 0.23492169 0.15305495
0.50456429 0.23309189 0.15203781
0.47798166 0.24670409 0.15893351
0.48362255 0.24396938 0.15570967
0.49135932 0.24287008 0.15278731
0.49905419 0.24312796 0.15266371
0.47093856 0.25380903 0.15903102
0.47648409 0.25202316 0.15649502
0.4823547 0.25007483 0.15388659
0.4882805 0.24829084 0.15214415
0.46194965 0.2623027 0.15949824
0.46856937 0.26048627 0.1572044
0.4751558 0.25900665 0.15388447
0.45512503 0.2687116 0.15960757
0.46044147 0.26814497 0.15821098
0.4679409 0.26756158 0.15539689
0.47255582 0.26619691 0.15281674
0.4457548 0.27881271 0.15825103
0.45235926 0.27741817 0.15773834
0.45981002 0.27587521 0.15653004
0.46622384 0.27491143 0.15361354
0.27665681 0.28599754 0.15792866
0.28036594 0.28751788 0.15494244
0.43856788 0.28523368 0.15887858
0.44419932 0.28249404 0.15756913
0.45176306 0.28205138 0.15476352
0.45921111 0.28171355 0.15312092
0.28241751 0.28977168 0.15318128
0.29389361 0.29437116 0.15786922
0.29715443 0.29507381 0.15864028
0.30949277 0.2953245 0.15554789
0.43070388 0.290903 0.15890199
0.43579954 0.29118764 0.1576433
0.44424134 0.29228356 0.15443428
0.4513599 0.29310027 0.15447161
0.45691651 0.29460612 0.15227488
0.2877596 0.30351815 0.15414324
0.29867133 0.29803827 0.15482891
0.30804279 0.30044171 0.15576537
0.31543413 0.29968375 0.15665081
0.32149783 0.30131334 0.15510607
0.42895961 0.30301216 0.15905038
0.4356274 0.30106467 0.15700945
0.4432264 0.2966277 0.15240133
0.45107719 0.29640833 0.15224452
0.28645036 0.3056809 0.1590049
0.29213619 0.30869716 0.15677293
0.30038443 0.30752182 0.15518115
0.30839735 0.30554119 0.15372933
0.32317731 0.30651632 0.15732227
0.32820103 0.31165576 0.15301539
0.42283791 0.30559999 0.15823084
0.42817494 0.30784702 0.15535098
0.43556124 0.30846605 0.15417683
0.44048417 0.30738693 0.15255623
0.33008608 0.31438226 0.15266375
0.413838 0.31686124 0.15818451
0.41919637 0.31641614 0.15717338
0.42627183 0.31249332 0.15257065
0.43647102 0.31236339 0.15216935
0.41269717 0.32413262 0.15706584
0.41978756 0.32443663 0.15489097
0.42437482 0.32021159 0.1533961
0.40582857 0.33517003 0.15754978
0.41182494 0.33179823 0.15443747
0.41931605 0.32987079 0.15299371
0.42443338 0.32910439 0.15262008
0.39775622 0.34089258 0.15784566
0.40327561 0.34033856 0.15542296
0.4082036 0.33990318 0.15284671
0.38299134 0.35065079 0.15902372
0.38834742 0.34951493 0.15741229
0.39425519 0.34815285 0.15603505
0.40395254 0.34461358 0.15237491
0.38210234 0.35997048 0.15978116
0.38814667 0.35306874 0.15412892
0.39201516 0.35994732 0.15393703
0.37395012 0.36697614 0.1591126
0.38041678 0.3645303 0.15680093
0.3873722 0.36373642 0.15481687
0.35054457 0.37076303 0.15619455
0.35280475 0.37430683 0.15769975
0.36606753 0.37264404 0.15909207
0.37187943 0.3712129 0.15666719
0.37816927 0.3708159 0.15362072
0.35611764 0.38078374 0.15817894
0.3642258 0.38060156 0.15612397
0.37116811 0.37952843 0.15430519
0.35776973 0.38438001 0.15598877
0.67597252 -0.0098434212 0.16597135
0.66306525 -6.7437868e-05 0.16794239
0.66937125 -0.0029350549 0.16620903
0.67588681 -0.0041052653 0.16322425
0.68166244 -0.0041680783 0.16114567
0.64812183 0.0077838087 0.16695194
0.66145706 0.0053108144 0.16633555
0.66778213 0.0039149635 0.16388763
0.67554933 0.0038344802 0.16128233
0.6470542 0.012712377 0.16641395
0.65272105 0.013310346 0.16651386
0.66001201 0.011974231 0.16427338
0.66689378 0.011113861 0.16118498
0.67404145 0.0086346846 0.16027921
0.63972425 0.023796501 0.1677881
0.64520556 0.020588949 0.16651608
0.652044 0.01981454 0.16392803
0.65957451 0.019484159 0.16157784
0.66501188 0.017495614 0.16064095
0.63905185 0.029333215 0.16762565
0.64395648 0.028112862 0.1653562
0.65125263 0.027499458 0.16200002
0.65658766 0.024656968 0.16036372
0.63038057 0.038020659 0.16655432
0.63612628 0.036354098 0.16509767
0.64394802 0.035687249 0.16286495
0.6488589 0.034342401 0.16053392
0.62156844 0.04589032 0.16657403
0.62815744 0.04402991 0.16431868
0.63552725 0.043661352 0.16148376
0.6420601 0.040842153 0.16062988
0.61442792 0.054570489 0.16768241
0.62029189 0.052165251 0.16560276
0.628084 0.0519238 0.16204374
0.63379216 0.050079666 0.16046672
0.60526305 0.059699588 0.16606233
0.61240619 0.060416479 0.16562074
0.62002087 0.060048196 0.16324276
0.62708485 0.05889789 0.1613878
0.60609454 0.070543557 0.16678646
0.61168635 0.068006821 0.16378939
0.61836064 0.066494271 0.16083716
0.59734702 0.076769702 0.16658609
0.60390693 0.075927518 0.16464418
0.61085933 0.075511634 0.16199309
0.61689395 0.074833572 0.16131121
0.021579422 0.085150607 0.16446269
0.027735392 0.086158469 0.16445358
0.033201687 0.087416649 0.16438518
0.58993584 0.086249575 0.16738012
0.59603393 0.084009349 0.16530818
0.6034562 0.083852045 0.16205539
0.60941148 0.080948919 0.16027704
0.037236117 0.089840613 0.16386656
0.043695278 0.094039463 0.16378042
0.049838882 0.095582858 0.1634903
0.060790699 0.095613688 0.16291285
0.064930871 0.095810853 0.1626112
0.076355852 0.095313214 0.16160132
0.084667176 0.094507694 0.16137463
0.088704392 0.095888577 0.16204259
0.14256534 0.095524624 0.16273417
0.14793092 0.092059799 0.16349772
0.15619451 0.091455273 0.16391468
0.1642977 0.091527596 0.16365393
0.17196383 0.093260825 0.16372657
0.17712609 0.095333792 0.16360113
0.58332294 0.094746076 0.16760343
0.58824229 0.092261173 0.16581139
0.59573323 0.091776058 0.1630179
0.60305101 0.091062523 0.16225901
0.053121198 0.096619472 0.16494678
0.057785153 0.096304089 0.16564356
0.068314947 0.097544789 0.16404505
0.075423531 0.098821409 0.16568123
0.085346945 0.1003017 0.16702898
0.092656396 0.097095057 0.16336299
0.099974513 0.097794719 0.16403814
0.10792059 0.10016192 0.16410121
0.1157065 0.099176377 0.16395739
0.12383389 0.099234305 0.16425906
0.13212311 0.09840446 0.16400646
0.13930677 0.096810162 0.16426679
0.18030033 0.099480242 0.16404311
0.56437224 0.10377245 0.1673467
0.57423705 0.10331062 0.16781008
0.58103186 0.10084116 0.16672568
0.58785588 0.099783741 0.1629159
0.59498018 0.09846054 0.16093902
0.60146195 0.099698879 0.16037907
0.18339229 0.10510623 0.16338338
0.18645065 0.10931049 0.1644605
0.56599712 0.10919569 0.1663951
0.57240653 0.10859702 0.16609326
0.58014381 0.10795021 0.16362895
0.5857234 0.10675146 0.16144782
0.18981561 0.11501653 0.16339965
0.19405793 0.11766639 0.1662977
0.55965966 0.11723728 0.16783348
0.56437653 0.11615711 0.16593906
0.57171339 0.11570456 0.16266327
0.57836032 0.1147686 0.16087487
0.19091046 0.12235661 0.16074216
0.19491124 0.12466368 0.16420648
0.55841804 0.12567046 0.16720396
0.56416023 0.12376883 0.16414084
0.57102472 0.12232838 0.16077533
0.19797349 0.12931144 0.16325985
0.20395851 0.13089792 0.1636882
0.21122392 0.13456543 0.16444272
0.22033535 0.13564481 0.16616236
0.22755517 0.13563879 0.16425265
0.23589084 0.1352414 0.16482672
0.24103913 0.13109544 0.16556552
0.54972565 0.13419922 0.1670128
0.55655342 0.13229048 0.16594356
0.5625875 0.13152255 0.16243538
0.21394624 0.13663892 0.16192836
0.21968089 0.13677378 0.16256429
0.23112774 0.1361353 0.16386366
0.23541109 0.13655381 0.16386534
0.54147601 0.14098139 0.16711745
0.54804742 0.14009498 0.16543123
0.55570817 0.13969751 0.16329534
0.56222433 0.14016913 0.16329645
0.53486633 0.14939904 0.16730438
0.53995442 0.14805576 0.16517372
0.54797494 0.14756441 0.1624047
0.55433387 0.14572011 0.16114579
0.56359863 0.14571281 0.16125482
0.52705163 0.15833028 0.16755137
0.5324651 0.15649 0.16602762
0.54010463 0.15594155 0.16361524
0.54610205 0.15572222 0.16098616
0.5192982 0.16627137 0.16713732
0.52488261 0.16524293 0.16662402
0.53187686 0.16383858 0.1639348
0.53935003 0.16329086 0.16144791
0.54468197 0.1616572 0.16049452
0.51192325 0.17559911 0.16769773
0.51696789 0.17268063 0.16630828
0.52390343 0.17230101 0.16377966
0.53147334 0.17117617 0.16188551
0.53677058 0.16938761 0.1604307
0.51126236 0.18107051 0.16750552
0.51637232 0.18008979 0.16496465
0.52335459 0.17933509 0.16212438
0.52911812 0.17991558 0.1631375
0.50285429 0.19040611 0.16742338
0.50846136 0.18872909 0.16591991
0.51552212 0.18751869 0.1625118
0.52370232 0.18767254 0.16263413
0.52967006 0.18787409 0.1611914
0.49572 0.19995072 0.16773582
0.50141543 0.19658364 0.16636088
0.50785691 0.19567421 0.16341305
0.51517588 0.19482607 0.1626054
0.52145445 0.19452427 0.16228068
0.49342 0.20511021 0.16624096
0.49945393 0.2039569 0.16308612
0.50687534 0.20288938 0.161699
0.51445144 0.20081496 0.16101523
0.48638391 0.21341284 0.16690736
0.49194935 0.21214682 0.16559574
0.49883291 0.21178786 0.16295058
0.50554031 0.21592227 0.16307156
0.48516527 0.220523 0.16565455
0.49170363 0.21954809 0.16240376
0.49912864 0.21846591 0.16132089
0.50623828 0.21895596 0.16102134
0.47122529 0.23037237 0.16708839
0.47657648 0.22892667 0.16612901
0.48400134 0.22796179 0.16366248
0.48964059 0.22722189 0.16083913
0.46944606 0.23635404 0.16597183
0.47601974 0.2360394 0.16404821
0.48304233 0.23528376 0.16162911
0.48859924 0.23307431 0.16035832
0.45523098 0.24793701 0.1677285
0.46229726 0.24556839 0.16735873
0.4676784 0.24404003 0.16429199
0.47605664 0.24356067 0.1617789
0.48058814 0.24076906 0.16070125
0.45365292 0.25300834 0.16577767
0.45996433 0.25184187 0.16518791
0.46716875 0.2517744 0.16283908
0.47338605 0.24868387 0.16058223
0.44617018 0.26301554 0.16756953
0.45293021 0.26011756 0.16450793
0.45964283 0.259747 0.16181666
0.4660956 0.25950119 0.16154625
0.4310714 0.26894385 0.16776882
0.43623999 0.26908919 0.16686383
0.44440109 0.26851225 0.16585593
0.45106199 0.2679421 0.16244808
0.45881695 0.26627609 0.16059405
0.46465549 0.26466772 0.16033138
0.26939845 0.27869794 0.16501127
0.43735304 0.27657834 0.16560446
0.44349542 0.27569854 0.16277906
0.45176354 0.27409056 0.16123196
0.45649987 0.27282545 0.16012159
0.27111927 0.28689912 0.16728579
0.27311623 0.28670245 0.16359045
0.42948705 0.28587598 0.16599919
0.4355959 0.28257143 0.16356294
0.44118178 0.28143007 0.16037647
0.27483505 0.29241279 0.16483301
0.28563762 0.29431471 0.16607393
0.29058835 0.29332206 0.16329463
0.42059907 0.29218832 0.16737111
0.42721811 0.28993517 0.16316965
0.27822289 0.29946512 0.1664566
0.28397888 0.30017844 0.16382477
0.2887525 0.30201036 0.16266601
0.30178586 0.29805058 0.1643212
0.30770075 0.29766482 0.16418292
0.31482813 0.29916492 0.1613283
0.41287881 0.30092281 0.16718586
0.41997623 0.30099803 0.16573511
0.42696065 0.30035618 0.16206151
0.28701472 0.30443263 0.16086134
0.29102987 0.30558246 0.1617828
0.29995072 0.3065846 0.16356087
0.31663838 0.31076908 0.16795547
0.4064483 0.30906755 0.16600935
0.41206974 0.30809513 0.1642462
0.41788706 0.3080838 0.16300012
0.39717305 0.31750289 0.16667798
0.40391779 0.31624222 0.16445643
0.41063264 0.3151207 0.16128832
0.4170807 0.31254479 0.16067535
0.39017674 0.32525265 0.16766745
0.3966701 0.32360706 0.16423373
0.40278402 0.32395715 0.16302159
0.38205227 0.33559653 0.16761641
0.38950935 0.33543161 0.16699123
0.3961603 0.33272344 0.16374907
0.40345138 0.3316322 0.16188526
0.38232195 0.3393212 0.16539747
0.38776225 0.33950111 0.16450869
0.39495617 0.33817479 0.16211449
0.33433798 0.35141274 0.16761473
0.35886419 0.35043988 0.16728047
0.36377439 0.35047436 0.16712822
0.38139835 0.34754243 0.16321909
0.38776949 0.3460235 0.16169555
0.3927058 0.34476876 0.16078956
0.33769906 0.35536513 0.16510302
0.3597855 0.3547408 0.16596001
0.36416081 0.3560901 0.16656645
0.37201604 0.35711941 0.16652577
0.37882942 0.35726321 0.16236395
0.34451646 0.36457074 0.16028087
0.35823914 0.36566493 0.16617571
0.36422819 0.36372983 0.16375762
0.37148696 0.36321002 0.16208841
0.37707329 0.36119348 0.16094995
0.34330606 0.37160799 0.16649714
0.34839234 0.37242436 0.16495584
0.35573125 0.37243053 0.16386347
0.36285299 0.37159109 0.16138111
0.35761192 0.37742823 0.16063398
0.36114779 0.37705046 0.16028421
0.66362828 -0.019115388 0.17564934
0.66660029 -0.01873808 0.17379348
0.65532291 -0.0085185198 0.17568645
0.66110563 -0.011010689 0.17473583
0.66804069 -0.011804742 0.17197999
0.6732161 -0.012248609 0.169513
0.63882256 -0.0044971481 0.17247294
0.64454806 -0.0029392599 0.17400499
0.65217304 -0.0034448605 0.17392884
0.65993756 -0.0042850538 0.17132203
0.66706818 -0.0055689672 0.16971685
0.63194078 0.0044194548 0.175346
0.63713509 0.0063169403 0.17489514
0.64440542 0.004224488 0.17316589
0.65178329 0.0039222799 0.17118429
0.6584636 0.0029646179 0.16911818
0.63046384 0.013572078 0.1747776
0.63584012 0.011955075 0.17282715
0.64388746 0.01192422 0.17035404
0.65123922 0.010081239 0.16915251
0.62287283 0.023344576 0.175473
0.62858331 0.020531224 0.1740538
0.63606465 0.019882958 0.17061198
0.64177591 0.018775957 0.16894582
0.6201399 0.028042514 0.17442279
0.62794197 0.028025636 0.17189571
0.63509363 0.02765803 0.16933295
0.60728931 0.039858457 0.17599542
0.6127215 0.037678726 0.17491098
0.62017095 0.035984013 0.17334464
0.62734216 0.035718452 0.16993946
0.63329846 0.032897387 0.16826977
0.60562229 0.044552047 0.17419367
0.61200827 0.043882538 0.17181058
0.61929095 0.04296742 0.1698475
0.62500066 0.041121032 0.16881871
0.59903419 0.055060666 0.17555575
0.60448301 0.052118115 0.17389698
0.61172509 0.052320763 0.17054521
0.61798066 0.052236553 0.16962586
0.58953989 0.062700242 0.17528069
0.59648657 0.060753748 0.17456976
0.60429645 0.059662182 0.17201862
0.60968506 0.058489673 0.16903137
0.61787248 0.05671297 0.16803607
0.58098882 0.068135783 0.17338097
0.58860445 0.068475097 0.17305949
0.59576339 0.067952052 0.17128402
0.60376346 0.0672521 0.16980329
0.60804927 0.064556658 0.16853179
0.57551712 0.079475522 0.17530841
0.58090824 0.076605469 0.17375305
0.58769834 0.075561509 0.17075799
0.59465992 0.074651979 0.16917121
0.6010232 0.072284639 0.16800363
0.020919777 0.085841231 0.17198555
0.027833926 0.087096706 0.17168099
0.033779595 0.087774478 0.17187682
0.57449836 0.084329978 0.17522117
0.58013868 0.08414305 0.17205229
0.5873552 0.083315469 0.16917543
0.59209931 0.087360956 0.16829333
0.031145848 0.088105708 0.17430694
0.037515599 0.089130826 0.171992
0.044221722 0.093184412 0.1721562
0.051791515 0.09487167 0.17254032
0.058666732 0.095521733 0.17339379
0.14914893 0.09220361 0.17130414
0.15599592 0.091768734 0.17242597
0.16430119 0.090499252 0.17201026
0.17216261 0.091602243 0.17152905
0.17798771 0.094652623 0.17302263
0.5657317 0.095019832 0.17520452
0.57253957 0.092752218 0.17402671
0.57986188 0.091904327 0.17124462
0.5846349 0.093046181 0.17109944
0.053817533 0.096273251 0.16947667
0.061103418 0.096191451 0.171002
0.068183005 0.097693093 0.17205769
0.075736962 0.099196203 0.17220896
0.083788902 0.1015659 0.17186613
0.09189406 0.10285201 0.17315802
0.099960051 0.10047782 0.17244256
0.10784712 0.10066414 0.17221138
0.11584384 0.10005023 0.17198239
0.12420078 0.10013641 0.17218724
0.13189901 0.10055808 0.17144249
0.14014021 0.097645953 0.17169966
0.14494133 0.097306527 0.17227259
0.18152428 0.099544674 0.17153586
0.18488634 0.10265576 0.17498957
0.55749327 0.10108578 0.17477377
0.56428945 0.100206 0.17304692
0.571706 0.099830359 0.17073022
0.57845491 0.098276481 0.16941683
0.58409685 0.096457094 0.1701704
0.13215868 0.10425162 0.17566635
0.18800014 0.1077423 0.17188303
0.19409429 0.11065545 0.17359929
0.55025494 0.1101008 0.17511371
0.55593812 0.10811719 0.1732145
0.56355327 0.10759328 0.17031111
0.57046688 0.10541289 0.16860309
0.57712358 0.1064951 0.16809052
0.19662651 0.1145956 0.17128749
0.2001117 0.11621476 0.1754234
0.54359382 0.11935333 0.17572571
0.54863262 0.11640593 0.17380905
0.55614579 0.11586012 0.17038485
0.56118351 0.11350109 0.16851859
0.19856207 0.12418265 0.1707935
0.20072822 0.12768221 0.17489387
0.242944 0.12721477 0.17231287
0.53442168 0.12785651 0.17592642
0.54189712 0.12567392 0.17494039
0.54783607 0.12388177 0.17224784
0.55512363 0.12339202 0.16930346
0.19953999 0.128874 0.16929168
0.20403644 0.13096108 0.17215814
0.21187983 0.13409704 0.17213744
0.22006722 0.13497198 0.17186396
0.22804654 0.13441192 0.17202429
0.2349676 0.13516282 0.17281212
0.2422732 0.12821318 0.16923973
0.53453863 0.13361491 0.17454951
0.53986341 0.13201463 0.17239673
0.54716724 0.13160458 0.17056009
0.55512488 0.13258685 0.16953251
0.23768699 0.13655508 0.17027162
0.51873964 0.14355163 0.17586866
0.52562559 0.14216714 0.1749825
0.53209949 0.13976301 0.17236228
0.53833318 0.13894962 0.16907471
0.54819685 0.13721892 0.16931459
0.5530917 0.13729016 0.1682139
0.56023932 0.13619323 0.16809252
0.5177893 0.14890276 0.17482483
0.52433598 0.14825128 0.17343415
0.53169578 0.14812788 0.17092389
0.53947979 0.15001716 0.1723406
0.51099855 0.15808569 0.17503032
0.51555371 0.15598603 0.17254151
0.52401268 0.15601934 0.17030513
0.53076941 0.15450059 0.1695202
0.53761387 0.15354268 0.16945678
0.50877601 0.16408378 0.17486228
0.51596141 0.16438955 0.17143531
0.52265793 0.16223446 0.16873297
0.52823645 0.16135815 0.16840623
0.50296301 0.17441465 0.17547566
0.50824136 0.17219214 0.17303009
0.51446831 0.17004782 0.17014359
0.49472851 0.18200557 0.17528683
0.50040185 0.18073957 0.17399514
0.50770426 0.17951614 0.17106995
0.51324606 0.17970435 0.17013407
0.48563528 0.19084495 0.17551678
0.493368 0.18860659 0.17437464
0.49952981 0.18811017 0.17096253
0.50690252 0.18665816 0.16915689
0.47778055 0.19739693 0.17479199
0.48378038 0.19611867 0.1740904
0.4925352 0.19604678 0.17233607
0.49801755 0.19496977 0.169239
0.47163919 0.20394148 0.17497349
0.4769347 0.20395254 0.17459022
0.48405185 0.20416442 0.17174546
0.4910402 0.20354724 0.16998975
0.49867675 0.20324999 0.16871691
0.47038466 0.21377061 0.1749174
0.47621784 0.21219762 0.1730932
0.48344094 0.21126392 0.16951524
0.46206167 0.21997611 0.17460933
0.46869236 0.22033891 0.1738086
0.4762252 0.21995184 0.17084774
0.48138753 0.21941322 0.16896525
0.46153146 0.22818074 0.17470497
0.46799523 0.22820926 0.1717234
0.47465017 0.22634476 0.16911294
0.45337409 0.23714663 0.17398351
0.46031928 0.23617488 0.17341748
0.46636289 0.2351139 0.17053761
0.4381457 0.24681367 0.17493422
0.44496617 0.24497586 0.17488138
0.45238024 0.24390094 0.17187449
0.45950043 0.24347031 0.1695323
0.46453047 0.24600004 0.16865955
0.43794259 0.25340509 0.17414068
0.44407463 0.25193694 0.17270105
0.45129523 0.25122783 0.17021504
0.42262116 0.25660959 0.17479657
0.42920634 0.25980496 0.17380165
0.43645799 0.2602987 0.17269786
0.44345948 0.25977436 0.1702567
0.44930658 0.25769559 0.16857006
0.25230139 0.27154672 0.17475197
0.42258111 0.27049524 0.1745348
0.42838922 0.26832855 0.17151505
0.43483841 0.26551825 0.16964628
0.44241789 0.26523259 0.16865133
0.25504193 0.27466318 0.17378688
0.25914735 0.2750341 0.17280588
0.26515183 0.27973053 0.17109708
0.4136678 0.2790148 0.17515244
0.42058602 0.27654156 0.17418742
0.42795968 0.27572733 0.17124578
0.43356666 0.27616164 0.16888335
0.2672407 0.28192627 0.17024867
0.40641099 0.28618988 0.17431813
0.41162133 0.28595346 0.17504478
0.4206692 0.28278828 0.17186524
0.42764911 0.2821126 0.16953309
0.43276909 0.28172293 0.16844246
0.26996166 0.29594356 0.17505594
0.27775756 0.29533181 0.17380983
0.2828933 0.29373461 0.17096998
0.28841612 0.29196838 0.16871573
0.40497527 0.29247338 0.17348291
0.41186121 0.29176784 0.17169063
0.4175742 0.29069182 0.17013663
0.2713531 0.29714584 0.1736944
0.27558118 0.29744044 0.17192295
0.28054097 0.29744628 0.16867906
0.29244447 0.30163819 0.17383213
0.2995671 0.29855129 0.17115262
0.30752864 0.29900816 0.16984758
0.39810005 0.30057999 0.1740952
0.40374407 0.29993683 0.17175902
0.41054082 0.29816607 0.16864757
0.42082837 0.29713416 0.16801986
0.29455623 0.3053976 0.17100261
0.2972647 0.30668944 0.16962615
0.31093556 0.30866572 0.17389385
0.3137621 0.30881071 0.17020831
0.39661059 0.30913505 0.17285113
0.4026356 0.30818945 0.17076984
0.38231829 0.31904837 0.17541482
0.38845307 0.31685567 0.17350511
0.39512157 0.3145594 0.17019832
0.40104911 0.31288916 0.16871549
0.37413889 0.3266986 0.17454833
0.38028401 0.32470021 0.17300929
0.38731149 0.32345024 0.17013393
0.36569506 0.33433387 0.17561708
0.37242943 0.33223891 0.17285202
0.3799116 0.33140904 0.16911373
0.3869459 0.33253351 0.16898036
0.32672349 0.34224406 0.17190692
0.32917455 0.34335494 0.17006488
0.35940576 0.34268984 0.17533366
0.36414769 0.3406972 0.17393741
0.37158427 0.3409825 0.17207046
0.37732348 0.33985239 0.17002521
0.33227488 0.34947342 0.16859393
0.35053155 0.3504017 0.17567091
0.35636559 0.34891653 0.17350036
0.36400566 0.34639734 0.16990846
0.37194473 0.34814242 0.16956022
0.37756908 0.34572652 0.16935414
0.34825218 0.35601506 0.17429775
0.35380498 0.3560878 0.17267953
0.37196216 0.35324806 0.16829187
0.33513564 0.36369863 0.17472787
0.34006304 0.36521778 0.17319055
0.34819588 0.36454776 0.17218535
0.35451904 0.36457488 0.17060134
0.34183419 0.36916578 0.16952907
0.34713724 0.36984563 0.169341
0.35247326 0.3689447 0.16832381
0.64785743 -0.024448326 0.18365429
0.65258932 -0.026546732 0.18321973
0.65890145 -0.026500879 0.1810369
0.64562708 -0.019407215 0.18308669
0.65206879 -0.019906897 0.1812062
0.66004747 -0.020073835 0.17867087
0.63826305 -0.0096275788 0.18335961
0.64408207 -0.011771231 0.18098569
0.65167469 -0.012178937 0.17793033
0.65860265 -0.01375701 0.17705396
0.6222347 -0.0012052213 0.1837282
0.63001025 -0.0033472693 0.18223695
0.63596076 -0.0039744182 0.18141299
0.64389646 -0.0045507289 0.17856181
0.64980173 -0.0066790758 0.1775934
0.6225518 0.0060948399 0.18322313
0.62855005 0.0043392014 0.18126987
0.63535923 0.0031148 0.17822768
0.64175075 0.0012985838 0.17702673
0.61514753 0.014521798 0.18349148
0.62054008 0.012342433 0.18233033
0.62738091 0.011536242 0.17857739
0.61277688 0.020565597 0.18172671
0.61989796 0.019771053 0.1789953
0.62512618 0.018322138 0.17699514
0.5999496 0.028817449 0.18313785
0.60477072 0.028877504 0.18183167
0.61197603 0.027710147 0.17887571
0.61661279 0.025456302 0.17656364
0.59699464 0.037850134 0.18299457
0.60404623 0.036213167 0.17972323
0.61100888 0.034158275 0.17666873
0.59078538 0.044748936 0.18140556
0.59602863 0.044190664 0.18111967
0.60227978 0.043491591 0.17859171
0.58145922 0.053875905 0.18264824
0.58820391 0.052454792 0.18133956
0.59606326 0.051765267 0.1786522
0.60240632 0.04973663 0.17737828
0.60842514 0.051334389 0.17629217
0.57332367 0.060866799 0.18331151
0.58016413 0.06047399 0.18126713
0.58800483 0.059691183 0.17836873
0.59404141 0.05784269 0.17650411
0.56705374 0.071245044 0.18356079
0.57275581 0.069246702 0.18264756
0.58002573 0.06807711 0.18000604
0.58646512 0.066449158 0.17786692
0.55832452 0.078958079 0.18318285
0.56461591 0.076864928 0.18232064
0.57209015 0.076247863 0.17957646
0.57883435 0.073900081 0.17768511
0.021608975 0.085195079 0.18005788
0.026725678 0.086697504 0.18032412
0.55606538 0.084313862 0.18168676
0.56430703 0.083673745 0.17987339
0.57099956 0.083692648 0.17768063
0.030613411 0.089307539 0.17979416
0.036047228 0.092016049 0.18042107
0.044260927 0.093400784 0.1802628
0.051814858 0.093993157 0.1797118
0.060021076 0.094716176 0.17991631
0.067756958 0.095186986 0.18011615
0.074097276 0.095581561 0.18066925
0.14951883 0.094272763 0.17765278
0.15662299 0.090973012 0.17909868
0.16365395 0.090294831 0.18014288
0.17208859 0.090242334 0.18025778
0.17745453 0.093507834 0.17998675
0.54965907 0.092769392 0.18203668
0.55567831 0.091789223 0.17875034
0.56395775 0.091186568 0.17728725
0.5696221 0.0896727 0.17674574
0.57938558 0.090050101 0.17664765
0.068732336 0.096166663 0.17676844
0.077316046 0.097630292 0.179093
0.084246844 0.10044316 0.1796497
0.092247188 0.10265021 0.17985292
0.10009396 0.10070273 0.17993782
0.10818908 0.099492647 0.17981027
0.11596783 0.10094766 0.17953594
0.12317125 0.10195735 0.17937307
0.13009676 0.1039068 0.17603822
0.14066321 0.10290633 0.18111391
0.14573237 0.10148652 0.18081558
0.18153554 0.099188767 0.18007424
0.18536086 0.102574 0.17959253
0.54178733 0.10196916 0.18295935
0.54795098 0.10033015 0.18048275
0.55481952 0.099257611 0.17850637
0.56199509 0.098696999 0.17710805
0.12596682 0.1043459 0.18238746
0.13197356 0.10473685 0.18087144
0.13735647 0.10433195 0.18138687
0.18938497 0.10631587 0.17995885
0.19502401 0.10959549 0.18059698
0.53398061 0.10896894 0.18315311
0.54000264 0.10791339 0.18079473
0.54705238 0.10744727 0.17805097
0.55291313 0.10446998 0.17631766
0.19893645 0.1129628 0.17976591
0.20051841 0.11706764 0.18188836
0.52696854 0.11868938 0.18326585
0.53226697 0.11650535 0.18214479
0.53992987 0.11593682 0.17907266
0.54524863 0.11455896 0.17667653
0.1997181 0.12611562 0.17608647
0.20240925 0.12546468 0.18071586
0.2434482 0.12721731 0.17604791
0.51966858 0.12769639 0.18370242
0.52507591 0.12437376 0.1820263
0.53226823 0.12375398 0.17922643
0.53897607 0.12324333 0.17743492
0.20587897 0.12976873 0.17958397
0.21210332 0.13290113 0.18056086
0.21989019 0.1346999 0.18033224
0.22808538 0.13359933 0.18004841
0.23626652 0.13380182 0.179914
0.24182156 0.13239697 0.18115562
0.51673949 0.13255307 0.18218456
0.5241707 0.13192709 0.18005973
0.53155357 0.13196121 0.17746916
0.53649616 0.12975574 0.1762466
0.50164962 0.14273973 0.18343256
0.50891328 0.14209719 0.18207538
0.51566505 0.13972883 0.17994338
0.52383173 0.13929822 0.17811555
0.52820015 0.13675156 0.17653401
0.50040406 0.1481075 0.18272929
0.50814956 0.14826268 0.18054113
0.51464027 0.14756458 0.17802395
0.52457106 0.14589576 0.17709641
0.53099054 0.14633639 0.17716289
0.4930993 0.15717252 0.18290663
0.50002116 0.15602526 0.18139906
0.50814563 0.15568756 0.17880192
0.51328939 0.1559428 0.17868328
0.4862991 0.16545731 0.18239686
0.49191144 0.1637982 0.18111765
0.50022078 0.16388571 0.17873818
0.50725549 0.16279598 0.1767482
0.51508343 0.16265258 0.17738368
0.48479149 0.17233016 0.18206809
0.49176407 0.17223485 0.18066776
0.49929717 0.17225967 0.17856689
0.50687283 0.17268609 0.17691846
0.47695181 0.1811945 0.18257798
0.48401815 0.17986053 0.18068233
0.49227759 0.17953831 0.17846063
0.49822974 0.17769316 0.17726564
0.47080153 0.18942012 0.18228607
0.47597542 0.1884425 0.18067239
0.48316804 0.18810466 0.17859879
0.49042243 0.18698685 0.17677352
0.46904042 0.19659394 0.1804066
0.47508997 0.19515783 0.17749086
0.48396039 0.19293404 0.17671464
0.48933226 0.19272378 0.17667477
0.46788263 0.20415916 0.18036214
0.47326341 0.2038248 0.17674558
0.453273 0.21591297 0.18365707
0.46122983 0.21295004 0.18201433
0.4671196 0.21162553 0.1785094
0.47273245 0.20871289 0.17624843
0.44708508 0.22238813 0.18359317
0.45211306 0.22040509 0.1825188
0.45995072 0.21972503 0.17955352
0.46614021 0.21840037 0.17726776
0.43802875 0.23018813 0.18304011
0.44454619 0.22877404 0.18188211
0.45206702 0.22806448 0.1801677
0.45838562 0.22834086 0.17746787
0.46541408 0.22741352 0.17655064
0.4309828 0.23879078 0.18239659
0.43626359 0.23695427 0.18155558
0.44389302 0.23620476 0.17878541
0.45131233 0.23478912 0.17750901
0.45740959 0.23317882 0.17639603
0.42919269 0.24471308 0.18270586
0.43600881 0.24332798 0.17949629
0.44252715 0.24361646 0.17793727
0.42154214 0.25221777 0.18005791
0.4284105 0.25211391 0.180158
0.43489534 0.25142258 0.17742483
0.44152987 0.24911936 0.17729972
0.40704978 0.26206008 0.18284151
0.41205624 0.26198089 0.18230829
0.41994047 0.26196662 0.18272528
0.42895582 0.26067397 0.18156083
0.43309146 0.25840709 0.17843446
0.2472126 0.27045825 0.1823623
0.24931832 0.27122501 0.18221554
0.40640411 0.27004266 0.18276988
0.41215739 0.26815614 0.18122612
0.41975555 0.26851243 0.17970547
0.42600998 0.26594457 0.17890562
0.25279665 0.27440357 0.18027788
0.25701573 0.27711833 0.17805561
0.39795265 0.27599421 0.1836327
0.40435433 0.27635446 0.1817877
0.41169059 0.2756657 0.1783388
0.41886199 0.27448097 0.17724381
0.25847316 0.28062207 0.18059079
0.39732155 0.28516221 0.18352638
0.40439364 0.28325227 0.18011951
0.41198221 0.28191784 0.17721821
0.26233351 0.2895692 0.18228327
0.26865861 0.29192522 0.17989251
0.27564549 0.29307482 0.18006463
0.28431979 0.29430881 0.18060653
0.28996214 0.29374713 0.17874645
0.38851255 0.2932139 0.1820019
0.39627832 0.29182422 0.18039715
0.40159726 0.28998876 0.17938812
0.28627458 0.30203438 0.17850985
0.29303965 0.29860947 0.17900202
0.29933679 0.30156597 0.17960426
0.38246334 0.30022299 0.18018098
0.38770595 0.2998659 0.1784849
0.3943134 0.29935062 0.17784087
0.2847465 0.30463836 0.18277586
0.30323949 0.30433935 0.17871307
0.30656236 0.30876386 0.18002199
0.37391418 0.30864781 0.18321976
0.3791008 0.30897117 0.18209705
0.38872874 0.30876452 0.17821808
0.39297915 0.3066372 0.17676586
0.35827464 0.31951925 0.18372343
0.36441588 0.31648916 0.18282279
0.3719351 0.31596085 0.18202834
0.3798075 0.315763 0.17870465
0.38656148 0.31373671 0.17758502
0.35852918 0.3222844 0.18162423
0.36390224 0.32413962 0.17970809
0.37128228 0.32360756 0.17888309
0.37702611 0.32203433 0.17664884
0.31583309 0.33396187 0.18181288
0.34964806 0.33464715 0.18341513
0.35517994 0.33382356 0.1829953
0.36397853 0.33073527 0.17669389
0.36892968 0.32979468 0.1761027
0.31810269 0.33872977 0.182218
0.34188122 0.34188089 0.18333626
0.34839836 0.34000716 0.18142658
0.35548255 0.34012723 0.17990777
0.3607825 0.33678523 0.1764151
0.32197478 0.35108528 0.18306503
0.33569631 0.34491423 0.18336351
0.34020895 0.34714434 0.18236803
0.3478075 0.34756082 0.1779737
0.35395539 0.34575132 0.17696664
0.3260006 0.35507303 0.1821022
0.33144733 0.35802233 0.18245432
0.33932668 0.35658148 0.18161345
0.34453136 0.35295314 0.17680252
0.3328388 0.36139229 0.17896861
0.33856556 0.36187804 0.17791483
0.64640433 -0.040450059 0.19106741
0.64451218 -0.03545649 0.18970582
0.65069234 -0.034521624 0.18714842
0.63010979 -0.025496863 0.19098797
0.63638037 -0.027065547 0.18981269
0.64364153 -0.028048767 0.18699688
0.65137637 -0.030052692 0.18489669
0.65620601 -0.030691136 0.18452694
0.62325102 -0.01775999 0.19138131
0.62777823 -0.020180371 0.18960264
0.63625312 -0.020171521 0.18698172
0.6421088 -0.020409983 0.18570226
0.61405313 -0.010490327 0.19096307
0.62114865 -0.011760363 0.19104999
0.62810063 -0.011766527 0.18857631
0.63561553 -0.012041674 0.1857003
0.64295954 -0.012013405 0.18555303
0.614775 -0.0024382991 0.19099273
0.62019837 -0.003705617 0.18936108
0.62749708 -0.0046440265 0.18662989
0.63287789 -0.0067455941 0.18452199
0.16518326 0.0039038321 0.19040294
0.16978745 0.0055702631 0.19067843
0.60757077 0.0061756894 0.19174345
0.61281914 0.0050164745 0.18936072
0.61945665 0.0032483847 0.18603234
0.6250369 0.0016168781 0.18420239
0.1669728 0.0095813889 0.18826006
0.17145433 0.010636126 0.18973675
0.59756625 0.013283245 0.19095595
0.6043635 0.01224847 0.1893665
0.61141264 0.011494222 0.18627638
0.6170727 0.0093264682 0.18426387
0.59667253 0.020033004 0.18976608
0.60399926 0.020127576 0.18721749
0.60927719 0.018626275 0.18478771
0.58947331 0.030521309 0.19058472
0.59620601 0.028031886 0.18810911
0.60250479 0.026446078 0.18534063
0.57444382 0.038971592 0.1914203
0.58084267 0.038411595 0.19113186
0.58806425 0.036029249 0.18866126
0.59495622 0.035242904 0.1853738
0.60108185 0.034884397 0.1846399
0.5722425 0.044405822 0.18963601
0.58025134 0.043991815 0.18841587
0.58784705 0.04361381 0.18588336
0.59892279 0.040403184 0.18414135
0.60180825 0.04145946 0.18406843
0.56589693 0.053274624 0.19062264
0.57184517 0.052054036 0.18866645
0.57940429 0.051185906 0.18601246
0.58631063 0.048858065 0.1852161
0.55801672 0.060870383 0.19090667
0.56394529 0.059926901 0.18876481
0.57245278 0.059861392 0.18671077
0.57669544 0.059173726 0.18469997
0.54377943 0.071117543 0.19154613
0.54819089 0.070200257 0.19122323
0.5564239 0.068626389 0.1905705
0.56351817 0.067774564 0.18701524
0.5709033 0.065883741 0.18472467
0.54241359 0.07643009 0.19111104
0.54818499 0.075893521 0.18927629
0.55589414 0.075807638 0.18730229
0.56286788 0.074073575 0.18571454
0.56854177 0.074527808 0.18641005
0.02232131 0.083560519 0.18772654
0.027591649 0.08546228 0.18833403
0.53470469 0.085911483 0.19088489
0.54036671 0.083997905 0.18996309
0.54831576 0.08390443 0.18749766
0.55338901 0.082227997 0.18491535
0.031271882 0.08900588 0.18589553
0.036124587 0.091982409 0.18808027
0.043751717 0.092736907 0.18821162
0.052025136 0.094394408 0.18797792
0.060012225 0.09462247 0.18823996
0.067292757 0.094795533 0.18778317
0.15910104 0.091658056 0.18571289
0.16346493 0.091515549 0.18644352
0.17227124 0.089422181 0.18524159
0.17747281 0.093258537 0.18522447
0.53357279 0.091809653 0.1902691
0.54027522 0.092227228 0.18770137
0.54660088 0.091539316 0.18610798
0.55306172 0.095569663 0.18698642
0.071186811 0.097030647 0.18858856
0.075946622 0.099571772 0.18868588
0.084161602 0.10015548 0.18815464
0.091796018 0.10147815 0.18761888
0.09991686 0.10185866 0.18803129
0.10817558 0.099049643 0.18765922
0.11466566 0.10141465 0.18724363
0.12585364 0.10358626 0.18903989
0.13230731 0.10296511 0.18857995
0.14011033 0.10260665 0.18800841
0.14794026 0.10176242 0.18813789
0.15423243 0.10161454 0.18938717
0.1812136 0.10124488 0.18748376
0.18590324 0.10313431 0.18706161
0.52720624 0.10338808 0.19108318
0.53201586 0.10021222 0.18874183
0.5396561 0.099214964 0.18538119
0.5476439 0.097187698 0.18486753
0.55569029 0.096903294 0.18550974
0.11802627 0.10545433 0.18941823
0.1237053 0.10509032 0.18783942
0.13104998 0.10422228 0.18507528
0.18977836 0.10532465 0.18630625
0.19476731 0.10877179 0.18696634
0.52525949 0.10823429 0.18895148
0.53085965 0.10741259 0.18595356
0.536295 0.10442884 0.18433161
0.19824843 0.11733761 0.19101113
0.20183106 0.11865799 0.18951842
0.24591035 0.11338977 0.19188802
0.50908768 0.11836733 0.19075738
0.5166629 0.11787814 0.19057216
0.52355987 0.1156355 0.18747152
0.52880192 0.11401448 0.18492043
0.20543395 0.12306939 0.18771245
0.2105516 0.12596758 0.1899754
0.50196522 0.12538563 0.19076392
0.50787723 0.12370867 0.18953162
0.51639843 0.12393595 0.18759729
0.52186948 0.12239808 0.18617105
0.2127441 0.13009717 0.18732367
0.22007298 0.13151881 0.18830408
0.22773933 0.13120937 0.18800725
0.23590273 0.13127644 0.18811448
0.24186003 0.13033116 0.18872792
0.49374211 0.13483465 0.19111499
0.49978206 0.13222419 0.1892646
0.50821561 0.13211377 0.18755974
0.51400477 0.13060805 0.18586071
0.52393478 0.13210188 0.1846676
0.48730302 0.14204179 0.19128455
0.49208125 0.14009243 0.18925238
0.49923891 0.13979365 0.18620658
0.50826478 0.13865364 0.18573123
0.51448321 0.14069849 0.19076255
0.48554212 0.14867115 0.19026886
0.49245241 0.14811671 0.18787096
0.49851406 0.14750451 0.18772195
0.50797188 0.14619552 0.18813093
0.51440305 0.14591415 0.18771525
0.47926548 0.15942433 0.19130428
0.48506263 0.15657783 0.18917736
0.49136567 0.15478639 0.18598527
0.49871457 0.15585443 0.18718931
0.4713091 0.16777101 0.19157635
0.47669831 0.16536918 0.19060178
0.48415551 0.16378684 0.18785444
0.49169493 0.16425717 0.18518749
0.49698952 0.16383576 0.18483908
0.46918446 0.17338215 0.19065879
0.4759748 0.17212635 0.18794589
0.48209089 0.17103545 0.18543155
0.48833901 0.16883279 0.18433529
0.49717095 0.16894174 0.18426187
0.46191657 0.18020007 0.19058898
0.46801093 0.17983459 0.18772289
0.47450015 0.17909804 0.18707444
0.48231184 0.18139182 0.18588802
0.46030888 0.187943 0.1902661
0.46798038 0.18762757 0.18644391
0.47600868 0.18526502 0.1860269
0.48151475 0.18588793 0.18500562
0.45255896 0.19694987 0.19062212
0.46026272 0.19623682 0.18855648
0.46617177 0.19455786 0.18567055
0.44428149 0.20638061 0.19081189
0.45250797 0.20417716 0.18939079
0.45992187 0.20378797 0.18658921
0.46434206 0.20382975 0.18430823
0.43860692 0.21375407 0.19101733
0.44475502 0.21262853 0.18930826
0.45135823 0.21164025 0.18642268
0.45885807 0.21001473 0.18466707
0.43091583 0.22319634 0.19173551
0.43648973 0.22074041 0.19080523
0.44438955 0.21956684 0.18708789
0.44966564 0.21720867 0.18448241
0.42304316 0.23166643 0.19153483
0.42887673 0.22915164 0.19069527
0.43593886 0.22748503 0.18796809
0.44201079 0.22533034 0.18519287
0.42122129 0.23709746 0.1895885
0.42816946 0.23591915 0.18765506
0.43378577 0.23468392 0.18547258
0.41304216 0.24504921 0.19035175
0.42021391 0.24408835 0.18826672
0.42545232 0.24358436 0.18514454
0.3913742 0.25285131 0.1910283
0.39286339 0.25436985 0.19128172
0.40613785 0.25367615 0.1912868
0.4127132 0.2518883 0.18907176
0.4198564 0.25138146 0.18661098
0.42533344 0.25184375 0.185249
0.39632732 0.2602317 0.19172925
0.40509543 0.25985128 0.18990839
0.41174519 0.25957996 0.18748081
0.41908216 0.25806159 0.18486096
0.42593482 0.25734141 0.18437055
0.2448079 0.26960525 0.18612963
0.24917652 0.27083579 0.18436195
0.38920265 0.27060705 0.19096355
0.39487857 0.26928595 0.18937194
0.40418416 0.26743093 0.18797268
0.40972495 0.26521054 0.18549751
0.25030679 0.27481797 0.18703577
0.38979509 0.27539232 0.19007823
0.39513597 0.27580225 0.18701905
0.40154287 0.27311584 0.18552727
0.2539199 0.28235775 0.18996333
0.25905809 0.28627381 0.18919794
0.3753503 0.28715414 0.18959577
0.38012907 0.28536278 0.19011602
0.38785279 0.28454003 0.18906182
0.39438346 0.28387129 0.1860269
0.26235044 0.2884151 0.18675502
0.26755008 0.29001185 0.18784341
0.27613822 0.29209229 0.18740015
0.28404075 0.29499862 0.18844517
0.28845572 0.29562566 0.18936987
0.36487436 0.2956599 0.19177395
0.37434825 0.29251447 0.18953723
0.38020268 0.29169211 0.18662177
0.3869749 0.28972214 0.18550812
0.27781707 0.29904035 0.18937401
0.2821939 0.30278301 0.18615702
0.29241112 0.2977221 0.18790402
0.29756397 0.29960722 0.18544272
0.36526275 0.29952961 0.19057141
0.37191531 0.30068538 0.1887932
0.37876824 0.29976344 0.18520783
0.28255773 0.30421734 0.18431039
0.30088776 0.30928165 0.18795553
0.35976589 0.30962041 0.1919602
0.36434448 0.30835956 0.18780906
0.37009659 0.30738533 0.18563583
0.37677172 0.30412251 0.18402444
0.30459687 0.31254134 0.18652579
0.34381792 0.31434596 0.19197039
0.34888077 0.31606343 0.19129917
0.35576257 0.31625366 0.18888409
0.36283922 0.31324336 0.18461193
0.30698556 0.32361546 0.18825498
0.34310699 0.32724395 0.19144489
0.34846255 0.32514325 0.19007014
0.35420653 0.32328871 0.18565814
0.31133357 0.33463961 0.18938869
0.31368372 0.33403116 0.18535645
0.33516815 0.33427268 0.19094901
0.34061792 0.33139002 0.18853278
0.34737977 0.33093643 0.18651366
0.3538506 0.33021417 0.18481015
0.31368408 0.34244314 0.18962733
0.33361894 0.34078068 0.1895448
0.3388896 0.3397589 0.18582186
0.3175827 0.34714785 0.1897386
0.32371178 0.34936452 0.18861623
0.33063319 0.34850711 0.18839172
0.32651722 0.35276681 0.18521723
0.33154109 0.35410649 0.1850823
0.33631504 0.3528896 0.18440184
0.63732296 -0.048795123 0.19906777
0.62908083 -0.041722972 0.19886081
0.63592541 -0.0442455 0.19681001
0.64250195 -0.04286385 0.1938341
0.62341166 -0.034293845 0.19982263
0.62781346 -0.035802856 0.19753061
0.63624662 -0.035697252 0.19498906
0.64125437 -0.037120104 0.19307588
0.61490464 -0.0250923 0.1993389
0.62079078 -0.02712892 0.19774117
0.62762433 -0.02814739 0.19514035
0.63456184 -0.030568404 0.19299749
0.60685092 -0.01735257 0.19957225
0.6126712 -0.01945238 0.19818039
0.61985832 -0.0201071 0.19493833
0.62517953 -0.022968151 0.19311392
0.60601431 -0.011835966 0.19897284
0.61208999 -0.012194658 0.1958421
0.61779356 -0.01296506 0.19286636
0.16518116 -0.0034260352 0.19563158
0.17102553 -0.002588456 0.19673292
0.5911274 -0.00093733618 0.19988026
0.59642518 -0.0021497023 0.19862512
0.60421187 -0.0037681239 0.19772829
0.61175644 -0.0041293367 0.1949112
0.6167534 -0.0060291574 0.19237809
0.16184849 0.0016348058 0.19430918
0.17312263 0.0031297121 0.19435953
0.17715922 0.0053655156 0.19764863
0.58884156 0.0044509456 0.19893648
0.59601748 0.0044955565 0.19666201
0.6039589 0.0040228632 0.19427125
0.6097399 0.0027940078 0.1929283
0.16110723 0.013663593 0.19888493
0.17491896 0.0096463002 0.1926342
0.17775039 0.01107049 0.19565248
0.57596201 0.014369447 0.19965015
0.58029425 0.012442267 0.19914404
0.58837283 0.012283368 0.19776921
0.59475195 0.011183874 0.19417609
0.60295635 0.0088776965 0.19264272
0.16113371 0.018798187 0.19872877
0.17455751 0.017742468 0.19313911
0.17876123 0.019296853 0.19782379
0.57462651 0.021123758 0.19870856
0.57982194 0.019963462 0.19665548
0.58830625 0.01979013 0.19533429
0.59284443 0.020001017 0.19270125
0.56722456 0.031290624 0.19959383
0.57255203 0.028710382 0.19756697
0.57972395 0.028028272 0.19465327
0.58773845 0.027427346 0.19387303
0.59254247 0.025961425 0.19267263
0.56531066 0.036814801 0.19825383
0.57152545 0.035805259 0.19499569
0.5796026 0.034784924 0.19283891
0.58474851 0.032209486 0.19206941
0.55032301 0.046068553 0.19924702
0.55637705 0.045771752 0.19820195
0.56432384 0.043730132 0.19616753
0.57026243 0.043249905 0.193443
0.57824266 0.04472927 0.19399594
0.54288548 0.053862449 0.19911502
0.54824781 0.052476209 0.19789191
0.55604792 0.052245203 0.1958441
0.56303895 0.051160775 0.19339158
0.57254028 0.048782576 0.19246924
0.57817537 0.048958633 0.1930453
0.54276264 0.060402818 0.19829422
0.54755294 0.060093343 0.19499078
0.55603504 0.059668925 0.19380707
0.56103116 0.057873864 0.19301258
0.54120761 0.068344064 0.19683619
0.54746717 0.066681996 0.19335291
0.55352551 0.06600529 0.1923763
0.026273251 0.0795056 0.19916707
0.51905262 0.078683965 0.19963676
0.52213901 0.07870774 0.19932778
0.53433663 0.077199087 0.19790415
0.53859794 0.075396419 0.19468817
0.023372658 0.081350982 0.1940255
0.028359359 0.083409965 0.1958795
0.033855982 0.086991675 0.19787008
0.044714119 0.087016627 0.19744593
0.049319766 0.087004885 0.19850716
0.51850289 0.084322594 0.19902727
0.52418154 0.083947636 0.19758227
0.53175765 0.083687507 0.19581458
0.53796422 0.081317671 0.1932034
0.036949676 0.089522906 0.19546643
0.04360567 0.089309908 0.19446053
0.052195843 0.091685988 0.19565612
0.059953492 0.092822909 0.19638021
0.067499541 0.093568139 0.19682288
0.075510584 0.095361233 0.19918136
0.080990545 0.095744178 0.19946744
0.51103526 0.095794611 0.1997086
0.51682687 0.092245139 0.19850148
0.52464449 0.091974013 0.19667824
0.53010917 0.091962762 0.19400215
0.071061209 0.096853159 0.19359349
0.076363295 0.098189779 0.19547038
0.084045269 0.098376788 0.19568716
0.091997191 0.099326 0.19581711
0.09995418 0.10077419 0.19663271
0.10750442 0.10125869 0.19657061
0.11537325 0.10283872 0.19254671
0.13235076 0.102379 0.19339925
0.14003663 0.10173319 0.19332406
0.14863764 0.099512845 0.19412951
0.15476213 0.10116069 0.19337365
0.16480115 0.099088505 0.19448113
0.17188819 0.10260771 0.19617052
0.17660435 0.10345767 0.19656944
0.51069993 0.10066047 0.19935142
0.51621956 0.099843815 0.19802275
0.5243485 0.10009855 0.19604884
0.52937198 0.099041648 0.19441618
0.11680102 0.10789037 0.19702308
0.12373046 0.10771216 0.19625029
0.13139613 0.1048436 0.19728729
0.13898699 0.10620942 0.19788302
0.15783004 0.10593543 0.1975171
0.17472762 0.1048734 0.19975257
0.18001392 0.10726055 0.19709349
0.18922183 0.10928805 0.19302274
0.2457097 0.11078789 0.19585246
0.24946642 0.11128193 0.19636202
0.50201565 0.11086924 0.19927159
0.50812519 0.10866364 0.19733965
0.51587731 0.10806816 0.19483149
0.5223484 0.10655177 0.19341049
0.53037226 0.10515044 0.19296865
0.18354413 0.11277938 0.19847827
0.1885096 0.11516496 0.19798116
0.19702448 0.11504985 0.19600658
0.20391901 0.11771426 0.19632167
0.21172994 0.1171728 0.19788441
0.21765329 0.11779954 0.1994459
0.24433263 0.11397342 0.19451806
0.24972206 0.11217022 0.1939829
0.49500677 0.1180075 0.19931322
0.50032568 0.11632485 0.19740456
0.5073868 0.11479484 0.19471942
0.5158298 0.11435244 0.19360508
0.52171779 0.11666366 0.19327217
0.20686729 0.12020542 0.19305134
0.21244778 0.12287031 0.19438718
0.21988818 0.12463517 0.19619083
0.22771508 0.12589155 0.19671929
0.23617777 0.12560846 0.19713888
0.24213845 0.12515152 0.19574156
0.49379858 0.12432754 0.19832404
0.49872777 0.12370485 0.19446625
0.50665325 0.12506695 0.1923994
0.51326489 0.12612839 0.19214328
0.22110665 0.12836969 0.19232634
0.22938251 0.12863563 0.19276023
0.23595259 0.12865637 0.19320573
0.24143797 0.12831298 0.19248253
0.48559883 0.13386491 0.19835603
0.49179453 0.13164386 0.19641981
0.4978466 0.13099173 0.19485588
0.50833064 0.13230738 0.19321305
0.51266855 0.13271439 0.19260363
0.47953555 0.14166665 0.19932641
0.4840019 0.13969776 0.1959202
0.49165782 0.1386739 0.19417426
0.49978161 0.13973947 0.19335729
0.50711513 0.14046995 0.19320698
0.46962622 0.15044282 0.19909744
0.47718313 0.148289 0.19770056
0.48234531 0.14747755 0.19393012
0.4908627 0.14499491 0.19233681
0.4632327 0.15991205 0.19995606
0.46853852 0.15631098 0.19838515
0.4759928 0.1563645 0.19618225
0.48141414 0.15529163 0.19362853
0.45377302 0.16713783 0.1991017
0.46098289 0.16600569 0.19908619
0.46772662 0.16400048 0.19638026
0.47482145 0.16215289 0.19355562
0.48019543 0.16060388 0.19207358
0.45364189 0.17223752 0.19836651
0.46001568 0.17209947 0.19598432
0.46682334 0.17120911 0.19455115
0.47326449 0.17232245 0.19289263
0.44514015 0.1810323 0.1988609
0.45242098 0.18024205 0.19687538
0.45839861 0.17877445 0.19348854
0.46447936 0.17633243 0.19234987
0.43872464 0.19031131 0.19947691
0.4442943 0.18807296 0.19851476
0.4521217 0.18837678 0.19593492
0.45670962 0.18756853 0.19241259
0.43789732 0.19710004 0.19881889
0.44422972 0.19600148 0.19621965
0.45099947 0.19526388 0.19386353
0.45909193 0.19469129 0.19386694
0.43048248 0.20661005 0.19947305
0.43705177 0.20378642 0.1978101
0.44381085 0.20372599 0.19419453
0.44898841 0.20348847 0.19272162
0.42053533 0.21333034 0.19778933
0.4286873 0.21271344 0.19774352
0.43564963 0.21184419 0.19599299
0.44232327 0.20993853 0.19319832
0.41564137 0.2229863 0.19960313
0.42039177 0.2203099 0.19644821
0.42807752 0.21970674 0.19398725
0.43323553 0.21816641 0.19292708
0.404706 0.22996794 0.19907154
0.41399768 0.22843175 0.19907823
0.41931275 0.22798976 0.19542477
0.42703351 0.22698903 0.192966
0.43278164 0.22556491 0.19215293
0.39987838 0.23953077 0.19914138
0.4054327 0.23727272 0.19696511
0.41237968 0.23605163 0.19678432
0.41874021 0.23512688 0.19470543
0.39086407 0.24797152 0.19416083
0.39708015 0.2444132 0.19757664
0.4040381 0.24400949 0.19515382
0.41075718 0.24265797 0.19324331
0.41753858 0.2406265 0.19303955
0.39057332 0.24999164 0.19370607
0.39637867 0.25118133 0.1945145
0.40327644 0.25203112 0.19604068
0.40927014 0.25179377 0.19304712
0.38193178 0.26294646 0.19923805
0.38858834 0.26154456 0.19848633
0.39666921 0.26074305 0.1957113
0.40137526 0.25887185 0.19456655
0.23869553 0.26881284 0.19600923
0.24030039 0.27099162 0.1937734
0.37299961 0.26918486 0.19895284
0.38023445 0.26746157 0.19661689
0.38938001 0.26784602 0.19634512
0.39466491 0.26622698 0.1941193
0.40115663 0.26422149 0.19268243
0.23941514 0.27378038 0.19967997
0.24371356 0.27818096 0.19709367
0.36531332 0.27654451 0.19840461
0.37180036 0.27576488 0.1970984
0.37993702 0.27656719 0.19616142
0.38703635 0.27481946 0.19618036
0.2467563 0.28046647 0.19578511
0.25212875 0.28097114 0.19570617
0.25957051 0.28478622 0.19561259
0.2640923 0.28789365 0.19229157
0.36437815 0.28484452 0.19777076
0.37219766 0.2838707 0.19528677
0.37923533 0.28128761 0.19319643
0.26346046 0.28923616 0.19879
0.26811031 0.291922 0.19608858
0.27605423 0.29306877 0.19566275
0.28367129 0.29318187 0.19586532
0.28955671 0.29508802 0.19365516
0.35871005 0.29276237 0.19886233
0.36429578 0.29168016 0.19484353
0.36983415 0.29233289 0.19381724
0.2730965 0.29645252 0.1922292
0.29207814 0.29724514 0.19325328
0.3429803 0.30060002 0.19979912
0.34832743 0.30052155 0.19884256
0.35554391 0.29991859 0.1976018
0.36098087 0.30054772 0.19207706
0.29378176 0.30633217 0.19655125
0.29685017 0.30713725 0.19214781
0.33527523 0.31000912 0.19957598
0.34052983 0.30889151 0.19717394
0.34791842 0.30792522 0.19503231
0.35530207 0.30836862 0.19451737
0.29588363 0.31755605 0.19885795
0.29868254 0.31864822 0.19697587
0.33390594 0.31309122 0.19970338
0.34093642 0.31404507 0.19391641
0.34703252 0.31346703 0.19224817
0.35536471 0.31238827 0.19251661
0.3014949 0.32185817 0.19587816
0.31122187 0.32521144 0.1993932
0.31421417 0.32698759 0.19906811
0.33266538 0.32392821 0.19861403
0.33956575 0.32481015 0.19570018
0.34590444 0.32335261 0.19278336
0.30899721 0.33550802 0.19837601
0.31614137 0.3320981 0.19801475
0.32398915 0.33334431 0.19845875
0.33135915 0.33199838 0.19562277
0.33751228 0.32887605 0.19292673
0.30919576 0.33743748 0.19612354
