0.26074900000000001 0.13333100000000001 0.036434300000000003 -0.43378938416783819 0.63156906144192981 0.64260975001368248
0.14052400000000001 0.081498600000000004 0.26675100000000002 0.41064284148237662 0.85669475255484639 -0.31216431199653527
0.178864 0.130412 0.23300999999999999 -0.19340727332651703 -0.62549841379485238 -0.7558739054660677
0.18715000000000001 0.128716 0.232762 -0.20231658587576939 -0.64590088357803821 -0.73612502176782568
0.47870299999999999 0.25491900000000001 0.15138299999999999 -0.44645565837712387 -0.37937226949625691 -0.81040361934057781
0.19703200000000001 0.12848300000000001 0.23220299999999999 -0.29868468938795978 -0.82157584055016653 -0.48559303387662522
0.43105100000000002 0.33478400000000003 0.14365700000000001 0.36858359498970983 0.27894586851327352 0.88675551080545167
0.19778100000000001 0.085212700000000002 0.26805800000000002 -0.86760362896148702 0.49546619148160698 -0.042156803858571706
0.45119999999999999 0.323519 0.13858599999999999 -0.46779461635515784 -0.28050670480905621 -0.83814329649905062
0.44500699999999999 0.32570199999999999 0.14263400000000001 0.42085681218566717 0.339894308531969 0.84104185547717714
0.21848300000000001 0.129436 0.236294 -0.22179839977903693 -0.70186642084579609 -0.67689659265250446
0.45990199999999998 0.31548599999999999 0.13732 0.32744941243638015 0.45083210267191803 0.83037780407202966
0.45241199999999998 0.31737100000000001 0.14095199999999999 -0.46004183787864256 -0.32064449021794567 -0.82797863395990745
0.48429299999999997 0.25306800000000002 0.15079000000000001 0.3780548982198495 0.38195918510945859 0.84331588081957598
0.26568000000000003 0.132799 0.038233700000000002 -0.28769012601390737 0.69888667385697478 0.65482196702557016
0.30763800000000002 0.31760300000000002 0.14066300000000001 0.68056537839420861 0.014702908230652956 0.73253982159382203
0.49900600000000001 0.25112499999999999 0.14594699999999999 -0.42425762663303923 -0.34978358288169775 -0.83525858953388987
0.47247400000000001 0.31009900000000001 0.13956499999999999 -0.5480122609024316 -0.42343886355780042 -0.72137513869656189
0.46795500000000001 0.30889499999999998 0.14069999999999999 -0.41469769484814362 -0.47032100992786902 -0.77898906892719932
0.45988000000000001 0.30883500000000003 0.14138100000000001 0.27510496365505199 0.47890075301361029 0.83364940336771653
0.453434 0.30918800000000002 0.14225499999999999 0.3576056356205306 0.42026370026791432 0.83396440668025928
0.50733300000000003 0.24904699999999999 0.145229 -0.46171534153440824 -0.34748199012444264 -0.81613430875740134
0.478132 0.26128400000000002 0.15037200000000001 -0.4256988208426607 -0.34407100989568662 -0.83689644167156729
0.40584700000000001 0.133827 0.23804700000000001 0.27833897523703965 0.52790461120243992 0.80239898824412492
0.31810899999999998 0.306334 0.140373 0.1672445626394119 0.98572118862069591 0.019570247105086324
0.49191699999999999 0.25990600000000003 0.14718200000000001 0.35806544012021002 0.36714304775528361 0.85848420083102384
0.49793300000000001 0.25871100000000002 0.145482 -0.41062113380621823 -0.35375327322036398 -0.84038616490133555
0.46281899999999998 0.27085799999999999 0.151231 -0.4736464609887524 -0.41089922046142974 -0.77898707345951501
0.47075800000000001 0.29730099999999998 0.14363500000000001 -0.50742473199689775 -0.3131904645319602 -0.80276514266884524
0.46885199999999999 0.270206 0.15110599999999999 0.41303487550695883 0.38421184571929212 0.82570179194666027
0.42775600000000003 0.12881699999999999 0.23289799999999999 -0.24400060807133289 -0.19810410298853617 -0.94932526967311226
0.31778899999999999 0.30102099999999998 0.142704 -0.072958006511699772 0.98388772476551978 -0.16322400050717958
0.48347000000000001 0.26708500000000002 0.14558299999999999 -0.35021850099456631 -0.29001889174852435 -0.89063799828554147
0.29753200000000002 0.299759 0.13936200000000001 -0.5692090265559967 0.36342564730346527 -0.73751127650309978
0.43426900000000002 0.107376 0.234683 0.61702596404234034 0.2768554000962401 0.73663426959052836
0.39788299999999999 0.13878099999999999 0.23774100000000001 -0.23166640738929892 -0.11378524123789863 -0.96611779538717135
0.48367300000000002 0.29113899999999998 0.13727700000000001 -0.4099372203005921 -0.38082679587732887 -0.82880783475666508
0.27872400000000003 0.27515299999999998 0.14627899999999999 -0.85293253942870906 0.015335256979705003 -0.52179585383276139
0.21179899999999999 0.085878899999999994 0.26783800000000002 0.3257301365269043 0.91393559475220665 -0.24211899306558859
0.40541700000000003 0.13972699999999999 0.23638000000000001 -0.49527931482522664 -0.32416218447012912 -0.8059883860613678
0.30281000000000002 0.29313299999999998 0.142702 0.18815034842145423 -0.83232124825711817 0.5213835307032606
0.29297099999999998 0.29403800000000002 0.141125 0.46836742968248884 -0.54091733913277329 0.69859887134044185
0.46177499999999999 0.27610200000000001 0.14926400000000001 0.40609810698431054 0.35478100369560445 0.84214889830747808
0.49113200000000001 0.28379900000000002 0.13813300000000001 0.4086411269167346 0.32643701399760683 0.85232112802895321
0.46865400000000002 0.27661599999999997 0.148811 0.3922816063246648 0.27534376855222387 0.87766790442558651
0.39832099999999998 0.149927 0.235622 -0.60508228589526813 -0.39283697693500974 -0.69249876306627411
0.28983300000000001 0.28584500000000002 0.138541 0.65480620033878378 -0.61793360644599526 0.43518604989421544
0.28612900000000002 0.28275299999999998 0.13963500000000001 -0.76216150285635953 0.27779931412055914 -0.5847541232329041
0.49846200000000002 0.27510099999999998 0.13728099999999999 -0.41328356885339662 -0.32662774334331413 -0.85000647585430411
0.47611999999999999 0.27549499999999999 0.146894 0.3957306644353108 0.27852067022761845 0.87511340835433771
0.48415599999999998 0.27614899999999998 0.141515 -0.39099658636952372 -0.27375151472300552 -0.87873874253627804
0.455042 0.28417399999999998 0.15125 -0.33698208794361018 -0.20654284837495068 -0.9185766838921654
0.40448899999999999 0.14796799999999999 0.23592099999999999 -0.59718494992011961 -0.36637473724349373 -0.71354024938938443
0.50629100000000005 0.26575199999999999 0.13747699999999999 -0.44490152065991118 -0.31761948855656791 -0.8373652114839516
0.49922299999999997 0.26733299999999999 0.13856099999999999 -0.45454540559897399 -0.29722893163064684 -0.83966864681883224
0.59756600000000004 0.0132833 0.19095599999999999 -0.41025355098535288 -0.3236963579834744 -0.85259174974435603
0.41611500000000001 0.144459 0.23211200000000001 -0.42784713006585029 -0.34059761525958621 -0.83722165390886694
0.512957 0.25715100000000002 0.136071 -0.43233840941896451 -0.37534975584589259 -0.81987563723256751
0.50699000000000005 0.25952999999999998 0.13822599999999999 0.44698988403714379 0.37388914526943107 0.81265426265919183
0.50082700000000002 0.26084200000000002 0.14180899999999999 0.45463907392763564 0.37002395712960728 0.81017626699895917
0.49501299999999998 0.26323000000000002 0.14355899999999999 0.37760977609977286 0.36502102647776863 0.85098208396122854
0.52129999999999999 0.24859700000000001 0.136185 -0.49026152897311093 -0.33865755839238748 -0.80309071178332925
0.51455899999999999 0.251608 0.138374 0.45898147718740107 0.4386997513699506 0.77257914270760297
0.50815500000000002 0.25197700000000001 0.14022899999999999 -0.44286374054462174 -0.38730464130548314 -0.80862032013427454
0.50196300000000005 0.25290299999999999 0.143065 0.40217128653950418 0.38686647957420023 0.82981478853116664
0.52275799999999994 0.24307100000000001 0.13748199999999999 0.48308525031198329 0.3092135604240861 0.8191554278529003
0.46142499999999997 0.28422500000000001 0.15129799999999999 -0.41008340198802296 -0.15870429134237313 -0.89813392727557295
0.50932599999999995 0.24473900000000001 0.14229600000000001 -0.43055876416472055 -0.3293548264503588 -0.84032407373274887
0.125967 0.10434599999999999 0.18238699999999999 0.20437359984350956 -0.94320811240385116 0.26189671319542962
0.30357000000000001 0.29269299999999998 0.14463599999999999 -0.11293636341002151 0.97858779101343363 -0.17207938022659147
0.51691699999999996 0.23607300000000001 0.142237 -0.4562048833865992 -0.28067645603636993 -0.84445120131425189
0.51090800000000003 0.238985 0.143316 -0.46724946795341393 -0.25418419571737388 -0.84679887183720515
0.396092 0.15643499999999999 0.23591999999999999 0.53037458900293977 0.44295040974436267 0.7228400444408597
0.53874 0.226159 0.13761599999999999 0.35013579890210667 0.35743750163114224 0.86581947007148707
0.53212999999999999 0.22756799999999999 0.13899800000000001 0.37067011267812061 0.35404870863373655 0.85863448537894915
0.52448799999999995 0.22875899999999999 0.14188100000000001 0.37742483323024723 0.37934692769077721 0.84477594882470963
0.40287200000000001 0.15399399999999999 0.23432900000000001 -0.63103605379259964 -0.40539001577284511 -0.66140187021625185
0.46818500000000002 0.29238500000000001 0.14757799999999999 -0.43751953230802348 -0.2602689834068983 -0.8607187200969364
0.53803999999999996 0.21865599999999999 0.13822899999999999 0.41166081604475224 0.32997915427283897 0.84949934095251112
0.53239499999999995 0.22054399999999999 0.14097799999999999 -0.39025969103937319 -0.38731482153433255 -0.83527516578052341
0.38133499999999998 0.165273 0.23783399999999999 -0.39599575905511575 -0.34452065794061149 -0.85117147218555844
0.554257 0.209671 0.13667099999999999 0.39279091679644546 0.33430502917283772 0.85671199545235521
0.54801599999999995 0.21096699999999999 0.13744200000000001 -0.3213322374385289 -0.38036724320401782 -0.8672175929258612
0.47286400000000001 0.29125200000000001 0.145535 -0.50650729725537202 -0.26792753351420862 -0.81955182545831162
0.53446400000000005 0.214453 0.142931 -0.4788053698042038 -0.34791120612921861 -0.80604169277796833
0.55571000000000004 0.20371600000000001 0.13830899999999999 -0.37407886149325498 -0.34694955392910831 -0.86005291256544392
0.31149300000000002 0.29641899999999999 0.15052699999999999 -0.28642352630430884 0.93111716860048699 -0.2257927853515635
0.54114799999999996 0.205842 0.14285700000000001 -0.47326492985929081 -0.37088055199215364 -0.79904187770058477
0.38855299999999998 0.16406200000000001 0.23708299999999999 0.44760804921756125 0.38705097049694365 0.80612566049780565
0.39424300000000001 0.16417899999999999 0.23388400000000001 -0.33007010165589362 -0.31546323712002988 -0.88968346844179358
0.31663599999999997 0.29806899999999997 0.147758 -0.48530112600832037 0.86632804996157842 -0.11814621003157513
0.54944099999999996 0.19724800000000001 0.14277500000000001 -0.42326877604560442 -0.28974870968131955 -0.85842252327328095
0.37996600000000003 0.172488 0.237623 -0.46468118874798969 -0.282599109837672 -0.8391716963427156
0.563774 0.18801499999999999 0.138517 -0.36532285297004752 -0.3137058739517114 -0.87642902607456918
0.55680799999999997 0.18801300000000001 0.14189599999999999 0.41150318734520897 0.31658893336857596 0.85465582199694934
0.32360899999999998 0.30152600000000002 0.14787500000000001 0.28791000958769664 -0.95335504275390837 0.090675183125850323
0.39586900000000003 0.170489 0.23391899999999999 -0.32076757367738734 -0.22756499294590718 -0.91941412739997141
0.57180900000000001 0.17955399999999999 0.138099 -0.41883325390632475 -0.32044757680053187 -0.84964231059011364
0.56433100000000003 0.180288 0.14131199999999999 -0.41371302766728091 -0.35420071501272415 -0.83867954799365829
0.55851300000000004 0.182426 0.14332 -0.41277081616876155 -0.37352888153700103 -0.83072042708548521
0.58637700000000004 0.169212 0.13653999999999999 -0.35453234868375039 -0.34981407170265499 -0.86714296916690359
0.579206 0.17149 0.13832900000000001 0.42002284860008005 0.3332568487553263 0.84410940014404778
0.57229300000000005 0.171991 0.14154700000000001 -0.41839433625394323 -0.37109751944099961 -0.82899506057355965
0.56585799999999997 0.17421900000000001 0.14294299999999999 -0.42478714937006407 -0.34822666877738556 -0.83563991340903521
0.59447000000000005 0.16189799999999999 0.13672400000000001 -0.36714727280102127 -0.31684398251393631 -0.87453574587862382
0.40410299999999999 0.17305899999999999 0.234014 0.36711284497333663 0.28803918632661496 0.88445553093181817
0.57983399999999996 0.16423599999999999 0.14107600000000001 0.44236197775902003 0.42585223446749315 0.78928179697252054
0.57375500000000001 0.16484599999999999 0.14164599999999999 0.41512255148385885 0.37203047832514674 0.83022080824723588
0.59558699999999998 0.15562899999999999 0.137965 0.37444836231923029 0.32930164703544712 0.86680381241442883
0.018379599999999999 0.13345199999999999 0.0366948 0.91618620247766103 -0.40018889861978263 0.02125294829070952
0.44555800000000001 0.29989700000000002 0.150862 -0.31461642640539461 -0.34281931244692976 -0.88515050881153146
0.50661699999999998 0.10649599999999999 0.201373 -0.3631000428664598 -0.32316079806386522 -0.87391387302473955
0.45240399999999997 0.300346 0.14972099999999999 -0.2669783073677599 -0.35229782179770952 -0.89699990420937914
0.59604400000000002 0.14769299999999999 0.13979800000000001 -0.41721104296943728 -0.3314417507457843 -0.84621587759089245
0.46645900000000001 0.30055300000000001 0.14641299999999999 0.38554136055140253 0.37588573396364455 0.84265519301003877
0.38750299999999999 0.17984900000000001 0.23486499999999999 0.48299803302517785 0.29748474131511426 0.82353854116154712
0.60372899999999996 0.13982700000000001 0.13899300000000001 0.37819425455491196 0.35759668722977372 0.85386984670027199
0.59728300000000001 0.141234 0.14188600000000001 0.42345820778973914 0.36797224167134224 0.8278161484380876
0.59156399999999998 0.143895 0.143846 -0.45736305727726051 -0.33981677345967598 -0.82179291449455372
0.61835200000000001 0.13048699999999999 0.13754 0.38552603585923195 0.40177882023151745 0.83062834967754173
0.611927 0.131884 0.13936799999999999 -0.40728782376077044 -0.38326988276497609 -0.82898783198641535
0.60489599999999999 0.13200500000000001 0.14163700000000001 -0.35611771901812622 -0.31676249611935209 -0.87911415143516169
0.299981 0.310446 0.149118 0.46107753704261434 -0.85171073331768943 -0.24899062549855289
0.155611 0.107168 0.237013 -0.31952109911481885 0.44570282490030944 -0.83621484027511872
0.227885 0.13081200000000001 0.140315 -0.2023190932909128 0.97040259481798796 -0.13185517987724038
0.012530599999999999 0.132766 0.033732699999999997 0.86475562454646271 -0.50182569620199347 -0.019201053269081031
0.145783 0.13878699999999999 0.035392699999999999 -0.14007055875375193 -0.1215930813492162 0.98264711933552973
0.49981500000000001 0.10721 0.20217499999999999 0.42078011078592148 0.36258705143090819 0.83154959473360779
0.63288800000000001 0.12116200000000001 0.136485 0.34159620896947851 0.23705266524507734 0.90946031464703592
0.40621200000000002 0.17700199999999999 0.233295 -0.50400898756270118 -0.36200958436419028 -0.78417090055962091
0.61984399999999995 0.12407 0.138825 -0.40728135285745648 -0.18724397300996207 -0.89390245227655851
0.612456 0.124294 0.14199000000000001 0.34140552943527547 0.35058361834336638 0.87208565578175412
0.605846 0.12600700000000001 0.14271700000000001 0.34373711493364878 0.33645792517820605 0.87672165503189692
0.36581599999999997 0.188248 0.23730999999999999 0.79208158507017323 0.12850151066355425 0.59673622677855476
0.49292200000000003 0.108581 0.205515 -0.41051838667257085 -0.37218167162675386 -0.83243946176816064
0.45172400000000001 0.30577900000000002 0.14615800000000001 -0.3380338773141795 -0.42255675555590699 -0.84093928801192741
0.460038 0.30499100000000001 0.14475499999999999 0.25957093775370504 0.47683216832766651 0.83979402922478452
0.19527600000000001 0.12709100000000001 0.13992399999999999 -0.32301365899090129 0.939005488459566 -0.11802910127642725
0.46601999999999999 0.30480499999999999 0.14482300000000001 -0.3213388043383496 -0.4602788620394847 -0.82757763502044768
0.181813 0.122501 0.139629 0.57644071158980448 -0.79561026899391107 -0.18633412433925448
0.17793500000000001 -0.037955599999999999 0.27562399999999998 -0.61243114258866826 0.73797444402534385 0.28341103639947257
0.37086000000000002 0.18736700000000001 0.23635600000000001 -0.42815870205923479 -0.39185520445192523 -0.81432771326714126
0.182477 -0.0224596 0.26598100000000002 -0.85744874360823187 0.49361123339757484 0.14536025023502772
0.61321499999999995 0.117352 0.14240700000000001 -0.48269391662634209 -0.29260925876066518 -0.82546132831251173
0.17835300000000001 0.11759600000000001 0.140653 0.71371519580681064 -0.50007793044808024 -0.49044131428052756
0.17413799999999999 0.115451 0.137464 -0.71519124606245776 0.56522836830990986 0.4111184418307528
0.38043700000000003 0.18770000000000001 0.23588799999999999 0.47701023890758476 0.35164181648161347 0.80548697374870093
0.63545300000000005 0.10752200000000001 0.13816899999999999 0.31330647038799359 0.35431888036857573 0.88107728754484216
0.628363 0.108082 0.141289 -0.26591803901869493 -0.42267971897792389 -0.86638874166807756
0.62055700000000003 0.109296 0.142073 0.41468367399377215 0.37141904600517567 0.83071375502493761
0.17793800000000001 0.108264 0.142069 0.71544681095906182 -0.42832246587166645 -0.55197438882444838
0.172877 0.107117 0.13839000000000001 0.63289053864433953 -0.4343196616242942 -0.64094929411072432
0.64810599999999996 0.096803899999999998 0.136542 -0.40161939865752599 -0.22578304517204417 -0.88753809784978033
0.38479600000000003 0.18486 0.23350099999999999 -0.5814812758116279 -0.36161345680045398 -0.72877653210110138
0.429373 0.31601000000000001 0.15065999999999999 -0.36076526726097813 -0.32291163334125517 -0.87497228469877708
0.629467 0.100997 0.14180599999999999 0.32482982046158537 0.45332551889397243 0.83004913207496667
0.62287999999999999 0.103102 0.14053399999999999 -0.36665257192253692 -0.41603364773213641 -0.83215497081810497
0.43580999999999998 0.31642900000000002 0.15030499999999999 -0.34212443110048107 -0.35042030264152169 -0.87186953447221471
0.166213 0.098916299999999999 0.13774400000000001 -0.47007616820486309 0.61285246449247721 0.63516946782046324
0.15326600000000001 0.096372399999999997 0.13811399999999999 -0.052037665654878038 -0.84556317850182339 -0.53133322173103803
0.35180600000000001 0.19980100000000001 0.23993100000000001 -0.095115190151025306 -0.83061162293521684 -0.5486687820966849
0.357016 0.19809099999999999 0.23774899999999999 0.56536395475021328 0.39156984042458742 0.72597290496206712
0.44850499999999999 0.31596800000000003 0.14480199999999999 0.45477074665406009 0.35590104965368574 0.81640554312370617
0.12093 0.097949900000000006 0.14171700000000001 0.020848707798343913 -0.92749410644481667 0.37325596297081443
0.43593599999999999 0.32423800000000003 0.147036 -0.35008247237084289 -0.31384182045229825 -0.88257893373562102
0.44234299999999999 0.32268400000000003 0.14551800000000001 -0.38739931408517297 -0.33819968164168496 -0.8576378879129587
0.420294 0.33352599999999999 0.14972099999999999 -0.3862845349946038 -0.4362081692518856 -0.81271562745029158
0.17934900000000001 0.13841800000000001 0.033439200000000002 0.28261967114562114 0.50345663909910376 0.8164909883327407
0.65695999999999999 0.088645500000000002 0.136124 -0.22223618637361003 -0.19427243099006433 -0.95544193964014645
0.65140799999999999 0.091479599999999994 0.13777200000000001 -0.40119723884189834 -0.24347559080140238 -0.88304043635019636
0.42774000000000001 0.33199200000000001 0.14740800000000001 0.34066197980085561 0.31530319332325818 0.88573885078973336
0.377166 0.19575500000000001 0.23357900000000001 -0.63013364061487187 -0.17544757838107466 -0.7564058052432332
0.34970200000000001 0.20477699999999999 0.236819 -0.46285018167113845 -0.3292504485161436 -0.82302117316561918
0.163159 0.092828300000000002 0.14063100000000001 0.27312233815233294 -0.84505070201719534 -0.45966672646869722
0.15646599999999999 0.092545000000000002 0.140292 0.038257258576287985 -0.92697941617837876 -0.37315619269659617
0.11053399999999999 0.10595499999999999 0.23514499999999999 -0.7283484998853571 0.62651384169313973 0.27746868090228238
0.36338799999999999 0.204344 0.23556099999999999 0.2499660934032166 0.54046597590549206 0.80337630101793434
0.132822 0.092439199999999999 0.13891800000000001 -0.014643825164625722 -0.96698881751829824 0.25439769098620235
0.412997 0.33895900000000001 0.148728 0.42675550796670558 0.45358407563868358 0.78239454417006282
0.37650600000000001 0.202512 0.23529 -0.65869558874836198 -0.15022615181460219 -0.73725994376096782
0.10861999999999999 0.092966800000000002 0.13925999999999999 0.066713045629730433 -0.94089303649008094 0.33206876310077782
0.102566 0.094106200000000001 0.13780700000000001 0.089012973819512606 -0.8956551423520166 0.43575056680421609
0.42002800000000001 0.33932099999999998 0.14574100000000001 0.2718656896014221 0.40248316765982867 0.87412604729984655
0.44980100000000001 0.097811999999999996 0.23330799999999999 0.42795405569168476 0.44867433669719609 0.78456782103676026
0.076766500000000001 0.088860999999999996 0.14039699999999999 0.15413468209085773 -0.92902995445043812 0.3363715854684618
0.43547000000000002 0.34059899999999999 0.144729 -0.34866077297956555 -0.27624499558714183 -0.89561396136859772
0.058440499999999999 0.0909972 0.14136399999999999 0.055597248816544126 -0.92642583020896607 0.37234946897458976
0.052174199999999997 0.090132199999999996 0.140238 -0.007135988745266008 -0.95808013595335484 0.28641147106257553
0.343387 0.31613000000000002 0.135322 -0.72624683836250037 0.22249620021155964 -0.65043137275187601
0.66525900000000004 0.080994099999999999 0.13639100000000001 0.39923989987224967 0.3174521463589699 0.86013466220242474
0.65940699999999997 0.083099099999999995 0.13742399999999999 0.22943567965781383 0.28412269769384096 0.93093155578438269
0.39819100000000002 0.34854200000000002 0.15046899999999999 -0.41893697459622992 -0.40986906139453944 -0.8102463599595604
0.64540200000000003 0.084426299999999996 0.14225699999999999 -0.44836935681429618 -0.33833936404508169 -0.82733995105247049
0.34828700000000001 0.213668 0.23800299999999999 0.45875694146504403 0.50537593193198449 0.73084693067804318
0.35545199999999999 0.21148900000000001 0.23541599999999999 0.45565561419117157 0.42613741836285357 0.78152726243369719
0.43556099999999998 0.100509 0.236237 0.62124588745727249 0.53693455952557412 0.57074935488750533
0.41639500000000002 0.34426200000000001 0.144589 -0.35665915871114506 -0.35316899416018049 -0.86490803330258459
0.38985599999999998 0.354049 0.151613 0.46696814080030619 0.32222503118976092 0.82347543056988837
0.23520099999999999 0.10125099999999999 0.23352300000000001 -0.78117529755149506 -0.57145063395792517 -0.25141465240597777
0.33286199999999999 0.221549 0.238423 0.38888568600910994 0.35527472996527465 0.85002811098535169
0.34050799999999998 0.22023100000000001 0.237347 0.39097811445125574 0.44960622497597363 0.80311291639656435
0.66006100000000001 0.075815300000000002 0.13966600000000001 -0.36787895715969604 -0.36259110403212153 -0.85626675992698775
0.65243899999999999 0.076614199999999993 0.14241200000000001 -0.43243886126817505 -0.50337836090746857 -0.74806875154306118
0.64444000000000001 0.077787899999999993 0.141931 -0.55209737246197343 -0.46747921535438619 -0.69039964841549029
0.0280445 0.078528200000000006 0.13978699999999999 -0.36148182356743319 0.9228620536235207 -0.13287784319494789
0.67437199999999997 0.066135799999999995 0.13714499999999999 -0.39943626382809827 -0.35411151382754064 -0.84560966581148833
0.38905400000000001 0.36695 0.15084600000000001 -0.42247448687215727 -0.28034416957918801 -0.86192949510099881
0.66051800000000005 0.068586499999999995 0.141816 -0.36900319620115724 -0.45643847608336457 -0.80962988997691188
0.65503400000000001 0.070519700000000005 0.14362900000000001 0.37020018533913801 0.52294643195368018 0.76777526144164254
0.34766599999999998 0.21956100000000001 0.23513400000000001 0.37372575790014373 0.43509779307584889 0.81915747469121514
0.67606699999999997 0.059867999999999998 0.13911499999999999 -0.3977059239973032 -0.36505386160999675 -0.84176343240905893
0.66830299999999998 0.060333999999999999 0.14190900000000001 -0.38536603079282522 -0.3603705910567202 -0.84948576174790191
0.66295599999999999 0.062234200000000003 0.14333699999999999 0.39486619306356119 0.36015951769729576 0.84520163948465099
0.36342600000000003 0.21693599999999999 0.23297300000000001 -0.31906215781755404 -0.34153100319427199 -0.88405651024463405
0.68372900000000003 0.051799400000000002 0.138493 -0.42038939868829861 -0.34473824669840303 -0.83930226660828322
0.67649199999999998 0.052482500000000001 0.14204 0.38413412038823619 0.33226954852064272 0.86141623195726025
0.67025299999999999 0.055126799999999997 0.14333099999999999 0.37984501828984996 0.34352894454863148 0.85889791380447955
0.69707399999999997 0.040681599999999998 0.13636599999999999 -0.41996334601695096 -0.41647030370127153 -0.8063394286137926
0.69103800000000004 0.043386399999999999 0.138096 -0.39229091843159331 -0.36413017055821706 -0.844699386885856
0.68419600000000003 0.044143799999999997 0.14153099999999999 -0.40781707608270212 -0.34003532533227271 -0.84738492432986479
0.67862199999999995 0.045915600000000001 0.14318 -0.3950147255191479 -0.33580048820594804 -0.85510315093775646
0.70526699999999998 0.033447499999999998 0.136796 0.39693039660417495 0.3468263708489524 0.84979864011152506
0.69974000000000003 0.035741500000000002 0.137987 -0.40209200425282776 -0.4169764099268648 -0.81513967740531856
0.69190099999999999 0.036244699999999998 0.14088999999999999 0.38314995545796721 0.36350918759684386 0.84915085948566316
0.114213 0.031779599999999998 0.279308 -0.8191374654351905 0.36841293030917044 0.43964272483622724
0.70721400000000001 0.027369899999999999 0.13761799999999999 0.39895851872473787 0.31460303920049215 0.86131122601692378
0.38150499999999998 0.37333899999999998 0.15124799999999999 -0.37462238532111281 -0.40147376257080619 -0.83574929637036477
0.69366700000000003 0.029729100000000001 0.142958 -0.38185342303730768 -0.32692349106801194 -0.86447035478528389
0.38744099999999998 0.37180800000000003 0.150037 0.35853425433098407 0.39990591690605976 0.84352145562211334
0.70121800000000001 0.020924600000000002 0.142732 -0.40607331386284223 -0.31004730264395897 -0.85963662898439552
0.46060400000000001 0.33301900000000001 0.13325600000000001 -0.40305117744663793 -0.29990178906625387 -0.86464366375619683
0.33302599999999999 0.22944100000000001 0.238536 -0.42554485846129525 -0.32989521436673519 -0.84266287504261261
0.290271 0.13989799999999999 0.035143000000000001 0.50888812856644605 -0.81150092942392504 -0.28722659025279312
0.46796399999999999 0.33226299999999998 0.13082199999999999 -0.40452826241424683 -0.2817605686273737 -0.87003900307681004
0.395341 0.40342099999999997 0.12993299999999999 -0.12812188040302977 -0.43758685748575427 -0.8900014190537755
0.38799699999999998 0.403893 0.13065399999999999 0.099300290565454835 0.55624098617091766 0.82506691704201851
0.38201200000000002 0.401281 0.131105 0.3430649548868544 0.57996516782621721 0.73888215625821441
0.41966500000000001 0.39657100000000001 0.12861700000000001 -0.34448820304048605 -0.21748130354718562 -0.9132522984221576
0.41125400000000001 0.39631100000000002 0.12834400000000001 -0.25609930407887171 -0.30670001075778797 -0.91670510517368142
0.35898000000000002 0.37988699999999997 0.149369 -0.13489160325592719 0.63778701571197183 0.75830862975457591
0.10714799999999999 0.101437 0.23525399999999999 -0.71672402625816323 0.69733469776118095 -0.0055668197932458585
0.373166 0.38277099999999997 0.15124000000000001 0.18698577949526718 0.40387448363365092 0.89550082062285075
0.60436400000000001 0.012248500000000001 0.18936600000000001 0.38575523485695151 0.38933792981927284 0.83642625208950805
0.37542599999999998 0.397671 0.13599700000000001 0.32141906018557742 0.67470965978236197 0.66442205167031432
0.41030800000000001 0.38755499999999998 0.12986 0.34193947234279354 0.26602605261398027 0.90128105304869
0.40387499999999998 0.38775999999999999 0.13367100000000001 0.39601597435884789 0.47432880901338276 0.78624648106847395
0.39671800000000002 0.39039299999999999 0.13531199999999999 0.34577895761426108 0.49513725874511816 0.79704203620233505
0.38758999999999999 0.38008599999999998 0.147478 0.36841503599160413 0.41121738709975203 0.83376892590342899
0.41900999999999999 0.37820300000000001 0.12912799999999999 -0.36772863518194587 -0.37051683361297799 -0.85293195911317332
0.41263499999999997 0.37926900000000002 0.13126699999999999 0.44450590950604291 0.4527403651504065 0.77294285570000731
0.394206 0.37884200000000001 0.145512 -0.35544899082191411 -0.44012589915491662 -0.82458790181323827
0.11594699999999999 0.037067900000000001 0.27690300000000001 -0.8277473400751677 0.47194224496965675 0.30348782250937956
0.42733399999999999 0.37055199999999999 0.12973399999999999 0.3650916445226744 0.41985847065690235 0.83091934368949194
0.42033799999999999 0.37292399999999998 0.13253400000000001 -0.44186667949245639 -0.45617055739190987 -0.77243916273261615
0.41392600000000002 0.37429800000000002 0.134385 -0.49019913841872298 -0.43436761081835479 -0.75566499413794197
0.38523800000000002 0.3846 0.144347 0.38118796301086216 0.48387659332421196 0.78775578657892742
0.33247399999999999 0.23522799999999999 0.23583799999999999 -0.53686005780540924 -0.17494131576690397 -0.82533436519444459
0.42890499999999998 0.365176 0.13287299999999999 0.43415744847503157 0.41700089745878605 0.79850958757689117
0.423709 0.367421 0.13505700000000001 0.38988389216455954 0.43090812151754998 0.8138235321252576
0.371832 0.39559899999999998 0.146401 -0.15698526375741953 -0.61770983865785645 -0.7705778235767613
0.68840400000000002 -0.000338332 0.15753800000000001 -0.44734531516340548 -0.17687660872128269 -0.87669654629672844
0.43593300000000001 0.35689100000000001 0.133857 0.33819369964810175 0.49688872852033539 0.79920373684547641
0.42956499999999997 0.35710199999999997 0.134822 -0.34107647209387987 -0.43133380028032114 -0.83523529195055501
0.67921900000000002 0.0067328600000000002 0.159499 0.35951942473623894 0.41684655715761226 0.83485611396405857
0.020237499999999999 0.147757 0.034291200000000001 0.97989228295851827 0.0029742091891224731 -0.19950505727435261
0.68409699999999996 0.0040720699999999997 0.158054 0.37159661769169511 0.35372856235176509 0.85836592307514503
0.44578099999999998 0.34977200000000003 0.135126 -0.50830133788674847 -0.38526524365788944 -0.77019506745484212
0.458256 0.33718199999999998 0.13195699999999999 0.40531839540909581 0.35216785594337291 0.84362005641357518
0.452293 0.34015299999999998 0.13314200000000001 0.44243233656168723 0.3135953057026305 0.84018546274369665
0.33898 0.23588799999999999 0.233401 -0.49827699450266316 -0.13117368263911577 -0.85703763145633505
0.47299999999999998 0.33160000000000001 0.128826 0.44503725010843004 0.31397821004577831 0.83866532635633351
0.69030599999999998 0.00463927 0.15465000000000001 0.45550934080737715 0.27984268831111359 0.8451031358574157
0.66993800000000003 0.013483200000000001 0.158945 -0.42176721249143417 -0.33322060143214138 -0.84325349050472775
0.67620599999999997 0.012361799999999999 0.157329 0.3999907211016529 0.42974074217750879 0.80952474795110696
0.31159700000000001 0.24773000000000001 0.238959 -0.31142614199989299 -0.35613261988862377 -0.88101266456863569
0.12159300000000001 0.045382899999999997 0.27557799999999999 -0.83627085565197534 0.52360938487749942 0.16273987850345628
0.047189300000000003 0.15124499999999999 0.0372824 -0.54094196812124673 -0.67434963492532296 -0.50262745348935667
0.051392399999999998 0.14881 0.0354528 -0.0021821928532058665 0.83097730371137246 0.55630203913964649
0.31655699999999998 0.24481900000000001 0.23766399999999999 -0.15681094427248449 -0.35866412830059513 -0.92020126647747358
0.68366800000000005 0.0116176 0.15449099999999999 0.3358971042600159 0.39724542613639519 0.85403115093271043
0.12469 0.050897299999999999 0.27714100000000003 -0.92162614641763918 0.38640893201157311 0.035963641376372049
0.68942599999999998 0.0096230699999999992 0.15301899999999999 -0.37276970238712626 -0.38043750963205542 -0.84635102070427781
0.103728 0.096649200000000005 0.23249500000000001 -0.87230620732416575 0.47689734310017967 -0.107938893859995
0.12850700000000001 0.14476800000000001 0.0381289 -0.3343880269937084 -0.20184581792686934 -0.92056662615407037
0.33342100000000002 0.244396 0.236926 -0.56098352179359967 -0.096781900171993368 -0.82215007880261592
0.67549899999999996 0.019418100000000001 0.15396799999999999 -0.39191767995969257 -0.28470799835001442 -0.87483820664768619
0.34476200000000001 0.31089499999999998 0.12890699999999999 0.73114325296849525 -0.55719365766197815 0.39365565091830362
0.34112900000000002 0.30710100000000001 0.130075 0.60401947896154551 -0.77753094980897475 0.17494596629867457
0.32977000000000001 0.305728 0.12872600000000001 -0.041914021431574328 -0.88294661630328386 -0.46759863939709551
0.45054100000000002 0.091633099999999995 0.234289 0.46477795066701766 0.27527446602070499 0.84154941918510251
0.65422499999999995 0.0299239 0.15926999999999999 0.37478111913906209 0.31018155131529235 0.87368559445632998
0.66003900000000004 0.0279118 0.15787399999999999 0.35821390018689447 0.30769216902951557 0.88148076032934841
0.49823800000000001 0.29919600000000002 0.12889800000000001 -0.40755378388097652 -0.44298600998205145 -0.79853823214951947
0.66790300000000002 0.027802 0.15442 0.40030965932651996 0.29486666874411216 0.86764383494244657
0.48392400000000002 0.30005500000000002 0.132988 0.39350952967687503 0.48811602672517906 0.77903337188307253
0.44475799999999999 0.092246400000000006 0.236452 -0.51678602847581034 -0.3180736618538289 -0.79483416283341468
0.33883799999999997 0.24435999999999999 0.23446900000000001 0.42551746758229053 0.19220463808095034 0.88430326352588184
0.14715800000000001 0.068128999999999995 0.27620699999999998 0.99984243498627512 0.017484423757216871 0.0030659625885603448
0.32742399999999999 0.30209999999999998 0.13251299999999999 0.1431312285167875 0.98968332474879095 -0.0063535924840869033
0.64775400000000005 0.039230099999999997 0.15961800000000001 0.35901898166396057 0.36749443908459356 0.85793543349536061
0.14738399999999999 0.14987600000000001 0.038235999999999999 0.26694178320791717 0.35411868233380289 0.89629350282145226
0.65234400000000003 0.036414299999999997 0.158083 -0.36622954041501055 -0.3419957010403632 -0.86539867355879452
0.16341 0.14641599999999999 0.033170900000000003 0.44146322509133956 0.43486669377154191 0.78485742625024668
0.49243300000000001 0.29173900000000003 0.13461799999999999 0.40508514044386923 0.42283775756803943 0.81062584449695574
0.485373 0.295207 0.13578999999999999 -0.35339628704812048 -0.46396845912485457 -0.81230802854453599
0.66657599999999995 0.034823199999999999 0.153479 0.37725696912531725 0.32483688200067096 0.86727053411173916
0.64430100000000001 0.0444798 0.15784899999999999 0.35289669820618452 0.34346382999744018 0.87034275884772128
0.65856800000000004 0.041977500000000001 0.15280099999999999 -0.36190148476729367 -0.31902779380590474 -0.87592726987037306
0.63677799999999996 0.052718800000000003 0.15855900000000001 -0.36062866484065842 -0.3042924616925754 -0.88167628064517911
0.34836800000000001 0.243697 0.233242 0.25571833628696067 -0.10069955896036223 0.96149244995050154
0.50013600000000002 0.28436 0.13187599999999999 -0.44963604233065702 -0.33593807361241923 -0.82763098065188501
0.49348500000000001 0.28516599999999998 0.133966 0.45269103169969749 0.3404598163979079 0.82411039505454975
0.65117599999999998 0.051381999999999997 0.152922 -0.3596861093909936 -0.30206792844133629 -0.88282550332346532
0.51423399999999997 0.27463500000000002 0.13079399999999999 -0.43591465109056671 -0.29680291628919775 -0.84963900913671386
0.62963100000000005 0.061498499999999998 0.15856300000000001 -0.37016783824440153 -0.34508310133793263 -0.86249256501169957
0.50146199999999996 0.27655299999999999 0.13489200000000001 -0.40894951160400189 -0.30968152394652843 -0.85840413016539263
0.52228600000000003 0.26555600000000001 0.12865399999999999 -0.41116549547270181 -0.31973635766387876 -0.85364606068353877
0.51541599999999999 0.26784799999999997 0.13087799999999999 -0.44336351432018262 -0.28978035697864868 -0.84820760364369774
0.50837200000000005 0.26826699999999998 0.13392200000000001 -0.43800805843365415 -0.27403863452103056 -0.8561844237879066
0.50195999999999996 0.26946399999999998 0.13542599999999999 -0.45354477998669701 -0.29697794940947192 -0.84029829829136482
0.64338899999999999 0.0593068 0.15338299999999999 -0.36269749694976539 -0.28954156069048553 -0.88578564581917507
0.52337500000000003 0.25992199999999999 0.130747 -0.42882090800981282 -0.32261125686352282 -0.84382143004226762
0.64873899999999995 0.0569823 0.15237400000000001 -0.36247919828483616 -0.31007963880118766 -0.87889672226701776
0.62127200000000005 0.068941199999999994 0.158913 0.40815481361339401 0.31004993385995677 0.85864933857637815
0.53791 0.248945 0.12842600000000001 0.36522847927488278 0.34848658832226759 0.86322954982209854
0.53186900000000004 0.24979599999999999 0.12920899999999999 -0.39599430947160769 -0.32250628922430835 -0.8597547326283651
0.52380499999999997 0.25203300000000001 0.132076 -0.45581065655524056 -0.31118194112060793 -0.83390793550073095
0.51763400000000004 0.25306699999999999 0.13495299999999999 0.43033652689861129 0.33684295712561441 0.83746480275395019
0.62801300000000004 0.067861500000000005 0.15673100000000001 0.36246444019868329 0.33741371356643923 0.86877587183850835
0.53931700000000005 0.2437 0.129992 0.36736056032711678 0.38365909228934097 0.84726142342246757
0.64082300000000003 0.064698400000000003 0.15248500000000001 0.31977450937243179 0.33112574204856127 0.88774996823903651
0.52543700000000004 0.24498500000000001 0.13405600000000001 -0.41382904431723294 -0.31114868224905529 -0.8555302563990137
0.55293300000000001 0.232514 0.130911 -0.46748203234984831 -0.34232228655472446 -0.81503128869878372
0.54689399999999999 0.23499900000000001 0.12962399999999999 -0.39231112878039404 -0.42352970922988631 -0.8165259111839015
0.61995199999999995 0.0760826 0.15691099999999999 0.44929755338742206 0.30219460350753252 0.84072000697675919
0.30128100000000002 0.25361400000000001 0.23891499999999999 0.37766300296143968 0.33937824332165484 0.86150627632888155
0.52761199999999997 0.238564 0.13577 -0.38332964458439156 -0.3271992418814913 -0.86371235935060098
0.55415499999999995 0.227328 0.12968299999999999 0.44816308447956288 0.32895402071627772 0.83122746704157857
0.54823599999999995 0.22817499999999999 0.13212599999999999 -0.42630737134330782 -0.26420795624274868 -0.86513362031329566
0.54015500000000005 0.22884499999999999 0.13449800000000001 0.29771381680023445 0.30822771505316304 0.9035276193671905
0.308033 0.25205 0.23766599999999999 -0.41674686365658159 -0.363919719485018 -0.83299729255403243
0.56225400000000003 0.21737500000000001 0.12878700000000001 -0.46344259117815823 -0.35866844443688511 -0.81029495348749381
0.62778699999999998 0.075998399999999994 0.15404699999999999 0.33989814972095189 0.31454960348338834 0.88630005910228649
0.54836499999999999 0.21982199999999999 0.13394400000000001 0.37682850205246532 0.22662577943583148 0.89813197033397962
0.54108000000000001 0.22083800000000001 0.13495499999999999 0.39180651975501091 0.27272581969091891 0.87869692064521454
0.56919900000000001 0.20990900000000001 0.12919700000000001 -0.4612245591741127 -0.40718377165881237 -0.78833576736841637
0.56396599999999997 0.211482 0.13089400000000001 0.45201366520028091 0.39678903522651449 0.79890056202021831
0.55640500000000004 0.21263899999999999 0.13367499999999999 -0.41075074869456074 -0.37326944020941727 -0.83183757275841186
0.54910800000000004 0.21285399999999999 0.134549 0.33614928531810251 0.30999713986500271 0.88932864074854079
0.57671700000000004 0.200571 0.12873699999999999 0.45053707586060798 0.38307586851670145 0.80639272208716484
0.57161499999999998 0.20355400000000001 0.130801 -0.43361421226408559 -0.37492712516393595 -0.81939512186667496
0.55922799999999995 0.206646 0.13561999999999999 0.37561082701592041 0.38179495360686183 0.84448156879161673
0.58548 0.19378300000000001 0.12870500000000001 0.39103673756932406 0.35846716197858935 0.84769780208170631
0.57914299999999996 0.194934 0.129665 -0.4358001432589701 -0.35517388487192902 -0.82700045141489642
0.57203300000000001 0.19615299999999999 0.13289300000000001 -0.39705101451957181 -0.31157869551720324 -0.86328975921690232
0.564778 0.197462 0.13516900000000001 -0.40127641670808895 -0.28186031518949628 -0.87151133103086742
0.58643100000000004 0.186942 0.12911800000000001 -0.37826402930063924 -0.31432364124277246 -0.87069912868517907
0.572878 0.188637 0.134461 0.38890497829140414 0.27519101875642221 0.87921716376329051
0.56698800000000005 0.19114999999999999 0.135823 -0.37331171764328336 -0.2872822899282329 -0.88210387560865655
0.315915 0.25112000000000001 0.23399400000000001 -0.18170780526536717 -0.36999260258389288 -0.91109151436002345
0.022710600000000001 0.081775500000000001 0.15592700000000001 -0.24686974489771282 0.93047109131780337 -0.27070071532227985
0.58023499999999995 0.17998400000000001 0.133602 -0.39269095331491199 -0.33143298262201265 -0.85787294701191152
0.32410800000000001 0.25199300000000002 0.235734 0.17996009020341472 0.48143280266838462 0.85780931590234155
0.027796499999999998 0.0836644 0.15650600000000001 -0.26177608120453311 0.93241579774278394 -0.24914667051535208
0.59572899999999995 0.17161299999999999 0.13089600000000001 -0.37549026946149822 -0.34426418839338141 -0.86051683663341427
0.042577200000000003 0.086797799999999994 0.15276899999999999 -0.3560812633114257 0.88286145537212835 -0.30620546131110615
0.33918300000000001 0.249637 0.23285 -0.36941874831388904 -0.36213347058744388 -0.85579736963518005
0.60931800000000003 0.161492 0.1285 -0.48282761535355573 -0.34535486241179547 -0.80474064943963719
0.60375599999999996 0.16368199999999999 0.130276 -0.50928636620502366 -0.37618160342193807 -0.77402506318890096
0.59657199999999999 0.164909 0.13419300000000001 -0.36150899294117755 -0.35217664251768888 -0.8632976662123113
0.34786299999999998 0.24912599999999999 0.23242199999999999 0.062058163920380299 0.56573016970621404 0.82225188316902609
0.138685 0.078906299999999999 0.27386899999999997 -0.84722521360720571 0.39321803325068322 0.35719604666721816
0.61175199999999996 0.15551899999999999 0.12978600000000001 0.42782210591944692 0.35372952211692149 0.83177140541712768
0.60649200000000003 0.085985900000000004 0.15897600000000001 -0.4359590676384324 -0.3254598755083884 -0.83905635137211954
0.59923300000000002 0.15821099999999999 0.135487 0.35195608682847662 0.3117542787082887 0.88257361316292526
0.58614999999999995 0.15920799999999999 0.13553200000000001 0.38525397686074458 0.33031343567522531 0.86166838605429286
0.61910100000000001 0.14715600000000001 0.129634 -0.42161613763019179 -0.28195571614659798 -0.86182411582761964
0.61215299999999995 0.084167500000000006 0.157331 -0.43548143939997913 -0.38137426663550156 -0.81541988244483921
0.35611900000000002 0.25041200000000002 0.23260900000000001 0.59590964656793144 0.3543927262039932 0.72062298654774049
0.59748900000000005 0.14866699999999999 0.135514 0.39242252467167915 0.29160476897941595 0.87233664421412827
0.63336599999999998 0.136712 0.128327 0.36314751890203451 0.35027128375150862 0.86338514424002355
0.62708200000000003 0.13853499999999999 0.12909100000000001 -0.28638381571282551 -0.36299959672716248 -0.88668799635141093
0.61978200000000006 0.083929900000000002 0.154581 0.37296005587462178 0.37746599967409278 0.8475967294722393
0.30165599999999998 0.259633 0.237342 0.39068607465245914 0.23994015735899818 0.88870305049504128
0.30849199999999999 0.26014199999999998 0.23630899999999999 -0.43982791466159954 -0.23076596104149671 -0.86792769094494437
0.31451400000000002 0.26028299999999999 0.23574000000000001 0.31141385757604262 0.35384695885345402 0.88193749156035439
0.036711399999999998 0.091017299999999995 0.159161 -0.39813728342997007 0.88316099504379519 -0.24801887100835074
0.62086699999999995 0.13284799999999999 0.133607 0.36082361692887222 0.47482288020495489 0.80271386552135604
0.61560599999999999 0.13528000000000001 0.13596800000000001 -0.47315430511685708 -0.43404157772744734 -0.7666374060488127
0.0837315 0.0939054 0.15584000000000001 0.13510485432709782 -0.92959801036344192 0.34292013277960787
0.458812 0.082588800000000004 0.23413700000000001 -0.42653489324538679 -0.38702602051050705 -0.8174832379272049
0.22123499999999999 0.12876199999999999 0.13079099999999999 -0.1850884331488597 0.98156047974112215 0.047762919978563356
0.61141299999999998 0.0114942 0.186276 0.43299622187874687 0.38154333441176425 0.81666330626806238
0.14663499999999999 0.0723747 0.27527200000000002 0.94019228621911011 0.26894003190194921 -0.20906870682783096
0.29416399999999998 0.26971499999999998 0.23855399999999999 -0.41070064067048001 -0.30524167041029715 -0.85915802178527612
0.171598 0.094545400000000002 0.156471 -0.59559608954187315 0.76292638571366234 0.25141326159198002
0.63594399999999995 0.123927 0.13084100000000001 0.43385037184954522 0.33290959421561173 0.83722461557529937
0.62885500000000005 0.124914 0.134129 -0.36126775931548916 -0.23414903276881321 -0.90258508548091743
0.62355000000000005 0.12703400000000001 0.135626 0.37175292095404439 0.43578135039559163 0.81969163739148321
0.218529 0.12714400000000001 0.133351 0.17453423495269874 -0.98281514377493695 -0.060101530730308397
0.44556600000000002 0.085391099999999998 0.23755399999999999 -0.56829570452649592 -0.34988957696648509 -0.74472630955737529
0.19583100000000001 0.125587 0.131859 0.30271540482978515 -0.94629118299013149 0.11356223260343554
0.60479700000000003 0.092344999999999997 0.15726999999999999 -0.46792315669434598 -0.32718634898067767 -0.82097321056773376
0.180227 0.122851 0.133544 -0.48508617607067051 0.87137081638814329 -0.073513958757467773
0.61134100000000002 0.091128000000000001 0.153557 -0.47672983537592512 -0.32779901073965434 -0.81564482013959183
0.64402599999999999 0.11600100000000001 0.13114700000000001 0.34488996231797198 0.39750060703610207 0.85032004639326164
0.63649 0.116282 0.13389699999999999 0.40001479551050023 0.35951548346103501 0.84305206276034372
0.29397099999999998 0.14860499999999999 0.038198599999999999 -0.62129740024166191 0.38411409331458213 -0.682968450054663
0.61772499999999997 0.0894818 0.15262600000000001 -0.37096047316530734 -0.35755608589038679 -0.85705424145249853
0.17779400000000001 0.119822 0.13236200000000001 -0.52963021533864585 0.84619158284363072 -0.058750660633994825
0.17166200000000001 0.117052 0.13259399999999999 -0.57166157884036239 0.79654199693184213 0.19678385706550661
0.23902000000000001 0.085350099999999998 0.23962600000000001 -0.79242332995402909 -0.23405364096455217 -0.56327982326353954
0.65716399999999997 0.10695399999999999 0.12875600000000001 -0.41143718194115381 -0.34781970362020859 -0.84246121518433847
0.195604 0.083930099999999994 0.236932 -0.70948051088350117 0.18004873671908825 0.68133681618003483
0.64440699999999995 0.108179 0.13375000000000001 0.37214502952062112 0.35402690255891278 0.85800526179484338
0.63807700000000001 0.110304 0.13531099999999999 -0.38671478545482868 -0.31872563219604411 -0.86537023642592281
0.627081 0.10945299999999999 0.135189 -0.26961906894285315 -0.32868749308641859 -0.90513539846309976
0.189385 0.10631599999999999 0.17995900000000001 0.65513953676756975 -0.75128971284759327 -0.079724241817370922
0.16918900000000001 0.109683 0.13516700000000001 0.58406517991834361 -0.49240330066092514 -0.64529594381584288
0.10029100000000001 0.0971717 0.15651599999999999 -0.14012511968047786 0.98081362253678994 -0.1355344556959267
0.15662000000000001 0.105548 0.12936400000000001 -0.33383700048112702 0.69031624238212363 0.64188499173386859
0.15157200000000001 0.104673 0.12861700000000001 0.34104430977680894 -0.76058428012647528 -0.55244939278937732
0.66502300000000003 0.096957600000000005 0.12823000000000001 -0.41463802974226038 -0.37005269911343813 -0.83134607966256502
0.65937500000000004 0.099533800000000006 0.13001399999999999 0.41112022645473512 0.3478407745871625 0.84260723645979352
