0.66574784550135857 0.083185534365305652 0.051190441911225473 0.0016121831327370602 -0.69638849967859373 0.71766319285647073
0.2839596547602713 0.2345058323158547 0.14448783883803812 -0.027493338221037229 -0.53168549876556859 0.84649550899923398
0.55491799444432133 0.31664932242940796 0.19738573359969669 -0.0097800737212050994 -0.50614400937142323 0.86239352498463739
0.793870767269792 0.22387860972781787 0.14758268097852936 0.011042454069018512 -0.53719035006883398 0.84338875496478916
0.75619697371153449 0.22173289890014836 0.14635272148458456 0.0093584619347279151 -0.53543708056469397 0.8445232690379666
0.71468058153200231 0.22470519837296798 0.14778683367122389 0.006562594993246366 -0.53122936466541071 0.8472026289289587
0.70560285550408453 0.22533783626356707 0.14804880317797636 0.0056963662594342801 -0.5303316975736565 0.84777110233840958
0.74363835577970616 0.094076613740210299 0.062379297502142647 0.0063504039007509592 -0.64008660111410787 0.76827652277320446
0.69569639736569899 0.22256279046088595 0.14633182740092152 0.0045141976557749302 -0.53054413666638534 0.84764529201101824
0.66466804527101242 0.22528304227887525 0.14741444729239983 0.00094671755664430392 -0.52758225525718394 0.84950342416238178
0.65404011285584907 0.22310935310044411 0.14594878306138248 -0.00021342938481302946 -0.52746036037852706 0.84957961526701664
0.59588924491788875 0.20704743390631983 0.13547425896475512 -0.0065195871086736997 -0.53007482921860838 0.84792580478058077
0.7650566325412862 0.10041963371365918 0.067503131390735799 0.0074029268281146305 -0.62998405670332891 0.77657278150473097
0.75572445377309194 0.10009958768119569 0.06732088444292765 0.0070689019577212476 -0.6324354792740905 0.77458078673593733
0.74752513129078368 0.10222996913780219 0.069130971776396502 0.0066966355959520319 -0.63255490284248017 0.77448657184074887
0.58181055545110205 0.10448566461199649 0.069891645151035298 -0.0079918750419000293 -0.60404971861922918 0.79690656125379278
0.57257739084264536 0.10205154566145759 0.067892041876445056 -0.0087960558770413151 -0.59974618648782552 0.80014195065270655
0.45514589968786034 0.32590540448471866 0.20078789037658773 -0.015940087732300285 -0.5073528734593874 0.86159095596204438
0.55972545041223298 0.10366113277509907 0.068892933552610031 -0.009631488363793593 -0.59326764375763663 0.80494766121913797
0.52764252682703849 0.1027622376945036 0.067762775846570339 -0.011868274953626695 -0.58262014467041523 0.81265792992737695
0.55596405166285268 0.2255820152992126 0.14539944653912595 -0.0095082505725032872 -0.52149185176227786 0.85320328276243818
0.54543256564587628 0.2252114695659008 0.14504910619893449 -0.010176176788784415 -0.52169138935929915 0.8530735839857706
0.53578180173624979 0.22556814375182624 0.14502859103332566 -0.0109650055939327 -0.5208551320539877 0.8535746599245716
0.81481122315921983 0.12192745359340107 0.074734936443795599 -0.68438510243683293 0.41836849972285672 -0.59714724315044088
0.31319052894240207 0.10110425499598071 0.061795798408804857 -0.029225180392522219 -0.56533978100132254 0.82434023367078313
0.32539810211034292 0.10005527884971696 0.061532146615142037 -0.028643891852553963 -0.56681485143313748 0.82334710277887624
0.51622601455862316 0.22654948380207013 0.14529356771245525 -0.01219197992198552 -0.520344373857071 0.85386947961668869
0.50545254204592305 0.22651320124163543 0.14306678267368295 0.016073921326820888 0.51377548750102131 -0.85777408301735669
0.52564584564765027 0.32667242270010532 0.20258656472397099 -0.011634287359280186 -0.50539607081617766 0.86280904895649468
0.62512015274216159 0.32468986218632201 0.20504588514770894 -0.0058518709259026283 0.49491568338209557 -0.86892129790280759
0.73342272765911931 0.11722716530654757 0.081282048758412342 0.006290649964134397 -0.62447961626210968 0.7810157723094695
0.38250273603674967 0.099530946954036068 0.063113687247218775 -0.024494008260451484 -0.56985057128793393 0.82138320530806597
0.5533385251405859 0.090796076661141797 0.047938816309381557 0.0093696656913817428 -0.93008852094769379 0.36721594813700986
0.56695914211627219 0.091997747856386425 0.04563733509302513 -0.039632301513494464 0.94968415898799208 -0.31069161373299703
0.25227948782917042 0.099701749349060467 0.058481676004881814 -0.03069935141341374 -0.56290900111958986 0.82594854941536233
0.79798887120514306 0.21743600525390747 0.14408345919994586 0.01108528932806278 -0.54117805562930099 0.84083495911254924
0.82744049696331257 0.10346147470070167 0.046244952730745199 0.98233830882925799 0.0051356664969602044 0.18704296815466073
0.75564407821360824 0.21759590752848407 0.14404724017327558 0.0094094341745016991 -0.53742801971634957 0.84325712933379859
0.71305993293394054 0.21722945820703926 0.14351311613427259 0.0063286183563580484 -0.5341271833637885 0.84538044724346773
0.70343588631278386 0.21614938230366604 0.14268680335470432 0.0053693507361998729 -0.53319841827037606 0.8459731773683139
0.69360744438210287 0.21794642637315842 0.14366290350438179 0.0041166700879339746 -0.53232643359311294 0.84652916141466983
0.55577246630365651 0.33393980632505643 0.20739354791402961 -0.0097706199132549 -0.5054114010134616 0.86282318623929
0.53481736868516072 0.097775770391798314 0.064235751998021715 -0.011176792848163223 -0.58928420419683614 0.80784850435321776
0.81566861437962623 0.16247546081253392 0.048756413516664168 -0.70188047837700229 -0.68707190073649826 0.18787228984500567
0.68481020340879195 0.3309525551769732 0.21235963421159507 -0.038090584494426531 0.49127922184951506 -0.87016885347144435
0.57328299839043584 0.095699027359133743 0.063091545027491411 -0.0085013435684238251 -0.60666611070220322 0.79491128893920848
0.30742333702099683 0.21032439372343381 0.13144938208831336 -0.028201913826077826 -0.53757884094727126 0.84274174088052312
0.71497290107066847 0.33237510801112147 0.20934591575876091 0.0066143697032952347 -0.51164913673441004 0.85916902352934088
0.74474614439673092 0.33289370906524884 0.20967141280693144 0.0087632482438613508 -0.51253088033221705 0.85862407500960458
0.75513103045017782 0.33112548740902392 0.21223079821669125 -0.089803057454357335 0.49093783838823624 -0.86655377773715547
0.51647379844985253 0.21803753260720357 0.14044917559236961 -0.012311741923149903 -0.52328807650825326 0.85206690464722912
0.76481665635470308 0.33265763258680858 0.20951637427681052 0.0096574829501026461 -0.51322349440429404 0.85820066290729125
0.77546965133857937 0.33235525277491634 0.20938957455592819 0.010052052656488763 -0.51384491868595683 0.85782419864329629
0.3747087179396062 0.34136607417199 0.2078841125382698 -0.020086969866262846 -0.51185724330497673 0.85883565140125728
0.54994606936617374 0.092137950625904311 0.051348481882758638 0.0094899008288098462 -0.93098065151430354 0.36494515791864185
0.78746115909231895 0.086423991132200229 0.055799752023884881 0.0076802780834236625 -0.63346266734093171 0.7737351371198502
0.67372518119877178 0.3460287180101127 0.21051000380305687 0.037180466280074979 0.55733947448471788 0.82945182084813973
0.70345967248867602 0.35037300620378964 0.20787309503598961 0.052030656591177595 0.58206264943404928 0.81147759236377315
0.35554196778385228 0.093741902607977948 0.058224348689299904 -0.026857711920479227 -0.56966982634652852 0.82143469141539938
0.47338454679655384 0.093357344501115019 0.060444666600169637 -0.01552497742707014 -0.57852676288043337 0.81551564038157831
0.48765676645588107 0.092210980557284342 0.059754157409627334 -0.014292314979001892 -0.58436640506057513 0.81136405784895416
0.77745372970829019 0.096891275614410313 0.064511602540745519 0.007714427536178666 -0.6302560314651684 0.7763490338820328
0.50559979502523278 0.093044708524421454 0.060505360515317942 -0.012997417325180066 -0.58776791286698549 0.80892518056175178
0.51591385514473098 0.09203578507687557 0.057135636429893319 0.00028578735602445787 -0.80897062518019236 0.58784899925164125
0.47637692493487949 0.35219303472920682 0.20639680487970052 0.015207840617616746 0.56708109674924922 0.82352155484444833
0.2527412997711449 0.1189254004744546 0.070026040562979452 0.072264564883243426 0.51345657566609726 -0.85506735264976697
0.48694521355961179 0.35143807691725176 0.20683037119642281 0.015397338930176344 0.56377461164940135 0.82578514712571327
0.79283281868956856 0.3518816258911267 0.20064716077110942 0.076348944545015091 0.62690636707260716 0.77534459796318156
0.52531537954178587 0.20565962445878544 0.13350104404540658 -0.011784000957235988 -0.52854687271445666 0.84882232573443051
0.24440413436963182 0.11335874163605847 0.0674334709572951 -0.030872308103831406 -0.56037146657789738 0.82766582630774277
0.60663279518455326 0.20588731759843995 0.13512686928119852 -0.0053792609316884888 -0.53176198371905592 0.84687676566487713
0.61515466320937595 0.20513662264265381 0.13478615087313808 -0.0044761286329802457 -0.5319319026065823 0.84677530388043454
0.29615551301205573 0.10764022552208911 0.065608818279262793 -0.029861048336232349 -0.56370601754635152 0.82543554780145834
0.30284415826042971 0.10909087693117445 0.066863283518405814 -0.029630583117313175 -0.56367478633437529 0.82546518024385762
0.65613477455700653 0.20591885244896774 0.13597683566193169 -0.00022364331172286127 -0.53364586205265219 0.84570801338153989
0.32408382638078587 0.10845209052347816 0.067236829701189202 -0.028926349831521078 -0.56489041259547745 0.82465877067010918
0.33463888257857777 0.10621502761184679 0.066111641906313953 -0.0283424198842177 -0.56620377520023979 0.82377787794046942
0.34293621227515797 0.1085698864131842 0.068036512955145623 -0.02784792033695151 -0.56674843340890579 0.82342012761497263
0.72507927838517394 0.2049449998891569 0.13689999043306009 0.0072327710538980629 -0.5426983688133552 0.83989652190624375
0.74603437366507519 0.20230179883792224 0.1363892322773424 -0.062484539418696305 0.52329743641323501 -0.84985614981417279
0.39729947056309051 0.10495868417588487 0.067282938515573557 -0.022995348210119039 -0.56941604591852957 0.82172780201913731
0.75481851709270065 0.20555433603105733 0.13793083489570795 -0.066061754923767133 0.52300510856888571 -0.84976555646086294
0.80629210135267593 0.21996341063120836 0.142766027331448 -0.10345680209868319 0.5172457338763542 -0.84956079293139797
0.79366178445202518 0.20648798012056443 0.13575637055709389 -0.077442668806880777 0.52309314894833314 -0.84874978089622199
0.45351491462528509 0.10346748266760523 0.068761146481107024 0.030130636145871376 0.5166981358312378 -0.85563729535006172
0.46152681127195355 0.10406885167409294 0.067894590229046523 -0.016711578125868029 -0.57462394348107748 0.8182469350598256
0.8222287025172621 0.12104840144434686 0.073144919147097115 0.98232021916214218 0.0051092773692227138 0.18713867133760859
0.66454045657391236 0.21866384181975257 0.14491883638761738 -0.019835279848878486 0.51772931477309514 -0.85531451425653815
0.64341120684936581 0.21894636573520571 0.14331666291355896 -0.0016756354063734607 -0.52809778347219327 0.84918191416076527
0.28578909220790549 0.21725622154258034 0.13225219083657352 0.067194637237507682 0.51111899372004055 -0.85687937014794135
0.65519466073695265 0.10787083329589879 0.073891386302567225 -0.00086282377048691307 -0.63444201084245877 0.77296998027951802
0.55698926468848498 0.21915293625326479 0.1417011584327704 -0.0095784416748036002 -0.5235031926152115 0.8519698708151382
0.54242430058043878 0.21953325616261785 0.14168823189097066 -0.010369499161044071 -0.52302324199164452 0.85225533839554135
0.53628973841050809 0.21936053873669575 0.14152094561701881 -0.011018966533507613 -0.5232123359989207 0.85213111305425648
0.78891986116244439 0.33367790540883985 0.052952972213016807 -0.984521060509152 0.0013596660721493284 0.175261041655318
0.2958772098183039 0.11268852865745703 0.069032597121175043 -0.029898564296545992 -0.5628018919226061 0.82605091023576782
0.3045888816000264 0.11307215226488936 0.069633249799780431 -0.029665995938139483 -0.5628412232270682 0.8260324970128331
0.69731797567259801 0.34407718521309016 0.21254152135360083 0.050309515785153386 0.57885515275385957 0.81387693464784305
0.60544234389723872 0.21139440024545256 0.13817190833458368 -0.0053881542607989103 -0.52856081297660562 0.84887833920955447
0.66919754889239846 0.49920354719748805 0.040152823604270325 0.01713088826929289 -0.9611406882560618 0.27552696791016462
0.28265868123218724 0.22038397398192963 0.13662945757901448 -0.028509208566609854 -0.53640991145449712 0.84347592254923565
0.30525765538836735 0.22150502834632563 0.1377974135426647 -0.027592487640276497 -0.53378045682865438 0.84517280986412147
0.81707368824706883 0.096566806137617908 0.0638519775339048 0.0085366568449745054 -0.62682024372161571 0.77911713339566957
0.78421110574165409 0.20998185581255566 0.1398353181928649 0.010451331357936088 -0.5437050581643661 0.8392112841229733
0.32528760469335055 0.22179243675926416 0.13850490591890802 -0.026900619998859773 -0.53247165173404298 0.84602026970002142
0.34233975983202602 0.22293950146623992 0.13947805428248122 -0.025828184560143727 -0.5299635852908936 0.84762698349447851
0.67505846010617443 0.21191783776177098 0.1398764690072094 0.0020653443863297444 -0.53311381554758552 0.84604101202297566
0.37580626296902425 0.22136376365309748 0.14001476726249826 0.050244636188499614 0.51177509429433332 -0.85764895463954927
0.62622248141722836 0.21214799082725311 0.13839533059372233 -0.0036533256073795635 0.51782415779512248 -0.85547927784124533
0.4275334684886915 0.2195658464284703 0.13970645620646716 -0.019052496517562016 -0.52448314339676494 0.85120763311256609
0.59549097223787639 0.21441009815826684 0.13807707258567581 0.0042861477378083853 0.51639371120136601 -0.85634056541147807
0.45707722069137902 0.22273677610317591 0.14201819768359208 -0.016434317064283818 -0.52141832824256362 0.8531429189739318
0.46704344132956055 0.22106598206257683 0.14133056999188245 -0.015642201823947793 -0.52240642610386856 0.85255313470040228
0.47432531923934323 0.21920920034170105 0.14042824861606518 -0.015156778412662993 -0.52305871001942006 0.852161873085724
0.49558773381064047 0.22105791547063017 0.14185463075072663 -0.013549100201525289 -0.52222293374631656 0.85270137173169791
0.46392450509648075 0.21394795011841267 0.13716423933865746 -0.015831525287511874 -0.52436497484422895 0.85134642535438065
0.59240693360158236 0.22190371964172273 0.1423576240886294 0.0049476929351669266 0.5149781377645779 -0.85718903280381897
0.29469646962568657 0.21764992711599104 0.13318936129942771 0.06674459868777273 0.51107282444052404 -0.85694207894372509
0.7668179783204625 0.20511025140470263 0.13693485212571122 -0.069189864332619172 0.52375436562848576 -0.84905484343400117
0.71615047931760922 0.20485010742143087 0.1366955637960531 0.0064313797286800062 -0.54161003529737539 0.84060526230803556
0.7053413323043416 0.20197219473626718 0.1365286385132361 -0.040196766228592154 0.52362951057618401 -0.85099727122859203
0.33471351360131024 0.11171617061553495 0.069879081128876017 -0.02836387138182286 -0.56508450214179151 0.82454532697687333
0.32374077692604697 0.11320709081183167 0.070468239246840966 -0.028983188780901396 -0.56399595839071337 0.82526876451676723
0.69513145627889228 0.20460336332498383 0.13618006535883159 0.0042274639100396243 -0.53921197923153097 0.84215946827314381
0.68712806532427584 0.20266680750094848 0.13489064712102758 0.0031101375846146256 -0.53925910759991047 0.84213415909506539
0.67391307362197073 0.20527011100139553 0.13604839354862749 0.0018496352605855621 -0.53605118439036525 0.84418345551372265
0.66468639553925046 0.20527317679999826 0.13579500804392125 0.00078322545480700198 -0.53470967285979221 0.84503547399387968
0.6320381619597174 0.20538022089422972 0.13525780123083816 -0.0029537250632859736 -0.53281684386250461 0.84622543474221446
0.62594879623530419 0.20646382659155735 0.13501449580948161 -0.0037638189697323486 0.51902964479935876 -0.85474795202224063
0.37444153592727203 0.22912697402741347 0.14453720872526901 0.049688964707481027 0.5116828633490822 -0.85773635468084442
0.38299019203843115 0.22886277918509709 0.143887630762704 -0.02216972915669348 -0.52448665394642402 0.85112998592530087
0.58650686890614578 0.2063005241014555 0.1329268882303736 0.0055553284871665684 0.51730057854141986 -0.85578574991998546
0.57354207280432401 0.20421316849662027 0.13346138608066166 -0.0082074216026902548 -0.53067532089432878 0.84753545178024081
0.56428852246719963 0.20564774831033605 0.13412676497429329 -0.0090019938593076752 -0.5296391910870506 0.84817527161030326
0.54582326355260036 0.20698820762964962 0.13184919268963519 0.011439769797765693 0.51546520198873502 -0.85683414801563951
0.53683884357130129 0.20723372925277053 0.13184478237563768 0.011929945568482711 0.51559366453541911 -0.85675016748738997
0.47906559905887952 0.22809520074438627 0.14544025542194663 -0.014714236774884801 -0.51907779873456372 0.85460033354604548
0.49680698954797159 0.22680336432598416 0.14510069828411418 -0.013494751244873348 -0.51999880895957151 0.85406037864396112
0.46373125145144495 0.20203190851687947 0.13045260309158374 -0.016117970389347498 -0.53033405745422346 0.84763553402076575
0.63115387191220873 0.22680762973104449 0.14764221212589818 -0.0027556842682186283 -0.525194688577168 0.85097764088990346
0.77236484104902214 0.22527140857934388 0.14840334505860517 0.010086262509629918 -0.53519958918348953 0.8446654172193927
0.29442465374335403 0.23669582433174399 0.1446002366475618 0.065775210245966248 0.51046327154850635 -0.8573802366028126
0.7308465422082252 0.19767014550487944 0.13293096164287682 0.0075526730662825369 -0.54834711627910504 0.83621671664583663
0.76419858114975414 0.10223201361965728 0.068982881695650713 0.0074070762474020817 -0.62963573850579369 0.77685518085273075
0.66115876432791432 0.1985397176190031 0.13201981001516097 9.0211728973832098e-05 -0.5390359925915289 0.8422827260206095
0.6520962081417172 0.19884035360675478 0.13201567379940557 -0.00097064662924596201 -0.53817214527866275 0.84283438461614935
0.62080583967637215 0.19959550595937334 0.13170659545286167 -0.0040678658852294908 -0.53491438592770713 0.84489647424682979
0.42543748718904084 0.22560885335869543 0.14310542164060339 -0.019103716897695428 -0.52280893170793785 0.85223580594052573
0.6050665047517062 0.22310786566815508 0.1448725014901758 -0.0055098842932620054 -0.5241189910671834 0.85162722148707337
0.70700011774383398 0.20651298832196102 0.13733039107167197 0.0055133079955546217 -0.53860911775574483 0.8425377271703175
0.67815300664908928 0.20637710502932924 0.13677687594263208 0.0023292340235729759 -0.5360197884171426 0.84420220391450351
0.63471874701709319 0.20715552003351728 0.13631408377312465 -0.0027981789599287308 -0.53211258222588909 0.84666898492350884
0.62483643132088595 0.22362990710426303 0.14502834037383125 -0.0020801655446915858 0.51468147012986243 -0.85737894610042198
0.54560431547231747 0.20927252326050066 0.13321919149351191 0.01144088801267229 0.51543339757742879 -0.85685326558476149
0.53780047686116628 0.20886689500446803 0.13283826942950941 0.011949332788523923 0.51519814050264401 -0.85698780006983
0.72537661794604535 0.10219906179437561 0.069310609031382461 0.0054341973928533792 -0.63814521594705431 0.76989684559854055
0.71619891263960178 0.10207876432227266 0.069263839748035669 0.004893942029028344 -0.63965131909329842 0.76864962064234421
0.67547039832770217 0.22439628442707571 0.14708142780955014 0.0020140462901428158 -0.52863817342416297 0.84884487700421773
0.48206615593494734 0.20841013064890312 0.13432587517258415 -0.014610981123494545 -0.52649196206801896 0.85005454713705086
0.77777474342413699 0.22562645226910855 0.14862773491295636 0.010463942586792081 -0.53555401327288499 0.84443614606010731
0.59553825407295469 0.10224225258630285 0.068439822392947033 -0.0067147608371986396 -0.61123778559471398 0.79141852483257535
0.38394439183516205 0.23473083075960863 0.14720593326114723 -0.021822786584417886 -0.52280784845221084 0.85217117974175882
0.42621612074348614 0.23207442773408585 0.14653536428955963 0.032279004711537801 0.51300334962769845 -0.85777947581274872
0.46532781963712377 0.23234656483151525 0.14662050006138086 0.023397874311215709 0.51353109796628771 -0.85775191687297059
0.55681733938315336 0.097639264708608994 0.064386362595906008 -0.0098240202609501479 -0.59629039324403388 0.80270869906261
0.47464656860703025 0.23197654652688759 0.14764386727990469 -0.015034089384292008 -0.51855994061223321 0.85490909700892892
0.52671765936249815 0.23323829299100038 0.14920923780787865 -0.011487622788610936 -0.51795619280513994 0.85533000465169662
0.58750695610964621 0.098253566325179773 0.065229099194081236 -0.0074427744044601608 -0.61163505960246489 0.79110502398496585
0.54616983503632832 0.23369589680613995 0.14791029421418345 0.011561697622781284 0.51297166054901233 -0.85832767788395836
0.56517565256514435 0.23413796485344415 0.15043837228265494 -0.0089175351728839128 -0.51905903263711306 0.85469187325273233
0.58727607498425283 0.23348303276979365 0.14900525343802878 0.0059355465245491974 0.51252022110767137 -0.85865464084415144
0.59560706488803505 0.23241109750466693 0.14869087680738285 0.0046981973478283246 0.51343758397252404 -0.85811408000692913
0.75558329881570485 0.19907433883838752 0.13390106913192504 -0.065013051579110248 0.52466793150357693 -0.84882086730718975
0.7140561852054732 0.19937349398782944 0.13354215588522483 0.0062227204575836777 -0.54441023416241852 0.83879602686787169
0.61646231166092458 0.23352573338645274 0.15115494483698852 -0.0042948398463246718 -0.52198576360493421 0.85294338437229711
0.62495100544953575 0.23205720880420813 0.15052043715961017 -0.0032780697188300937 -0.52308759105684277 0.85227262442323448
0.63517030626390647 0.23235236754579436 0.15085102432975664 -0.0021366587817083383 -0.52321496130669276 0.85219806321892477
0.75698238095136561 0.22890982624390982 0.15036322663833698 0.0093386619432561952 -0.53234126134623916 0.84647833454932842
0.76527320674446098 0.22950140060446297 0.15072279768139346 0.0098447205199555937 -0.532717653028002 0.84623577307404174
0.78601372453947338 0.2313078048910685 0.15174480897667283 0.010703366198004702 -0.53342091709865425 0.84578221969586354
0.79655466102437833 0.2285267545899359 0.15032998444650836 0.011156909852837616 -0.53612259484399449 0.84406639943802875
0.80753105012798054 0.23291591888688012 0.14953304555521268 -0.33498226711612278 0.48347168796834317 -0.80872863659622163
0.31595167620958681 0.23945265833228177 0.14828899736976189 -0.026055457688636725 -0.52809349671595762 0.84878641120775988
0.38587026270020075 0.24044615236326014 0.15044655535348497 -0.021684297154178491 -0.52135425973463567 0.85306478482790471
0.75532509748958043 0.095671118871898123 0.063667906120870532 0.0069022108349250377 -0.63506590211160607 0.77242712242693945
0.46677691790132392 0.23959181923740147 0.15094951077818961 0.023049189357924719 0.513311005864304 -0.85789308548823207
0.78529670214227942 0.18948726585578404 0.12859715179965819 0.010357064771172549 -0.56019239310626234 0.82829778094306428
0.7666668733027302 0.18989167470591611 0.12851663304017744 0.0095539467584564788 -0.55602155978921908 0.83111295691434173
0.42549072673266231 0.1042930881553417 0.067472599886192836 -0.020277234662843719 -0.57222558541231217 0.81984554225412754
0.73511024563078187 0.19237196569848708 0.12974286333457255 0.0077764797015500648 -0.55084715967197651 0.83456990902186712
0.40780658335209141 0.10440258734206383 0.067164449419227112 -0.021897486883238729 -0.57093261527818995 0.82070484882191641
0.71341545440370147 0.19298363285752729 0.13053674500232373 -0.03986719004047419 0.52583677355151781 -0.8496506898362447
0.70636617678965885 0.19223699018833817 0.13019995834278197 -0.037804426512581667 0.52577748849904637 -0.84978165308724463
0.69513968821148597 0.19130250083385014 0.12871508496469114 0.003998134782473654 -0.54788563683896307 0.83654368915426358
0.6736756943538037 0.19326693052881805 0.12927717377004042 0.00176338329915085 -0.54325860797089121 0.83956356242089836
0.66544453808911364 0.19407157824469151 0.12948955635611967 0.00059857138612944157 -0.54160922807514889 0.84063017182119815
0.63617987489906647 0.19368905856306537 0.1286590015205504 -0.0026438195080543412 -0.53939454022004063 0.84204901294355772
0.62637788853234044 0.19365889712564019 0.12842946197221297 -0.0037054659522950196 -0.53878003120650464 0.84243833453564676
0.59516441104723772 0.19253034146751316 0.1272373369270402 -0.0066702593316834797 -0.53855811539911769 0.84256196447394816
0.58509645265320875 0.19412076670128151 0.12564336916487401 0.0051368305079459763 0.51824345794760129 -0.85521770986506429
0.54813605315498126 0.24057934840348544 0.15206431084557159 0.011358146984413545 0.51245529500716691 -0.85863878500577751
0.55306976169190991 0.23889163983433789 0.1528507257969238 -0.0095586765511558331 -0.51682571513837039 0.85603727247959382
0.53542228232126421 0.19625559674661314 0.12520341949836541 0.012573875420316818 0.51585318560595561 -0.85658472351373505
0.36492058208189043 0.10389901463183053 0.065584571373141082 -0.026200615551760877 -0.56868238750111999 0.82213981164442762
0.5843568552641365 0.24034096856534151 0.15426446746594202 -0.007186825852370478 -0.51754198229927406 0.85562763284731846
0.46694989783245749 0.1955995157337323 0.12435270936546784 0.02374812104648192 0.51511469070118032 -0.85679220477930873
0.45327478815289168 0.19415501457542517 0.12585353568241267 -0.017203171711076423 -0.53563483994057293 0.84427446314863508
0.81310084047612419 0.097986919980617787 0.065043500430213286 0.008504732330280507 -0.62661801061063005 0.7792801410958492
0.59602574719322254 0.23925354766060616 0.15291698426157913 0.0043193785567355999 0.51159117200027149 -0.85921814209214198
0.79177974809389806 0.09750794281259835 0.064874555151463814 0.0080306052289238084 -0.62926823313580971 0.77714670439100075
0.60569075173627174 0.24032379137545276 0.15473348063235762 -0.0052442738392192659 -0.51893675627299196 0.85479654923307014
0.62563000112937883 0.2376656752456803 0.15362835462591487 -0.003208746153405875 -0.52073055736400908 0.85371505233039646
0.69437772908113626 0.097390537407828423 0.065354927821724348 0.0033578632031158557 -0.64782777075096465 0.76177943277470073
0.46597712180621276 0.10190327321945129 0.066425179114431798 -0.016338030208655149 -0.57557803850262101 0.81758362897160342
0.47606116363970141 0.10245109315878066 0.066915795117518204 -0.015297410417538671 -0.57640193772883508 0.81702313028271212
0.48654794761656234 0.10239138286697154 0.066993038237262575 -0.014646882276097627 -0.57603932925850621 0.81729074385251688
0.63327911374196355 0.2390681778992258 0.15464074591836419 -0.0022209779016381338 -0.52111155992234459 0.85348568199616626
0.50568036006254713 0.10119942177088599 0.066377842633374776 -0.013243029708689347 -0.5805336215230843 0.81412857488570389
0.68289613673825389 0.096337848142485943 0.06444980882382198 0.0022639087237900039 -0.64791471436152459 0.76170952313274531
0.67817023072585281 0.23943607972269781 0.15544625708611137 0.0026901510089143437 -0.52248772478835903 0.85264256317230203
0.66860293268777549 0.09674750582745599 0.064755569529670418 0.00087988761061226961 -0.64692918574324598 0.76254957506471244
0.54484342334219305 0.10140944589114423 0.067012749815168832 -0.010631999894136088 -0.58990285274756138 0.80740422645570786
0.53927172717134564 0.48970793094580972 0.006599669306778507 0.035586530176069081 -0.98392113630948563 0.17502227399242187
0.7572455582713733 0.18495396022186192 0.12561904385622114 0.0090939681435492897 -0.55859396074769629 0.82939139539761642
0.74370263687633753 0.1841460550543578 0.12516450220959144 0.0082352061690510077 -0.55839235746097671 0.82953610922522591
0.52564103011132313 0.18700244327974394 0.12267426639745795 -0.011868402756040774 -0.53840288541085024 0.84260398408581672
0.51376843051716325 0.18725723359452648 0.12270245309024791 -0.012713477798933896 -0.53863695648048038 0.84244204346394125
0.50571444633593476 0.18919239982122019 0.12054580165065112 0.017485695593602735 0.5155365936996168 -0.85668913323690765
0.49720835269022745 0.18999432050510451 0.12122839316795599 0.019641534645626752 0.51524277953451347 -0.85681916893491195
0.47740182100281509 0.18714209597134393 0.12210486721293869 -0.015095507963089502 -0.53862353571690702 0.84241130833527755
0.40843704299593642 0.18718396040435792 0.11957444809051246 0.04002667583580196 0.51439655366578729 -0.85661779738591493
0.65823071024614299 0.17962914933980415 0.12062901199244383 -0.015052290027726838 0.52588458395680437 -0.85042273777310295
0.64186257906116162 0.1795041920390047 0.12072490652174334 -0.0023306641016676163 -0.55047500039444441 0.83484839458765303
0.66526192393269523 0.099363411591135695 0.07096844800631362 -0.022167213013057702 0.53788811149794535 -0.84272474401574782
0.67497005535583254 0.1011881121679751 0.072195308044912018 -0.024491893077958859 0.5379277326299855 -0.84263509400037484
0.47513756354725589 0.23766894552276938 0.1508790412920456 -0.01502831987483513 -0.51698340159949141 0.85586348915721278
0.69582038652118172 0.10212110309900006 0.069371841881398735 0.0034226056382476388 -0.64554023382018666 0.76371859496153671
0.71654149109284915 0.34827740175042976 0.20900983536612167 0.056697451824120636 0.58983073525528984 0.80553404813505902
0.28848737395155694 0.24843298190987853 0.15250999396983062 -0.026568792167812313 -0.52815733314633306 0.84873077635166327
0.56528053302507575 0.46715012434026132 0.024278868888594301 0.010906829139787216 -0.74868650620249555 0.6628344865110869
0.80979379037936849 0.19071389897446339 0.12212471857192203 -0.60223017002807178 0.41533272182483921 -0.68177529471925757
0.79573537330637367 0.18734147903036905 0.12736453841916609 0.010662989009054196 -0.56287929148508609 0.82647032849500424
0.50554234289920152 0.19048352575021396 0.12131913016332098 0.017480194934670186 0.5155254903800971 -0.85669592712549203
0.33482552364823076 0.19249771052891851 0.1206820350363218 0.05972520924821717 0.51245913909800955 -0.85663208563255655
0.77540541635996341 0.10245507332960357 0.069055697446326572 0.0077545527591775833 -0.62875817830876668 0.77756222909896178
0.3262530787141652 0.19308489208598917 0.12055765473029123 0.062131006029290531 0.51233441318018891 -0.85653557261861557
0.79537866428151005 0.10174554885282462 0.068264427086250315 0.0082073543948362488 -0.62688926043559645 0.77906514136132965
0.80578629810258873 0.10098811431144704 0.067540713363641272 0.008385829759654493 -0.62658993095957627 0.77930400761148133
0.81346034263321165 0.10275131169908397 0.068866523982270278 0.0086607377641351284 -0.62443098426715382 0.78103196958161347
0.50579107977211224 0.080304469476446719 0.019482527901449841 0.012261766128822096 -0.94038412703571095 0.33989313425058437
0.50411477996672593 0.35157446719807267 0.20649880147446428 0.015532600715274951 0.56087675223041611 0.82775359082427435
0.25830929585829093 0.18986324865439003 0.11764864462413717 -0.030409161474004992 -0.54642113324300079 0.83695831917956509
0.33767571605140723 0.098803720728694283 0.061120458563377597 -0.027917070502984274 -0.56794563916729135 0.82259247998348983
0.78595827905691051 0.17911473505288597 0.12274970536719369 0.010317057562922827 -0.57012429024477962 0.82149367130619433
0.7748306784022938 0.17876955997088947 0.12251874951805945 0.0098268600006458182 -0.56911444317278992 0.82219960070207598
0.7569534417504109 0.09111543872734662 0.059809950837871974 0.0068514628389749711 -0.63919753004153701 0.76901207730812948
0.76660812307689685 0.18099457217049619 0.12361503034602296 0.0095192368775381103 -0.56483709152303796 0.82514752872990194
0.79485811241768423 0.34106094341370052 0.20921275437390208 0.077021635712281628 0.62815871366500386 0.77426371352332679
0.75506251416964121 0.18165328437943343 0.12404982257295351 0.0088795356663314354 -0.5638086108466257 0.82585773846440924
0.74744944765814891 0.17811065308910717 0.12079335554387399 -0.054745035218115065 0.52848446492822254 -0.84717598611415879
0.28504963049638282 0.259126897801429 0.1572738957455429 0.065198873680177946 0.51007953142351925 -0.85765259778863789
0.29634137044575365 0.25613418657281917 0.15635006187155831 0.064828441980354826 0.51007435496356113 -0.85768375612396142
0.70714382330057035 0.18071002170272377 0.12298747503684095 -0.037152109342071166 0.52786180996265863 -0.84851731293732646
0.69309897794963571 0.1819918520357541 0.1234057205770047 0.0037046270290509334 -0.55487413406413977 0.83192606106861844
0.73322978408668071 0.34382435559744634 0.2116272217093956 0.062278031539832857 0.59997598997299983 0.79759028218969819
0.67568509804415822 0.1788275519040593 0.12104406567710395 -0.023198085661681848 0.52788263201587859 -0.84900045679470737
0.66572482022156021 0.18157780388781131 0.12253329520894522 0.00033289130074064222 -0.55183259359906212 0.8339548415982212
0.66385924438607058 0.34389216426351382 0.2116439648403598 0.03291795723435445 0.55041056833287694 0.83424493666967903
0.64486485474769228 0.18038655320045058 0.12130354683483953 -0.0020648489939033452 -0.55015520158287201 0.83505987244624669
0.63381185354582925 0.18158091402330392 0.12176386859469664 -0.0030933493366455751 -0.54837318141878122 0.83622801022838611
0.59571033471633106 0.34605896632227284 0.20996586344846835 0.021158905333902338 0.54345338779589136 0.83917263779167606
0.62415060164129332 0.18272836855775565 0.12102811905881904 -0.0054776832704792741 0.52274313753122137 -0.85247264305079196
0.6158309996230501 0.18315592924815649 0.1222085893877778 -0.0050755707885508997 -0.54558775161761508 0.83803833078565448
0.59383015043180776 0.18198679989865665 0.12106082963443843 -0.0068414896819616383 -0.5449334806470022 0.83845136751565674
0.58507840228474783 0.18337097179784514 0.1191027455327439 0.0051515897431471088 0.51879696177894818 -0.85488196470159028
0.57665703682754466 0.18265801582661334 0.12104595291228414 -0.0082024545902665818 -0.54307397481245234 0.83964479252842306
0.30530331687895901 0.25411635027744323 0.15608066874519774 -0.025632817360902612 -0.52541338265640825 0.85046089622021626
0.53689312261910671 0.18370972540671823 0.11789589005521173 0.011839161477724175 0.51683312577819907 -0.85600429575665127
0.32664419396317035 0.25509890735131663 0.15789118846509773 0.061355908214623417 0.51001907839597349 -0.85797202297002695
0.54528092392478633 0.079607624217452225 0.018788801144273719 0.010183167586668653 -0.93308414041167986 0.35951396358152543
0.33401216146553458 0.25512114200465591 0.15831818744470616 0.059262371756318724 0.51015849531775936 -0.85803629349167709
0.54545036581334139 0.10762223006724062 0.071510299924158749 -0.01066525884842545 -0.58596200995032921 0.81026833527459685
0.56411433464207239 0.079618827153699209 0.020228946948708779 0.0091900381821018243 -0.92747064755789388 0.37378301341386921
0.34712263301371477 0.25488626589834062 0.15758457064119877 -0.023657804862581736 -0.52169555406098966 0.85280364512710727
0.40508562657256986 0.18348158098551065 0.11836478851029332 -0.021717160641296356 -0.53998077513179377 0.84139712824667234
0.42367469559094806 0.25373701084204564 0.15901066420929005 -0.018521869763020071 -0.51634432818824361 0.85618074907598396
0.54604279224221675 0.25296556326322089 0.16059511792467532 -0.010010051563495296 -0.51230727255074682 0.85874388344797603
0.58645189466564362 0.2518271182326961 0.16079218219714997 -0.0069671696322305904 -0.51453796843442301 0.85743929090443038
0.59469039969369863 0.25178122249394302 0.16094613446790307 -0.0063644803439429111 -0.51506282476725884 0.8571288000835835
0.73439918940179338 0.33729864338799087 0.21228189558183336 0.0080641048379299727 -0.51214302824650915 0.85886232239612081
0.60497911550573802 0.25150890248095248 0.16105603360404991 -0.0053577199213640878 -0.51592798165655362 0.85661520683504044
0.75517493740127417 0.171769814196922 0.11817083123431843 0.0088337002652595833 -0.57194597067114894 0.82024372742049101
0.59706118915467876 0.17231068658665322 0.11526542158406321 -0.0068457343072474879 -0.55063452400340462 0.83471836980944569
0.66488551019987274 0.10774332761280492 0.07392243590351194 0.00032976678979858168 -0.63756464930686119 0.77039678686251245
0.58611877376735466 0.17696725702709751 0.11530470391266476 0.0049986136510264722 0.51955075156462616 -0.85442497061485734
0.5753700388778894 0.17500678215805132 0.11656431326591414 -0.008363265895360553 -0.54904815549011232 0.83574887300939193
0.29541499218055628 0.25976602384223713 0.15844789207507082 0.064681852256618044 0.50997277077977965 -0.85775522793617964
0.71524710580180606 0.10784690154198281 0.074025580171804731 0.0048827177006275759 -0.63557715059658693 0.77202191983607527
0.49638005539687358 0.17554952641987648 0.11548179249190418 -0.013790780430197616 -0.54546720032035245 0.83801870369926856
0.32771853032283454 0.26099986700597499 0.16034041861295911 -0.024148240965062819 -0.52147594190010405 0.85292420793274037
0.38337161394190011 0.17658616295903951 0.11373933238605963 -0.023903600257266983 -0.54475277749287065 0.83825594498848843
0.33269856800760372 0.26167639271254023 0.16085194544796599 -0.023978105708693652 -0.52118581657955232 0.85310632106609552
0.78314292086392745 0.10793871303579014 0.073357610627519096 0.008134914438001354 -0.62474212581247501 0.78078876746684567
0.7950928246030059 0.10765980376605208 0.07299664828780246 0.0084442295866063895 -0.62385351442141213 0.7814956733922086
0.81512428319839036 0.11375238155307468 0.069614852969298757 -0.62724140614141743 0.45304061059024014 -0.63350013699900631
0.67673498112200448 0.34618728209878863 0.21428112090092089 0.0052007894340761829 -0.90452615225657329 -0.42638643467303294
0.6641744970862633 0.33979586337190815 0.21417268791178556 0.032057448347760323 0.5487494827102477 0.83537196818582926
0.35611280031680131 0.26042581556687666 0.16082439184854416 -0.022831413928460633 -0.51962734766277374 0.85408790302812398
0.37447866530765073 0.26053001891070809 0.16148353112169217 -0.021890365296309042 -0.51858581901590062 0.85474531892418204
0.40753469832051914 0.25971716837916475 0.1620023806444825 -0.019700868291419194 -0.51652766807795913 0.85604383293059816
0.78174512107333149 0.16646963823611416 0.11510710571383774 0.0098695256444646783 -0.58086002492969802 0.81394362452335955
0.77502192519718882 0.16620465189557521 0.1150218407038625 0.0096443309281090319 -0.58111844825012837 0.81376184230050497
0.76213064603817615 0.16758535770446428 0.11343304794844074 -0.05809499188195321 0.52959878355580436 -0.8462565216141309
0.74546137325094741 0.1661028456020997 0.11476200547359587 0.0081741786161487247 -0.57645732590945531 0.81708636887985797
0.73315245410147234 0.16315591750779115 0.11287106167798831 0.007246239663870494 -0.57754934244162626 0.8163236178477129
0.70730744343262586 0.16717215453685616 0.11483479096252527 0.0049962093752824628 -0.56838762891637684 0.82274573301032528
0.68922181849240349 0.16723791078404299 0.11458382479029312 0.0027191822959680245 -0.56617667986062759 0.82427942666891652
0.67925537372992617 0.1649117966179055 0.11291190760642937 0.0016105720164390949 -0.56607006746963873 0.82435555725226872
0.66475875262401773 0.16754768145271845 0.11417980792901883 6.1139808388911893e-05 -0.56192939245119344 0.82718519943320823
0.64484254553819031 0.16656204262114185 0.11309975319972997 -0.0023028864371344854 -0.56001688961119822 0.82847799009041678
0.62957646560467739 0.16765420698080619 0.1124029562640862 -0.0089822295261130485 0.52636949185970971 -0.85020849066102078
0.5940314666126344 0.16696815981818447 0.11211043457955958 -0.0071448367705176964 -0.55555213750325561 0.83145100506469205
0.57274068465248207 0.16761642996415055 0.11195891718889291 -0.0087191135495681346 -0.55308760229927156 0.83307747613397432
0.42113718414803225 0.25763045963561826 0.16113732316708634 -0.018698453395586428 -0.51571995815651583 0.85655314639528046
0.38604074265058919 0.26680245679639275 0.16527691998704017 -0.021007674594429347 -0.51652254792288022 0.85601584979215817
0.27854857176416603 0.25416299019915195 0.15538574979904723 -0.026435514980845072 -0.52725032744592326 0.8492986846545002
0.65648585621491784 0.34077582053194766 0.21345236985030583 0.030075844371856751 0.54617535794516381 0.83713076753801852
0.6434883216583569 0.34206466197373658 0.21276014822883182 0.028460962478528241 0.54485734649357342 0.83804561068403538
0.5776786988259367 0.24926323378383958 0.15915009566338367 -0.0077613039515681912 -0.51466798086771748 0.85735443757556784
0.58206413674331825 0.24980837300483066 0.1595202609155752 -0.0072727242885269475 -0.51451491580274467 0.85745058685496123
0.3526572575866615 0.26001941230100689 0.16056404815411884 -0.023152376194797052 -0.52022670467665411 0.85371432178323203
0.25191627514054749 0.18070909449539085 0.11176487233561698 -0.03062129889014276 -0.54900252550018724 0.83525957824421071
0.61535932153681216 0.34348610579739564 0.21162269028634162 0.02333608169962367 0.54144863979316582 0.84040989865484039
0.60258570440490689 0.34279720012457821 0.2120144245875478 0.02163000033960932 0.54244535988115139 0.83981258303785655
0.81419167168621265 0.17196789743551963 0.10540451690088545 -0.71874409231771408 0.3671775236492309 -0.59041307225128736
0.58563116600433396 0.34257544611611662 0.21216704529345207 0.019945306788938109 0.54546332949244336 0.83789733315968573
0.57418135182128949 0.34104364468893245 0.21306481042530448 0.018564888458241977 0.54664440776409429 0.83715902693381716
0.35603668762678198 0.26588883480038472 0.16382280589531356 -0.022682879300097061 -0.51865711687397043 0.85468139215887806
0.37546271886832328 0.26666655008598966 0.16488818933626534 -0.021685930579167682 -0.5174081457854347 0.85546392740418575
0.46902618337169405 0.33842034041380004 0.20835028392977006 -0.015143245551884475 -0.50645904185582968 0.86213103472536601
0.79090729885718647 0.32266148995456068 0.064189194142038761 -0.98452187306599748 0.001325616140841422 0.17525673794883623
0.29543611758002486 0.17236626728735527 0.10821503819866972 -0.030127962445775865 -0.55076154142064582 0.83411871479473465
0.41407609926754851 0.26396019644054891 0.16452486871458669 -0.018944213522816267 -0.51497878298504174 0.85699356464867771
0.25029870809986421 0.17467171832256254 0.10356331000308677 0.071198406573934045 0.51249372881549049 -0.85573416714896178
0.42486148807649027 0.26372272685932058 0.16467485435992596 -0.018210503839191927 -0.51445058489147588 0.8573266432665797
0.79598861565953138 0.15923109639720334 0.11045737878608358 0.01001822396247398 -0.58820741167677171 0.80864805449413546
0.71550256611247631 0.15890436845645703 0.11015313788636459 0.0058488341423069534 -0.58004589724503475 0.81456279575510837
0.74815084566068613 0.35287021083933084 0.20386429215366564 0.067223976897719029 0.6092835011946266 0.79009781173097315
0.72985649218790749 0.35432819725885378 0.19768811142941245 0.0044871796110709274 -0.90398529699961627 -0.42753999582220781
0.70600966296203305 0.15925176211032646 0.1092016002234695 -0.033910458776652275 0.53232465177061783 -0.84586083128541156
0.6546877896880221 0.16009322982967392 0.10961632485631925 -0.0010979983385518252 -0.56829510095789337 0.8228240836454086
0.63556997135962467 0.16177779101531725 0.11018118345576035 -0.0033334667860258687 -0.56479057244701047 0.82522754272634691
0.61449691836622733 0.16047098861806747 0.10895284562294284 -0.0054317402566755931 -0.56514188474805771 0.82497584588956119
0.60626277505508075 0.16222612621201202 0.10962048190640783 -0.0061389623932067827 -0.56071107874194825 0.82798876762717943
0.43661616727204267 0.26666258026927786 0.16649294198813536 -0.017233898507575517 -0.51270689974044814 0.85839071971962089
0.5646937876782876 0.16225587427777172 0.10847343226306204 -0.0094010499334686685 -0.55602043742564877 0.83111545132137843
0.64338956851876361 0.49156861728841117 0.013542998006709684 0.01957683593929075 -0.96457427657617145 0.26308404068312802
0.48686008536980263 0.26602961268803565 0.16708044512387069 -0.014017421816297634 -0.51042400212470007 0.85980861239035533
0.50567943600378373 0.26347603905308081 0.1659082745730478 -0.012806683412447671 -0.51023637767374408 0.85993885117393654
0.49433386365598597 0.16247758405588764 0.10742155509924883 -0.014020174140612412 -0.55230334409223714 0.83352531504543925
0.51398883642457982 0.26634420101355716 0.16769211138497503 -0.012193038774125567 -0.50975201751181098 0.86023497397402482
0.5257272119089843 0.26401378196644953 0.1665161216893066 -0.011534904820829202 -0.50990078570518815 0.86015587814535466
0.41718914107940125 0.16602280070486655 0.10651087284528651 0.036166980081403746 0.51532391188618887 -0.85623198689964086
0.3738759314355789 0.16739628692988048 0.10782364852962367 -0.025261973402331123 -0.54908858549388995 0.83538228253904157
0.34794062394125003 0.16795804246708068 0.1073263191008981 -0.027800033595414005 -0.55002144629053928 0.8346877061228094
0.80463667107132886 0.34725816813972404 0.2084385932611931 -0.1380177899633159 -0.77947520429724237 -0.61103968409540654
0.57469865802223852 0.2637735368876199 0.16737703717135782 -0.0081285586807839927 -0.51185603354319642 0.85903278602111532
0.59410053662971019 0.26359303490408031 0.16768205145409645 -0.0063568469553644136 -0.51273406927751231 0.85852394532645926
0.29259045799404154 0.16533776489393756 0.10368653515316924 -0.030225470194736145 -0.55278033749383515 0.8327786737373315
0.60541719113892889 0.26296514189787484 0.16755692204087019 -0.0053498357667638823 -0.51344557123947054 0.85810548572529377
0.77282189525503231 0.15376545801315919 0.10704180196168368 0.0093250577396354721 -0.59160725346089182 0.8061723766978206
0.74499157556917928 0.15557651736011535 0.10818947382556277 0.0079460948361330958 -0.58651865247053125 0.80989674025829206
0.69391391840410099 0.15255218636548135 0.10579773647853635 0.003396049401482833 -0.58233998279657972 0.81293825797839159
0.68316223367649898 0.1544041891076286 0.10687648183871554 0.0020338561326795866 -0.57978524325773095 0.81476679800407026
0.66557797481144765 0.15488523080049679 0.10675791884143236 -0.00012049268600381967 -0.57592259838357884 0.81750421781946758
0.63531642591470072 0.15435869749488529 0.10580104547610157 -0.0035536548737189616 -0.57366091608186687 0.81908517560578031
0.62604816262592833 0.15572694054234426 0.10511233383981002 -0.0092878243000286218 0.52785745329992528 -0.84928219415897865
0.65753795137016935 0.49215207091561664 0.015666849001123005 0.018135569783711055 -0.96239048782723691 0.27106392243947386
0.67480063904048426 0.263296539915367 0.16919917982798185 0.0026089975749565447 -0.51785500513387872 0.8554644275418144
0.3548642043564092 0.27548080800151364 0.16919012621962157 -0.022423653034624579 -0.51740938593245633 0.85544415781135674
0.70579802355323873 0.14786501259749854 0.10188809627862284 -0.03240986423686372 0.53393995943932415 -0.84490101219851843
0.67804616791904371 0.14916441649057247 0.10348756560830741 0.0013452481667137512 -0.58456995733848305 0.81134219370414484
0.62379593534396682 0.1496344338106993 0.10121765321382679 -0.0086440998125023455 0.52833605033226227 -0.84899134121481867
0.65635531534486624 0.49156907696582153 0.013620579422021311 0.018229028188063809 -0.96249364444038255 0.27069112830528685
0.75559033575872647 0.35038813152853798 0.20519280840424128 0.068389831508410964 0.61155858827634957 0.78823786007250973
0.67290791584563103 0.26961547593326446 0.17273862779945279 0.0023668275664225037 -0.51638861116474166 0.85635109644737428
0.38804679747469845 0.27829282289609558 0.17181058649791756 -0.020585720505675496 -0.51488457906498242 0.85701230933536665
0.41510930182863165 0.27958803152918871 0.17334592856708875 -0.018704144693736234 -0.5127526703839318 0.85833260102679465
0.77515708350951673 0.15778309720276487 0.10635912283030648 -0.059258358573831438 0.53164379093847702 -0.84489249404625444
0.75240836722874294 0.15649871542559871 0.10652848512761828 -0.049375358769953734 0.53289268680692969 -0.84474105990772697
0.6956593116686951 0.15538536538080791 0.10756547398976476 0.0035611836014238468 -0.57938906893734787 0.81504332692640946
