0.13079574869911639 0.12129602593081489 0.32400472742889025 0.27855106229081877 0.87851184379901059 -0.38810597264345098
0.67547158264005358 0.11536367798369587 0.10253430878982428 -0.3542218736134084 -0.32749457921302982 -0.87594187298010073
0.19687213932339673 0.099700842168112452 0.33241825663089986 0.43970905303664826 0.83373777946725525 -0.33397195056864337
0.18612266136063285 0.10775020988629273 0.3329872626963194 0.30055412666923315 0.87577447163849398 -0.37773839064676928
0.17724060029960051 0.10231107928167388 0.33379246202740137 -0.18159102546407357 -0.83540432593635816 0.51877192645489734
0.4144527032449305 0.17237440809679808 0.19216741190565187 -0.35321267443037457 -0.31503997907521269 -0.88090329673922307
0.40513093564259689 0.17593847657778142 0.19455781326926649 0.35459093118582008 0.32817084559884946 0.87553935812144335
0.66668953192860014 0.12438196720468248 0.10423078193773959 0.36192085789981526 0.35361026927622713 0.86253873540812986
0.12519067107345919 0.094359410675211516 0.33535732702948895 -0.88677713643409317 0.38992224891993571 -0.2481671817444229
0.19430342820095425 0.099040355688425535 0.32796479002605661 0.45102896326913156 0.82948809804939194 -0.32942733567021198
0.19082592956994068 0.10179788466885617 0.32611268783590353 0.37146091486745814 0.85750815980344053 -0.35594458079362318
0.1211180036517477 0.080499242409953306 0.3317012582081611 -0.88950730144350509 0.38594146908749177 -0.24459342410883025
0.1365806356388046 0.11862516201908983 0.31836126420864269 0.31401380384269656 0.87032625798866836 -0.37937782704275497
0.18732861520562832 0.10401420234719234 0.32325442217348244 0.26421971771616959 0.88527887387665638 -0.38271302073180991
0.17816729980850829 0.10657189384677199 0.32120347658385728 0.15195944721028343 0.90142946785330957 -0.40538036569281943
0.12940252826015405 0.11535057451294724 0.31556313121388385 0.22787098615874282 0.88863888388061185 -0.39798963268213705
0.19365324187837707 0.097834924479499055 0.32275251672724847 0.43274703793671676 0.83748669700493861 -0.33368553084716779
0.16550916729193579 0.1060348328248293 0.31622461552243492 0.11358756752071358 0.90362587753876389 -0.41298684960543991
0.13163558351746396 0.11336570319635567 0.30763794473422068 0.26661608573953732 0.88208724084304757 -0.38837863273721313
0.16265644327195714 0.10614331395502283 0.31516801447339809 0.15112628039080558 0.90015164689798799 -0.40851910599392965
0.12645554215876922 0.079953082904171274 0.3154976116932019 -0.89160482235404148 0.38458507752766496 -0.23902961929028432
0.54548165143915472 0.045271662198445806 0.18491043844995231 -0.33478533025882146 -0.33017881377822855 -0.88255353014731841
0.18791903003597021 0.097528591593083983 0.31197658673902223 0.37712135454224571 0.85805040321648562 -0.34861008231009089
0.13114563275443278 0.10857334995187415 0.30181172037948262 0.21967520189983375 0.89104203579963182 -0.39722398732744629
0.12320049810529282 0.10701413751869059 0.30305629703509024 0.14855393348265691 0.90021681511944085 -0.40931823148137536
0.5173758226925147 0.05888533705020025 0.19115233117478639 -0.33595160611914604 -0.3237107763864947 -0.884504297105005
0.11614995150053416 0.08588727266931874 0.30649773694939081 0.68616258692536314 -0.60848216422763612 0.39866070802217968
0.11242266143525431 0.084927798137545807 0.30793136409416383 0.70087525789336336 -0.60462171220480665 0.37842629137447537
0.53477610394449671 0.055382998570193513 0.1857037713677156 0.33648785268605819 0.33525513981826999 0.87998858868746577
0.54476875672194591 0.053525677377796996 0.18224580748849278 0.33818948881283789 0.33810386417402338 0.87824463942975761
0.12407576278155807 0.060235679255210006 0.30603728047274514 -0.9049292122788084 0.3658804429243222 -0.21733527612874337
0.19241942149339536 0.095524430492594153 0.30281213200521923 0.21850818736170399 0.89747584121360746 -0.38313351001162743
0.1260448587776194 0.10759634224403312 0.29676758759472832 0.22011489443212073 0.89095323108704516 -0.39717977449096104
0.19357654901659752 0.09202962739539719 0.30404968945124139 0.38349617027845329 0.85754696044033063 -0.34284675588564312
0.18914773909988941 0.096384410401252577 0.3031000030867429 0.21950293191368772 0.89718840738910977 -0.38323807812884114
0.15924615265728553 0.10412842521950612 0.2844573462253091 0.68372864768149588 -0.55625165138553168 0.47233381910519784
0.15492294755501196 0.10519231521724054 0.29264548153192194 0.4098929718129668 0.84689289146866853 -0.33876272232666393
0.14157524846637451 0.10689888472409378 0.28718851849433585 0.37069028889617012 0.85812239096332099 -0.35526704300493062
0.13149701292732446 0.080986278536803596 0.29990854064672173 -0.88022169302164155 0.40828538163953676 -0.24189422951689574
0.50897285681122661 0.067993177156412371 0.19132233695103859 -0.33625194800753383 -0.32085610105118095 -0.88542983340260972
0.51564027311418814 0.065805037678199424 0.18919107505315302 -0.33720395019356908 -0.32407584107965837 -0.88389385403585929
0.15487272387333931 0.10253888474205099 0.28313548748575196 0.42681702544579941 0.84242278585583485 -0.32886330999443208
0.12908334465628721 0.068881436437230908 0.29854424731648099 -0.90108080507926036 0.37323159369671288 -0.22079755475168625
0.19406248431343978 0.08864335979094301 0.29573970703250207 0.38486250249386722 0.85791957767085258 -0.34037457664053589
0.18938054040909361 0.095684634246348085 0.29096976560225829 0.028584124352183597 0.91405150492652931 -0.40458966148008019
0.19678400606467639 0.084117640579040462 0.29051954032680338 0.48193104020152711 0.82270009404208044 -0.30150792320173958
0.16298653398909457 0.10427228740119286 0.27949996595979848 0.68358693638595891 -0.55556904263455531 0.47334125033487495
0.12263842445869357 0.097282470808234323 0.2844335867924947 0.11097451588647171 0.90608831360798214 -0.40827518264867152
0.20301571888500383 0.079805143016001834 0.29252770133443745 0.56733236074080307 0.7797627008127368 -0.26477183172968688
0.13936360443012874 0.07871242743026606 0.28272626338944062 -0.91355295946834636 0.35335253911946135 -0.2014025157351699
0.53181544903804279 0.073567953618349488 0.17940791112850668 -0.33976392155296092 -0.32921775523253022 -0.8810085965815585
0.48967534572563426 0.089732238488731436 0.19063566236480267 0.34006026349205337 0.32974910082847897 0.88069549090280053
0.4965360990297078 0.087360229091968819 0.18913109441158849 -0.33798489835778966 -0.3196256587732661 -0.88521502853026079
0.1299770571378574 0.05296697411182083 0.28692022950173296 -0.91172093868144932 0.36018365384800072 -0.19756686329068601
0.50557201425126386 0.085465061210586377 0.18625780768364111 -0.33778398382465114 -0.32052168537997783 -0.88496769967763589
0.19528615650588904 0.083035483218221864 0.28321069228624046 0.42989348330260074 0.84437298259006532 -0.31972778935512286
0.1908539851675943 0.088542652715002987 0.27984487692413446 0.12689331239384544 0.91116492680060601 -0.39201602446604672
0.1292258404749784 0.093371674822321296 0.27693216643187835 0.102395905167298 0.90865237432271884 -0.40480358353484891
0.48698759745619963 0.09659216608022346 0.18905536429822145 0.34077274783219008 0.33022881762238537 0.88024022990693851
0.13754450210951527 0.090048864662059344 0.27364329095698886 0.064349646776797359 0.91177698683938857 -0.40561293030398665
0.13451160842297999 0.076186788860363355 0.27599409871025049 -0.81328974922360253 0.51194866047899079 -0.27652911752937814
0.13513408573953758 0.067334194365074609 0.27966652038320611 -0.90273060646398995 0.37477086523232461 -0.2112445282751047
0.14145489515265194 0.075321663049655985 0.2713886412864851 -0.91626538219131226 0.34977209229576528 -0.19523635124855993
0.13161175843047462 0.05767519031585254 0.28264907037606724 -0.90945058774910559 0.36341279118755898 -0.202066255579882
0.49540571375453257 0.095465321959387242 0.18584200227876213 0.34298721655289588 0.33377886126735234 0.87803840522631271
0.50455512144378967 0.094678055975959546 0.18226849214215587 0.3436801779773147 0.33630351220215843 0.87680321791492866
0.13345249074330021 0.056586642533400157 0.27611512941085764 -0.91391573800055814 0.35568059130437163 -0.19557438688199388
0.47000942996290701 0.10951994895678784 0.19096482493335104 0.34407964848639838 0.3289306119500327 0.87943950787967995
0.4222663461829696 0.16402612038578138 0.19168937928297652 -0.35124941835975854 -0.31521929584483599 -0.88162386629957856
0.31730023012218567 0.28559480467112613 0.078975983655987056 -0.61099617926135086 0.79040868452859514 -0.044020226598767746
0.32576609441829818 0.28984285412590899 0.078810236364498257 -0.59771612238368621 0.80138534520199833 0.02273687617251581
0.47659700925969828 0.10697960260952383 0.18925693790001255 0.34377734586740577 0.32979951490929155 0.87923228809795084
0.49421033734050518 0.10398078656354587 0.18278703430521653 0.34561783476368541 0.33613854689106909 0.87610455402721332
0.46661769302283113 0.11690060736633869 0.190237811678062 -0.3421857897275789 -0.31747308055064727 -0.88437533233022469
0.54739404338643283 0.28664386480749682 0.087119089952428161 0.37260368462007343 0.36980880822294465 0.85112157743078654
0.55149142935465845 0.28689946488826423 0.085134055279735402 0.37174306438822202 0.36934391818588197 0.85169957389818773
0.19529961852899266 0.079554666051062442 0.27238556232312733 0.47269026393769209 0.82993652921334649 -0.29625879203125632
0.33847749208828254 0.29872524351895485 0.082081075555734018 -0.61996894595673013 0.78461707080083598 -0.003815528432191408
0.13508022993221724 0.072600906734093404 0.27535309863999768 -0.8558202504342618 0.45197735843487968 -0.2515713942579037
0.13724409597136841 0.069448258934765084 0.27250067105119907 -0.89355654701246989 0.39161043176353905 -0.21954035397877575
0.13626038736152588 0.060359892855024543 0.26964653618005041 -0.91305757542710142 0.35875851988312801 -0.19395408829527219
0.1347938815938661 0.056141352568666723 0.27065336471991608 -0.91489980740053256 0.35451725938150003 -0.19306956057105054
0.44910912905172745 0.13077959694361924 0.19280823191541532 -0.34205902740477634 -0.31218850780616764 -0.88630353568326514
0.33472139411236551 0.30203297414509001 0.077728731641847973 0.77433626178870441 -0.36167035515522811 0.51922818479064303
0.45731285587298043 0.12732196057062489 0.19045989313467498 -0.34252704235875076 -0.31497514253267572 -0.88513608266722876
0.33928886563898114 0.30620451153181211 0.073875562924273483 0.77435011491313099 -0.36300588757200708 0.51827466185612436
0.48238352854333733 0.12222586566193544 0.18040696677851076 0.34993832752538523 0.33668679975252314 0.87417685041480053
0.12374293812816967 -0.034699970018193964 0.26570562832971789 -0.92753155324802239 0.3641198007801556 -0.084273295943203611
0.12392811063686168 -0.03668882491205782 0.26012709580367149 -0.92814060954117827 0.36373316197345851 -0.079077150943365079
0.18779179140169452 0.088705649209812401 0.25575681872402839 -0.081087322504482084 0.92337300822550528 -0.37524276649874949
0.14213415405458177 0.067690405969499601 0.2571761898374218 -0.91278527292332223 0.36178670363250848 -0.18956114213894057
0.14681052824893143 0.077896857478821802 0.25396884731471103 -0.92224799744413899 0.33845804966318865 -0.18682820940228972
0.4558317572209743 0.13572014804244303 0.18774428284635902 -0.34559556200563646 -0.31734203595801996 -0.88309554394528966
0.14009124669917605 0.062921710888514656 0.25949784403208781 -0.91801716880291129 0.35175674985601962 -0.18306192043627398
0.46539116251364776 0.13495864604368912 0.18336578773656628 -0.34821756318754515 -0.32328553578111424 -0.87990396694323736
0.43073795549634314 0.15027739389712869 0.19330144966283244 -0.34749775258867377 -0.31308635748576463 -0.88386777557625495
0.128467562435468 -0.027091596462681423 0.25099119481040988 -0.92920370685857634 0.3610764682608309 -0.078767094833859477
0.12421794275508954 -0.039388512633949053 0.25591378359933092 -0.92797089883636119 0.36563820706500622 -0.071963271514874194
0.19528812281636643 0.079874580027598591 0.25457706280418457 0.40649258086698448 0.87114164271008843 -0.27545602196442659
0.20281925573094456 0.076819637792968076 0.25057903612315291 0.4371578983581268 0.8647682964731086 -0.24712095281077165
0.19100805815184782 0.091412619161816699 0.24636510298716258 0.0020572097930590151 0.94862600791509755 -0.31639289656206343
0.17257013671199797 0.097091542152474175 0.24098186881997896 -0.59700949173308659 0.73095902043239525 -0.33057310421314501
0.13050426251223077 0.076342899973969744 0.24979637697791043 -0.49474320540562811 0.81282429289640368 -0.30748305576474549
0.43860365653089894 0.14729928796564035 0.18996322287214748 0.35109001054021655 0.32522418925096219 0.87804614413191573
0.45451736288038774 0.14446951060389313 0.18359070694403476 0.35417953526694834 0.33341429483242568 0.87372293365773834
0.48306795232238331 0.34229077735439106 0.095349098429960977 -0.3859712957021631 -0.37494725562290149 -0.84287645262805144
0.42749860907082388 0.15793449961981104 0.19087982574616488 0.35491204097020146 0.32754151244390323 0.87564490565544106
0.127214357934505 -0.03318579782992076 0.24585151330566415 -0.92983894555916913 0.36169474604466206 -0.06764943462513183
0.20241245901561106 0.078696896387875429 0.24220474774928091 0.39760046155233514 0.88575397001748302 -0.23948648724226113
0.19038935236287838 0.092739268420510224 0.23792471034138873 -0.082876400882599746 0.944000185228689 -0.3193667992527518
0.20862589227382369 0.070958355847513699 0.24243628682920412 0.4690137905770258 0.85182453438789174 -0.2332831474055109
0.15393656916539383 0.086981580772572328 0.2306092289015016 -0.92846082257035478 0.33436998277006558 -0.16173192503128883
0.14539609313132504 0.063584055558764507 0.23775938733345608 -0.93335142992643405 0.32388067741695559 -0.15477860010419681
0.14403350638802701 0.062022066988349167 0.24004798322601692 -0.92918944702893436 0.33229532598534456 -0.16182332297402852
0.44523280338213195 0.15532560060224793 0.18370069335619874 0.35678770874047822 0.332019500635371 0.87319275196806267
0.47876743888823442 0.35636508120346994 0.092172918319424035 0.370886981623889 0.39836240845343796 0.83889822886515686
0.14249001923249399 0.054657876722864575 0.23801944253052723 -0.92872599122327315 0.33562007206093281 -0.15756649534772074
0.1322491930142986 -0.021758186414050851 0.23943624683833983 -0.93052260821923471 0.36120269623318685 -0.060500312616949978
0.12704176203450548 -0.039466569835573603 0.23498657233657838 -0.93036115441721223 0.36207681203217656 -0.057693193186789941
0.16115397574512666 -0.052878154493897933 0.23480108719425205 0.46890470592283889 0.77215057779820973 0.42884946306286431
0.20613025063929538 0.079749348874561296 0.22925717821085442 0.34002635434126915 0.91276418665270498 -0.22637053235262683
0.15391152802448865 0.084470924444386281 0.22273121629584341 -0.9341854993025166 0.32368738614724962 -0.15007974194430385
0.14700777213729724 0.062314961540187709 0.2277229090297849 -0.93663830326834929 0.31937614037642875 -0.14390125019902925
0.1472541194328294 0.06165658775859436 0.22475919387370652 -0.93752532127993748 0.31803844293794248 -0.14105963551831174
0.20275263389930606 0.070383644650292107 0.22038291052392156 0.64762238919319548 -0.50537958068960409 0.57024268556264468
0.14966938751169728 0.07227660197160983 0.223976297994602 -0.93559425636664617 0.31832538613835692 -0.15274925856974947
0.14603459570893809 0.056296872277302699 0.22835086177209551 -0.93761399187391736 0.31923982524274108 -0.13771686977724179
0.14608703739890469 0.054271994034435896 0.22829766559898598 -0.94097717570169837 0.31528277026577439 -0.12312079264687267
0.14656009970837833 0.048263762604179541 0.22669738305270562 -0.93518462150547443 0.33393576885230769 -0.11796875001745485
0.12585775149934714 0.049842270137515965 0.22544673963932182 0.86522309089176674 -0.38493176447151511 -0.32127330995360232
0.11950348745646015 0.034948272548044862 0.22383885769099388 0.86452323098719164 -0.38624997767308578 -0.32157508894659054
0.11051130696862763 0.034135016947022145 0.21476622868051518 0.78873552352897602 -0.36295808747887992 -0.4961428228415139
0.11709182175971146 0.027571288711592656 0.22464176829221683 0.86506060587889322 -0.38793587450543365 -0.3180816018385007
0.37613199496697353 0.40708024469740872 0.083787637444707755 -0.70027288754251271 0.68672596512265649 -0.19500085076539361
0.43211363782948087 0.17404670087421223 0.18251121262031475 -0.36038881528028777 -0.32590591833254473 -0.87401672422024701
0.14348405232545855 0.0086442312495164444 0.22283575499714003 -0.93418842955164161 0.35122653631900186 -0.062704850507711254
0.13496150324233236 -0.020440186702795675 0.22229842003720932 -0.93342455578798067 0.35440549528709253 -0.055815262807960377
0.1325148907774937 -0.026379817489728299 0.22600991679797308 -0.93246969423602011 0.35661461653725662 -0.057673950821568724
0.15412338721185814 -0.041869574490822452 0.22327559219484641 0.45024717593158453 0.77867065109485933 0.43697768557346323
0.13051774610132502 -0.033090296107721129 0.23016593630831989 -0.92885623950230201 0.36864466230715787 -0.036430746493634765
0.21577679637273572 0.081213143723911085 0.22619974622028566 -0.21485954265483398 -0.79417903769132325 -0.56843208303353132
0.38328672357209143 0.41365652385810431 0.081111133014824102 -0.69502349472280422 0.69222139716926911 -0.19434988830541006
0.14930292046119772 0.059095019079553349 0.21418418610763365 -0.94123295938726859 0.3169253977853031 -0.11678530901492623
0.4068083130532284 0.41086843648636967 0.081651392281088545 -0.097033682596392737 0.74635733747788224 0.65843389131689534
0.41530541946654803 0.41711303236346114 0.087860428873383037 0.32327119935328208 0.49389286318886622 0.80719611703711414
0.12638285942965968 0.066289930611451303 0.21687635716206127 -0.59200610482316751 0.60142570857354027 0.5364847518046677
0.15679252769233754 0.064459900284319971 0.19745003104606551 -0.95274304169386181 0.26933579867064389 -0.14049528126728933
0.44156738721888406 0.41237548442876271 0.08270859479092342 -0.36398487124189111 -0.4188351080047682 -0.83192076894957856
0.21941862239330931 0.058867405605117523 0.22465396660123915 0.16275232941191614 0.40214073379086324 0.90099639815991561
0.41554083350488613 0.18560442076250774 0.18598836974040128 -0.36237777107570507 -0.3237480076344979 -0.8739963264127012
0.12314233240708775 0.059957037763193111 0.21564416977589218 -0.55773631210049401 0.58738299822955675 0.58643961288047108
0.10668238084261845 0.055349944909017852 0.20593995023945252 -0.21266343985703212 0.4735347466323791 0.85471580369148603
0.43012925562734333 0.18022751825174874 0.18093819656487678 0.3616759464185334 0.33680823816686378 0.86933924361275172
0.69781082522866478 0.05647159482257598 0.11764247767572543 -0.35750962839358502 -0.3443809142422215 -0.8680948401595141
0.12297582968135105 0.047265206865430107 0.21817645352003401 0.44905574190420033 -0.27228102994205017 -0.85100645202992709
0.10507342986153603 0.046046757271024301 0.20906009149779747 0.4298403925283461 -0.28167801102318607 -0.85784307134644344
0.099565580952098304 0.044277882004843568 0.20692398205902074 0.42944526409026407 -0.28481162841815078 -0.85700589348512912
0.11195013152845265 0.029004368143922103 0.21467320347144381 -0.65578292959622453 0.57893785726313363 0.48454071725476772
0.045316125928447339 0.056090805136219363 0.064957365072678033 0.16626855472282806 -0.93070602709146011 0.32579296930107632
0.40567319537069746 0.19551285919153727 0.18664789726193767 0.36063877266462485 0.33985204679755576 0.86858520706863585
0.41419981337369111 0.19473839131631598 0.18271651874203002 -0.36752696985681294 -0.3285339367314295 -0.87005136563516661
0.13632054802294691 -0.017604590354828194 0.21757595173079211 -0.93254879488801157 0.35754841324275666 -0.050118632667943898
0.15375640795445922 -0.03658532732740373 0.21474057318215184 0.44154482884005331 0.78162631635040769 0.44056607417401134
0.13427072285144603 -0.024557568611798791 0.21757175094029918 -0.93042459361813246 0.36474048443733609 -0.035699504239561919
0.16837746026551928 -0.045306974504345808 0.22005956845402938 0.39954474842809379 0.79489505185671161 0.45662440860870201
0.24837533848539209 0.28773328583171565 0.21358926655524316 -0.307786858796751 -0.40491105370904718 -0.8609961022770416
0.25826957324224481 0.2798537804645414 0.21490307352068302 -0.32596216936898598 -0.37559849475765722 -0.8675681154099929
0.25119556436911133 0.27988258405962407 0.21281156937937876 0.28614235887467265 0.4208168145731272 0.86083433890044381
0.26732377571552002 0.26880147482258482 0.21295648026312466 0.29041337416486279 0.41652866512856934 0.86148937499680833
0.27738614469599948 0.25865840833279563 0.21452610520586118 0.29291986840337469 0.4132302094955469 0.86222893981518389
0.28065464121088574 0.25277023577655711 0.21624799834999933 0.29450173378716998 0.41124677936554999 0.86263828761411554
0.29445805880906067 0.24458938168494176 0.21648165691140989 -0.349317449384064 -0.33891569688372669 -0.87356366108122296
0.282151539630558 0.24357878996486212 0.22010364587114656 0.29552860575727535 0.40980292747181679 0.86297416173063357
0.32043508686369054 0.22934684545267914 0.21264678602835246 0.31243343569315257 0.39132328536039529 0.86559311145348161
0.29558457220549678 0.22677810366100473 0.22319342831513972 0.30192224923687511 0.3998659778799647 0.8654190633154818
0.30642588033319457 0.21752387942486212 0.2231842700487992 0.31011896903587377 0.39084072207182718 0.86664280705172847
0.33279654013430571 0.20203953634921717 0.21636006315847475 -0.3549458517903169 -0.317409376901369 -0.87935472350578248
0.085744544240704129 0.070812233321799353 0.070941417475491084 -0.1959477586411737 0.96800646594706374 -0.15674169122532944
0.32098081192642275 0.20274772751105039 0.21938094804322933 0.1002374774689325 0.11469885932778651 -0.98833021798363019
0.33287388884249441 0.19189394440912172 0.21993373347013032 -0.34811880493580843 -0.31046418644882617 -0.88454806911932893
0.33399520403645289 0.18623041524652473 0.2194039432853509 -0.044703132897127476 -0.021718442466061087 -0.99876420598959714
0.39959665747094508 0.12048124043777679 0.21663407304148624 -0.31728943172329954 -0.28318368759351809 -0.90506044858763024
0.67544899945948811 0.084311516626605798 0.11761114071463476 0.3650204669097698 0.35897626065825439 0.8590087910032066
0.39397163360429427 0.12432159574551199 0.21751245071724087 -0.33372792401880508 -0.2976247883605857 -0.89445243477974568
0.40157346138644662 0.11585244924137635 0.21683615448370061 0.33853456676628446 0.30939623938734551 0.88863283427821438
0.15254623978537216 0.10433270468992788 0.19923066782410598 -0.09792061179895109 0.39700879237836606 0.91257633793518378
0.11441451021458771 0.077370436281240157 0.079787975268299435 -0.2137366173854284 0.96768688988672813 -0.13378617839667289
0.12547266593518855 0.075189822128083172 0.078204280090936384 0.16938355530574428 -0.93712297782958698 0.30513887922680921
0.13044335432339885 0.079332848631474662 0.080177849507226145 -0.27419407823027814 0.95819300670121577 -0.081754323263862366
0.39403706840646519 0.21507560208906551 0.18486452198155054 0.35655572527236257 0.34895263964212825 0.86666029680739998
0.19374140993978051 0.098184595797729229 0.20697664193711926 -0.056493755049333433 0.38810154583056466 0.91988349575603978
0.18658447986386312 0.099184146203942919 0.2061004724437859 -0.057557880496588436 0.38813121178645676 0.91980500804785625
0.14411055642390225 0.10059835500175718 0.199263334753571 -0.10906736755440732 0.39722701891235473 0.91121622284765968
0.13541597573635175 0.097479920131396114 0.19870392441169024 -0.12068349702974672 0.40045898366803756 0.90833259103933595
0.14455044333577377 0.079456437832972723 0.080455890481050937 0.17130262665205148 -0.93971235900450478 0.29596637044822599
0.15311244058961634 0.081838502979098823 0.082851724531683588 0.17263020294968409 -0.94017557599585133 0.29371533724070331
0.16382103676587659 0.082795281525033251 0.078057306830759232 0.17785486901133196 -0.93951246423461154 0.29271825210732882
0.12646077192690375 0.095185186902627145 0.19802070567481994 -0.12842732125393586 0.40229331613084335 0.90645822350066851
0.22095247936039766 0.088407912571844577 0.20534737449885593 -0.50955038244533257 -0.47575115652723426 -0.71695135456515757
0.21787488924893939 0.088616866640274641 0.2075356117249986 -0.50114398089065648 -0.48875653914442696 -0.71412306772756451
0.20390675151790205 0.090366736591685995 0.21086007560373018 -0.049767799567230868 0.38827977996518276 0.92019670646901652
0.12317931792888541 0.090324882148112726 0.20318909063377255 0.37800395387839886 -0.23718598049545506 -0.89490548188549324
0.16600368265848164 0.084768168551278736 0.085563637082729072 0.17072873155260282 -0.94112404520340331 0.29178285035694201
0.17612042418516827 0.086760437598957282 0.084577848378966397 0.17496301688568958 -0.94089767700805882 0.28999914503856133
0.18602529250019845 0.089320687325066206 0.085126745617709165 0.17982604003470662 -0.94044589050979976 0.28848591360526749
0.11675563256122196 0.085430540270786143 0.19712591484608669 -0.18173209151443626 0.43718610039419442 0.88081880119347244
0.10906148260298743 0.085107054764829507 0.19740855573255758 0.40646802216771738 -0.29097922125072456 -0.86609170401025426
0.11689342924451729 0.076400120609555616 0.19538830259063386 0.85990570440424996 -0.36478469287627757 -0.35706345007041868
0.1178288400108163 0.071894115477583329 0.19681888347346849 0.86214911988615717 -0.37000624943873489 -0.34611308911366678
0.22243290477193042 0.080540636031597695 0.2093192368246822 -0.51444802489935759 -0.46811608927823012 -0.71847794443253865
0.40195470218362245 0.21094285550321501 0.18226069619838281 0.36073359655587212 0.34680419739944884 0.86579334773489069
0.19770806040201222 0.092148485309447872 0.085773223183892952 0.18295553556179583 -0.94051345841364897 0.28628955019366986
0.12463407311735759 0.077878185776355843 0.20712826878343465 0.38512782054783257 -0.24792823595990704 -0.88893652847314419
0.4151142944791148 0.15588546404211898 0.19737705476637921 0.35313808598252971 0.32442067212273751 0.87752191979917327
0.36072834247219493 0.22910917649848894 0.19407965027419705 -0.36537711888846686 -0.32908380269400278 -0.87074876502767307
0.23080509996395254 0.067307287293218318 0.20948538951294723 -0.54415530352716601 -0.41958386913513662 -0.7265289962588185
0.6433806421579078 0.12687867283198123 0.1133502425731707 0.35724726466675499 0.35084499116797646 0.86561087334925735
0.23073850348118663 0.073857580950401555 0.21654899666957619 0.56637664042339253 0.58193937917668559 0.58357866663044233
0.21900830466709353 0.073103250037978268 0.21661147595159388 -0.51462714280100141 -0.46786060055346695 -0.71851608356544594
0.20470347704898847 0.075800839861142957 0.21704304465157687 -0.048708973022446429 0.38828623562428488 0.92025063714828292
0.34310794699819142 0.15273034410357628 0.1978076550374841 0.71556203643858507 0.65205138368122917 -0.25059921198451418
0.12466846977861983 0.066014987631760613 0.21363994404044925 0.85143360496228282 -0.37260723022329995 -0.36908626136209949
0.11509673741702224 0.068821628100304885 0.20592097335470819 0.39134882696756917 -0.25729241601625819 -0.8835421372473552
0.65925077997102344 0.13042055110335057 0.10500973018603806 0.3588942021207141 0.35117430839032893 0.86479567344587838
0.10671784206116804 0.065067502760390944 0.20126384258413985 -0.20554506871425932 0.46655986363987939 0.86027502484239748
0.10018857148747727 0.06587496603022544 0.19992008319497523 0.46285454417005056 -0.28866732186885535 -0.83811505667551234
0.11016616203696813 0.058903014936578194 0.19179718295914283 0.85078724944440087 -0.36907939438939935 -0.37408749888226034
0.11628201713572812 0.059396699973428606 0.20626015936002576 -0.20953008330942641 0.47017559851960189 0.85734010214446343
0.098152789211125913 0.057560777057237285 0.20180131248261299 0.42780200427486115 -0.28693037006466798 -0.85712099955196774
0.10249057865047997 0.053107312997326718 0.1930452869874488 0.77491188855818716 -0.35667669944530384 -0.52181730236164858
0.11444537282157514 0.050255856273063816 0.21016658908230354 -0.20872586630471923 0.47086494510391919 0.85715792956002435
0.090495668269640797 0.046916176180688253 0.19970121559313617 -0.46754367805241637 0.59388933969333513 0.6547506100125704
0.37637124197071115 0.22655662528051648 0.18948464119582953 0.34310527629590454 0.36531204331651262 0.86534725999787243
0.39199421243859323 0.22493073678899692 0.18096859879534966 -0.37106477254531472 -0.33295536423385713 -0.86686311491710932
0.11225649187582645 0.041532939642338243 0.2138253665916571 -0.23227357120550926 0.48672753558225601 0.84210765002193322
0.087035969147864878 0.038584003821100381 0.20724260712853432 -0.30450415475483728 0.52104760871143019 0.79736228227396266
0.053403715604038823 0.033924396363291677 0.19934095255598613 0.340058675281186 0.81075624212487352 0.47648128318073352
0.36656057379211554 0.23586358729209311 0.18868939663717033 -0.3661835438763828 -0.33185527451637703 -0.86935705493760917
0.37558806776289888 0.23647232746356994 0.18539033908582542 0.34243511329240439 0.37224227311526675 0.86265513578161546
0.6196054904902587 0.16998957673511431 0.10567248215888379 0.35209748735218055 0.34831593370635927 0.86873665153862833
0.34915139195082578 0.24741271136524332 0.19157043083473521 -0.36423423283657552 -0.33646552093013599 -0.8684033491731612
0.36545065217248074 0.24632327565431575 0.1846189139561828 -0.36817582450127312 -0.33717986719944582 -0.86646194342750671
0.37354395211943409 0.24454221163904888 0.18148692915195325 -0.37026940058426799 -0.3377620334258658 -0.86534234830325463
0.34034044246652789 0.25930762881394309 0.19120479729196188 0.31534117067147249 0.39837792063387761 0.86131003618381985
0.11333067908739533 0.013740947915650595 0.22473576243526325 0.8666332448971994 -0.39489780869327529 -0.30496317733162542
0.35457416359690536 0.2562829123687495 0.18527786568943308 -0.36572412262399795 -0.34025741616945743 -0.86629715275567631
0.16323305228975066 -0.03871256506221013 0.20718226878017845 0.46267459594360716 0.77417804129977952 0.4319497408699961
0.26576199246483562 0.29666133349257851 0.19930129232307983 0.28117629967145635 0.42811808347209523 0.85886832233308463
0.26858148501028106 0.29125431370345811 0.20122870911605872 0.2841998883190488 0.42476819796346521 0.85953615484068535
0.27827357473636566 0.27892900274580568 0.20426665123302701 0.28866020156989636 0.41954346786412888 0.86061522563929072
0.27050220364281852 0.28065872953607346 0.20598669539420777 0.28712320072902103 0.42093767015555927 0.86044857222679605
0.29035781583467724 0.26989625339676437 0.20706509492701108 -0.34304404298613983 -0.35884957246470184 -0.86807129252937765
0.27271087735005622 0.27368446518175116 0.2087507111680568 0.2896637853459621 0.41779456081576849 0.86112867587359287
0.30041029939101332 0.25422635791545922 0.20872489195221675 0.29681780812697289 0.4099921082149029 0.86244168497365603
0.34198745883853437 0.23695825744245849 0.19914228498244757 -0.36226762830479237 -0.33110115637152954 -0.87128307095447266
0.57946195352399843 0.21040409584121889 0.10614768055102389 0.35323615963564536 0.35153917402299906 0.86697429295976736
0.34226149045428395 0.2223638646401021 0.20480203633522123 -0.36019914533722508 -0.32478990928592172 -0.87451020035467597
0.35076008446761553 0.21140798845849881 0.20541732575448654 -0.35970501551705869 -0.32182565158610138 -0.87580851319969122
0.19204712509725727 0.10987502102280597 0.19227814581277153 -0.10414961337795076 -0.85600879477507252 -0.50636133472151201
0.57095888713571274 0.2204352744835667 0.10560341566543952 0.35431541155832785 0.35256148523393926 0.86611834541354193
0.5789353999343152 0.21972211670851283 0.10254422966962949 0.35358528010320261 0.35240274414728084 0.8664812494288644
0.17174552792147349 0.10253521744388043 0.19541964660700847 0.10253047586824537 0.98210319260563239 -0.15798993826207849
0.21080806359618964 0.103663093557827 0.19768743253644847 -0.29554854229667921 -0.73014770512810656 -0.61606443481381679
0.20319701131964402 0.10515373179057017 0.1970752227899025 -0.16460966755959286 -0.82650069091365808 -0.53833099972523046
0.17540535150649555 0.11034076644171471 0.20005749304592757 -0.077807242405507696 0.39262970161398558 0.91639944917037308
0.16539598411795989 0.10965054213107367 0.1994904115973142 -0.079021620910959503 0.39246062294114398 0.91636796259431397
0.13639161706322114 0.10518261870774255 0.19493811448016649 0.13754119418577412 -0.90663700396240854 -0.39886308797382913
0.12747012944545449 0.10125757900743128 0.19436314624680828 0.19279982640031854 -0.9258849599312442 -0.32490809148607763
0.22334458804429436 0.098302705428113951 0.19989660318321761 0.52116683745726033 0.72968573622394839 0.44265545730975908
0.21622849727870649 0.10116305834465057 0.20373084518566106 0.55235389767114484 0.64655966271490151 0.5261803628771099
0.2067851696208389 0.10188492461980095 0.20547128016390737 -0.47263072790296567 -0.53021059960812311 -0.70391541757877951
0.11855277309948774 0.090538748251833751 0.19299857238005205 0.26015716424610152 -0.86867842586089627 -0.42156380576997143
0.17806853375714496 0.094289209175384261 0.21669044793784689 0.28205059639050706 -0.17127341263298823 -0.94398775373455424
0.45132089606797027 0.082200778608309003 0.20931203960667405 -0.32892121134069002 -0.30469495403812802 -0.89385223706934702
0.22879059323468351 0.07805561335017358 0.20570705234108588 -0.52701391948540321 -0.44777519691811385 -0.72232520494135977
0.53218156696902086 0.26223325539266329 0.10517438949466007 -0.36664662153084976 -0.34871611918732892 -0.86253540399159412
0.1916062802069631 0.081897258332140427 0.21373257832248829 -0.055311641830681359 0.38780297361734856 0.92008123333297931
0.35637469086675305 0.26289084849566308 0.18285555773954171 0.32376753339738218 0.39317627998894217 0.86057364424657579
0.14959595326829753 0.061260315722066659 0.1937231284629552 -0.94719287922679063 0.31147091108463831 -0.076233333195969075
0.23564921688189977 0.071567678621053191 0.20354326122727637 -0.5423213086257449 -0.42257447114234026 -0.72616693297700563
0.23497767955972185 0.076862929695176066 0.21013918996229514 0.56532940356982808 0.59488819017915695 0.57141115376298868
0.4336711788289192 0.14410346436351781 0.19325158295407657 0.35077028289411299 0.32431595161798099 0.87850974505949975
0.52193222878117151 0.27244497214601893 0.10542275966579157 -0.37066089412915537 -0.35078246110109307 -0.85997800352522702
0.36143223736687063 0.26095561415979868 0.17998900747873064 -0.36633238504938148 -0.34318591515958602 -0.86488381375772616
0.34199784708318598 0.27364352231540873 0.18397516785927293 0.30921064699696105 0.40795100153492009 0.85904875072976872
0.14953227464986193 0.052148694166745384 0.18878105602676787 -0.94540478347047396 0.32086049721802851 -0.057081842263067228
0.077534218646011024 0.049256865820616905 0.19535105996831384 -0.35954701671042966 0.54805873806427319 0.75522020789040478
0.073822404474243195 0.040357319666435243 0.19787485752821493 0.40142254227129553 -0.40857136177368325 -0.81971298934129866
0.065126027501580294 0.042344671149296402 0.19911657456095019 -0.24090009925992562 0.53337724748497162 0.81084884783904909
0.057606289753085876 0.041313352844108774 0.19477104117504537 0.074942314174511526 0.83404364711534607 0.54658470912814672
0.048076890811961551 0.040274518281182052 0.19104161976038883 -0.3425297812263059 -0.84608922200274339 -0.40841936460438721
0.63185186010486072 -0.053495041954502248 0.1912716405984633 0.32958367023799168 0.34891585296896543 0.87728691535859238
0.066461332964390121 0.034630934842687949 0.20288291547857654 -0.22015651703674832 0.58243803267998007 0.78249411888788178
0.60562227912783573 -0.044424735010525761 0.19732404443725768 0.32718233701753457 0.34678737718337677 0.87902800488381416
0.61532193089778708 -0.044644110149476453 0.19406616626980341 -0.31796902819917922 -0.32949798494428217 -0.88900324803890751
0.14573394086641719 0.0080561885763337313 0.19221275730801926 -0.93502487284347546 0.35287512252722447 -0.03475104409134646
0.51732709421300993 0.28619005064507791 0.10200325721498604 -0.37559805591622619 -0.35439264971866197 -0.85634803101153745
0.11302899792392929 0.023023021606291477 0.21648400265919615 0.86695798675244928 -0.39140729542228136 -0.30851933212742894
0.14200416500467772 -0.0027494995108509014 0.19940405288081395 -0.9311874514922166 0.36345704702381398 -0.028087455423370523
0.13859576380993596 -0.011356562635254117 0.20274347815855148 -0.92745236588008584 0.37371151784714135 -0.013107648599847133
0.32603124325812366 0.29964597716821029 0.090929991780449693 -0.7124359684815712 0.63108720888053316 -0.30686141106549042
0.15971342771679908 -0.030433301336208092 0.19545540125163333 0.47445934861576566 0.76966130568155233 0.42721165837049846
0.16936582139735049 -0.034300727996719911 0.20112296527080931 0.40214939352319462 0.79287053848587297 0.45785606307009707
0.27993966915993179 0.29966766503355946 0.19303325461358001 0.27844524544064875 0.43167560875535621 0.8579769309819405
0.29105972369594019 0.28970737530106649 0.19454150422373931 0.28504420884054882 0.42477566098607245 0.859252836387702
0.28165319607766715 0.29180174180536717 0.19659698747198356 0.28467920876181835 0.42507049274429504 0.8592280397524672
0.25544440955706577 0.29666538099338141 0.20048341614927961 0.55885798428691569 -0.80203432076465309 0.21075744758927786
0.32495672578830215 0.30066717809327304 0.090295398115868786 0.77322591425963483 -0.34276114148596304 0.53351334135576345
0.32686811747380901 0.30086181199262774 0.087712234297516886 0.77331993972283408 -0.34394508945718982 0.5326143504125268
0.29929892885607434 0.28059917073256629 0.19817054206767232 -0.34357461691049884 -0.36385160537480216 -0.86577623661139091
0.29243303294144857 0.28286362558680195 0.19751651909209986 0.28946471457279838 0.42014319666395655 0.86005225033964094
0.25626048970029924 0.2783568751409804 0.19310912191126295 -0.49100941598931475 0.86934392141249939 -0.056132875509544794
0.48966235965654098 0.31047568551908683 0.1052356638700427 0.37747415849697286 0.37318197298178341 0.84749541279491636
0.24294930847420054 0.27097341650060325 0.19427109596483061 -0.49139152729069663 0.8691145048281208 -0.056341320576349302
0.2374150127646556 0.26757141046408017 0.19001549419483946 -0.49150965798547186 0.86903539939639685 -0.056530794289038899
0.33083495076359226 0.25682926326464939 0.19626722720760198 0.30795076494159046 0.40367139242704636 0.86151943292528155
0.34975568366348769 0.23255796865438011 0.1974569082414169 -0.36413958848890526 -0.3298797089840208 -0.87096597964314793
0.32017032930179551 0.23195878333597436 0.21047502589796196 -0.35723425023771804 -0.32629114924400004 -0.87516728479881223
0.32604532463869512 0.229204005885979 0.21049080983499807 0.31536117686478077 0.38803879146746278 0.8660099447713816
0.33717738275778136 0.21890946177418982 0.21015706356533212 0.32496540617035885 0.37673648141482602 0.86744862001372169
0.36769422413965114 0.18577493744126855 0.20763812441467955 -0.35480112269429787 -0.31467163874200632 -0.88039645791330057
0.39819856823747168 0.14618977733714991 0.20860822842654306 -0.34198967674717362 -0.30413690505558966 -0.88912530274510293
0.19221482677387561 0.11067071315810664 0.19082095406815996 -0.1005288929245066 -0.85795736937054123 -0.50378873948328151
0.1838297578745651 0.10890259382094022 0.19549546094731232 0.030982505174537423 -0.96436070108497751 0.26277085564422947
0.17103890168875857 0.10167790425949907 0.19371842616220453 0.045885558096965685 0.98312349636619378 -0.1770951903662
0.59560842129660885 -0.034157418377372642 0.19689916773093835 0.32668636990476368 0.34553582905926949 0.87970506793741454
0.14971444110148316 0.10560926957146292 0.18692218046835718 0.17488208287884147 -0.97858116230038861 -0.10860555178617014
0.41894328558464783 0.11629015000033448 0.20954577896470741 0.34193825877229944 0.31537217817919416 0.88522235422422468
0.20378909042516588 0.10840828236762726 0.19229041791070459 -0.057990423982778649 -0.9802149851858355 0.18925034621746367
0.14460861141403825 0.1073398567931738 0.18860330499186675 0.146659106984461 -0.9141954676285714 -0.37780650246640551
0.12733702004780556 0.10242307181201868 0.18887337856954642 0.093209426748573104 -0.9634684979450715 0.25107858577081016
0.11697040014202362 0.092530112543659754 0.18695858626930162 -0.26597299921934464 0.96060536897563709 -0.080595836005631555
0.44955013113911013 0.35650594947285458 0.10531612489759372 -0.37252060407180165 -0.38467637635133672 -0.84454276683847374
0.45275672795813232 0.10555161301927282 0.20063194253614836 -0.33393978511664735 -0.30737727892249778 -0.89106870011152817
0.21187578506856591 0.1068477723193372 0.1870120982665591 -0.030850368191067311 -0.96729192739287151 0.25178280716335505
0.11335532210171609 0.089024278394055731 0.18725714699720819 -0.33688318912041543 0.94138116396116123 -0.017641457626504618
0.13845135500605746 0.070058536882481121 0.1893804825572423 -0.89299724568532468 0.44481920616373699 -0.068496664344234237
0.23191423293866217 0.093560280963216197 0.19705548887316007 0.54523566535322965 0.66672058336392248 0.50813554583958387
0.21517805773271148 0.089764970934579177 0.18924020179714612 0.34633132171749725 0.93794788684366437 -0.017560670913038236
0.24045714491736575 0.08504572049501867 0.19657378172280404 0.56279552805667521 0.60092084547397295 0.56758728938750336
0.14927020559167728 0.054586224744204548 0.18774198181123328 -0.94583283614663971 0.3182551840173779 -0.064139565892425116
0.2422688341524557 0.073234615051293514 0.19800595690237888 -0.53779630797238709 -0.4301891648566275 -0.72506028271532474
0.24600909805744053 0.064088124294755272 0.19874171445707522 -0.55540236077064908 -0.40345220332495652 -0.72715509850555804
0.585482711900984 -0.024334082264188067 0.19674346924851258 0.32619650552842883 0.34325069334555197 0.88078079071857573
0.085199183311182328 0.058832706092570561 0.18409711176683369 -0.53068088731094853 0.66555415948621588 0.52480039694483949
0.066399700362747074 0.059857637943133035 0.184199310155996 -0.30324011522928868 0.61311992731711729 0.72947199208905933
0.058697721061156387 0.058183250603088155 0.18203551752622033 -0.28037973122850518 0.7227199167089069 0.6317144357290736
0.59488964703429503 -0.025588600024301699 0.1937679030160061 0.32752597853072196 0.34528796379852844 0.87949016790601986
0.073482893996124662 0.052986620191918667 0.19248437237822924 0.36184677059419512 -0.52905125251048657 -0.76757519946102826
0.055406388164245007 0.053706809584026488 0.18710228685880698 0.28512951464438457 -0.72324282181924315 -0.62898408609884249
0.56676226275225972 -0.01208975583972423 0.19958381859289009 -0.3147579472220331 -0.32294805541956828 -0.89254242933391759
0.52782746677979542 0.0068385290279216384 0.20691040418616197 0.32930653938228271 0.33234257032645176 0.88380179852095375
0.14646134000393973 0.011086501598922546 0.18787527559933201 -0.93437663161779227 0.35541398551699394 -0.024924068398127438
0.1442855530238458 0.003424904163518849 0.1898974700107805 -0.93238831421550483 0.36054824484075282 -0.025631907003216974
0.10758789543430611 0.015720075390697082 0.21011680553692025 0.86659263583781898 -0.39141700832689635 -0.30953179013484794
0.15613883793966082 -0.021741401963513672 0.18540071469457275 0.44824062382356122 0.77930488653708763 0.43790893685066701
0.1054668455351226 0.010249202232151273 0.21012497860474227 0.86686489269272882 -0.3924149099939771 -0.30749926216373674
0.16280156945966881 -0.025852568299743545 0.19123973756879489 0.39751877172578914 0.79529560809469235 0.45769391723171682
0.56574655068902846 -0.030999725772518253 0.20711935423645733 -0.3071393811233879 -0.31718640204670984 -0.89725034796304493
0.60638220073982363 -0.078446470533040449 0.21001651644444003 -0.31049402218448513 -0.32240507986853012 -0.89423063393213453
0.28963137039594355 0.31180261230073197 0.18350265702460997 0.27284774072190082 0.4382000469114915 0.85646647877761162
0.30018813020592783 0.30113678640292019 0.18591348490270992 -0.33657824706003175 -0.38780671084138973 -0.85809150947458912
0.29263838698525663 0.30212035585044938 0.18847452702709547 -0.3330311709018578 -0.39259892422810766 -0.85729593717844599
0.28258853582379223 0.30393081333088867 0.18999889084630586 0.27751954994794059 0.4327531670092577 0.85773398897335873
0.30924038318976649 0.29309384772733599 0.18658729318111197 0.28788393173915616 0.42558104301384575 0.85790653201479472
0.29252843754438629 0.29443608921042524 0.1915913605617717 0.28400320658550937 0.42691368871132179 0.85853764101525643
0.2627854282454784 0.29863270966863814 0.18889402702808358 0.55729535427213717 -0.80356319480517213 0.20906477479766408
0.32930430817247791 0.27920157005818952 0.18545726563510012 -0.35772026325444323 -0.35756248737020563 -0.86266174186804145
0.32173615251848514 0.28093645307470749 0.18757045201598851 -0.35547323379612467 -0.36084094134082179 -0.86222537373171482
0.30483759722130477 0.28431656506980529 0.1925844758842235 0.28974533630750388 0.42101457556278621 0.85953148124529943
0.26025696884512917 0.27991347078051315 0.18319835567564444 -0.49074419638483618 0.86950101406797853 -0.056018927599146631
0.72037397982223494 0.040329923282516313 0.11421068570315716 -0.35757779936050393 -0.34200907685854098 -0.86900397510648231
0.25123175437333295 0.27500372628278841 0.18529909776596443 -0.4910351642586292 0.86932528323404767 -0.056196257807292996
0.2433763848203741 0.27060090651980678 0.1853650258949438 -0.49127282806865236 0.86917791889875473 -0.056398171071924297
0.33254736516635891 0.26460494795745959 0.19134394615270231 -0.3615498117378031 -0.34356850743654926 -0.86674241521352868
0.31766586731638891 0.26666228005080833 0.19667396322810426 0.29724934334631187 0.41338238853241049 0.86067289299212024
0.33519767539054529 0.25583375104989381 0.19490325670926398 0.31258367035204371 0.39967490590920962 0.86171423257116353
0.71780835522717701 0.048745685563673542 0.11430975782422993 0.36886884884310461 0.36337702069490008 0.85550740101068734
0.34791613673093563 0.23545509988202765 0.1971589920618424 -0.36329029275646463 -0.33064781254139902 -0.87102938368949989
0.36707253276990642 0.21701456804372274 0.19613457494019337 -0.36332923658208516 -0.32480231675167254 -0.87320978056674647
0.38796699524663836 0.18686041666238862 0.19855626220503489 -0.35694928990537828 -0.3164017864811956 -0.87890677204556467
0.445998636588125 0.12585663041195602 0.19488293440530727 0.34535735373396392 0.32294436494664108 0.88115562494435939
0.45604363749031412 0.11650352728189584 0.19518474768275557 -0.33824748252114367 -0.31134874920255312 -0.88806001877019225
0.55537268830647279 0.0052155400523948587 0.19717806006428604 -0.31905263880779899 -0.32284316856266509 -0.89105426444308022
0.027243397336135056 0.064005521179510749 0.084163867550092933 -0.20189866769995832 0.96746823063760767 -0.15245376573872721
0.038549928733331219 0.064945038867283797 0.078239165272856945 -0.19588861394502505 0.96798727963507147 -0.15693399055459867
0.056079507631985437 0.062784096327655373 0.078318539030516637 0.16437152770275962 -0.93280262046697837 0.32071992786635389
0.22943278134297904 0.10709141295553934 0.18480576779327057 -0.18242459876075068 -0.81800163027856354 -0.54552231725988198
0.073182657039698409 0.065778743363883369 0.078228867806905439 0.16472110004382226 -0.93418327870009521 0.31649417213827696
0.081854372357971453 0.072083245192459608 0.077246038139162976 -0.19942420026774757 0.96845314094020607 -0.1494272470154582
0.20778704839875237 0.10022145363684772 0.18007353337009965 0.14173264565085858 0.98723897506127256 -0.072602088652987423
0.19698148978510122 0.10047134749904951 0.17932863482140923 0.025345998205250936 0.9916540807473665 -0.12641109331097103
0.18911283628001041 0.10063232842459087 0.17731710945435092 -0.056820914029938961 0.98744111680419056 -0.14741582199104472
0.1287263511738401 0.094902387352764211 0.17347723701636222 -0.17648365307552297 0.97405733641670444 -0.14165389359249386
