0.604416203602679 0.052057762967868362 0.17375086825182626 0.38953752254228535 0.35185540433676565 0.85115115753350745
0.65084796431162351 0.0097500711337075788 0.16831694694533264 -0.4099139213809449 -0.33764996510863282 -0.84732701958584777
0.66334931542125697 -0.019390534342154198 0.17500850912172486 0.37832138377167618 0.36647025956449952 0.85004263389303747
0.34394388705096618 0.37245506721198846 0.16809845347982288 0.30327973422007481 0.48604491418348406 0.81962292806373493
0.3614723913808004 0.35689296987762159 0.17018019978373797 0.32004395873883673 0.46533322471236443 0.82524957101083418
0.38208833959148081 0.33562597594488969 0.16768347599065861 -0.40873647580795908 -0.35968630946509145 -0.83878498563545612
0.29456584174845918 0.29987702305896585 0.16194117944000408 -0.48117328776637375 0.86568149043753273 -0.13808629278082044
0.44149411185938847 0.2817289061541125 0.16104876279811961 0.40063291135524481 0.37280574037156194 0.83696424671847958
0.45574931072513786 0.27211601409889352 0.15850856683536607 0.39874775406883739 0.37023488174351765 0.83900319484816122
0.46362505064707588 0.26382468159524686 0.15827672409385798 -0.42933726739959199 -0.34227841384488472 -0.83577209706814271
0.34903061916997391 0.28775309108533575 0.03680505480349637 0.11552399473051547 -0.1181052386431982 -0.986258261940825
0.51145415998403998 0.18124161602884861 0.16791527153891925 0.40462296369835105 0.34877084240641282 0.84536332824122673
0.53657261996845662 0.16921684865500744 0.16002254953564243 0.40054031849426797 0.34974971834980401 0.84690175804206669
0.59125465279054901 0.30481281396429416 0.070040080807021454 -0.42890962898507368 -0.33777375256635872 -0.83782183203896432
0.63541199427454587 0.06776806082895738 0.15357011923856073 0.38524956305034808 0.35269174738676673 0.85275512633744099
0.69318195883215961 0.28392383579522285 0.02548923131826419 -0.2142659196181497 -0.010828762414262335 -0.9767153390803095
0.54982741695810811 0.13429242777114236 0.16723531187127677 0.39297562610717945 0.35433392113221118 0.84853852571391375
0.55996126330772134 0.11746020591414726 0.16844189786805766 -0.42540753789086283 -0.32978491170933172 -0.84277537856447993
0.59477587230543494 0.098272557024522672 0.16049239601173712 0.38619164666115335 0.35698019624139105 0.85054168124825302
0.5742605469828761 0.10333521825649733 0.16786316197205256 0.38654019143014628 0.3604486202577894 0.84891900235735196
0.057611056345444986 0.097664572849234008 0.16533428420435919 0.11671999184765761 -0.94306698027141433 0.31145001882298634
0.088378629261973846 0.099068869212196209 0.16105400651126339 0.12586325677455537 -0.94206567624340443 0.31091912491540236
0.060622527040108058 0.097069139533112025 0.1625222911730354 0.11678437762205558 -0.94228891924616121 0.3137722132524336
0.35686332505500784 0.38043018148944152 0.15871622615081304 0.29948355679484517 0.49341727366515981 0.81660822507390263
0.38919594274600988 0.35395703127495004 0.15624234655476996 -0.40281866257892962 -0.35684780286136775 -0.84285038451147232
0.43617762382584235 0.31207715578354117 0.15152623117731143 0.39335011578955009 0.37639131020778649 0.83881181918736303
0.45054829351895914 0.29596579164130865 0.15115253511685267 -0.41872981328380726 -0.34421268255175808 -0.84034693587698084
0.49182742334842983 0.099242550560594431 0.20930920423607124 0.41668423763189311 0.35843050087954004 0.83540518441554457
0.29779428820241127 0.29995291481908143 0.1609340884254061 -0.13459172433680749 -0.87744142611597653 -0.46041460823436758
0.4591201413809663 0.28163988458618472 0.15294043587239844 -0.42377286797322145 -0.34353372681677247 -0.838093750668223
0.28090090418685604 0.28769235498260209 0.15562479202441856 -0.60218089323783175 0.75389455958082108 -0.26271879425295586
0.46035866292372324 0.26807635232789651 0.15804179409336502 -0.42810264940746751 -0.34342989773863464 -0.83593302776570433
0.45534438771861468 0.26891764579924854 0.16007470461339215 0.39911778976937179 0.37008363940042815 0.83889396811381678
0.50942309911058459 0.20446383669298085 0.16000484194348547 0.4067003496901111 0.34938093486684563 0.8441136107856041
0.53482530579294785 0.16761243415620028 0.16117615013253594 -0.42346453208287982 -0.33272636910907982 -0.84259774113589692
0.57098399336091232 0.14580637853142167 0.1525787917015739 0.39218468839832654 0.35118076983267055 0.85021364202513261
0.33523697700254912 0.29586553687317113 0.04207474867135224 -0.11119642301230745 0.15827270987170461 0.98111421599074544
0.19259391677564586 0.027396274418371176 0.21908040043303265 -0.90730849662155122 0.33885694543799461 0.2489322447710873
0.59429749365371498 0.11558564241895666 0.15295203042540631 -0.41115107992655392 -0.33256202759497222 -0.84873864485903394
0.1842819040119141 0.11042208034242725 0.15863892257869139 -0.67834944739983127 0.70113820502668522 0.21965255442243678
0.14345185368467858 0.096770603473797442 0.15890697603644968 0.21935999356367455 0.96345455603315067 -0.15374170443542409
0.61464808198894594 0.077235535468920563 0.15942584461208056 0.38632185146385012 0.35165281022214795 0.85269908417003049
0.68442177941535065 -0.0013151572765460081 0.15910971386224529 0.37691315369620804 0.36221321477600599 0.85248933225724854
0.30413399152996462 0.31307234913673176 0.1441157424283275 0.42938851324036958 0.4658868436071506 0.77367625894232495
0.58831273352243119 0.31069935083114109 0.068832789146621665 -0.42952594464651433 -0.33895925899898954 -0.83702693123601202
0.47817172278458137 0.10092816633737434 0.21529598539925171 -0.4542471586314028 -0.35808383291980828 -0.81574229231832529
0.63941886027704331 0.045947955286625104 0.15991420227959646 0.38231945207399076 0.35114802471082573 0.85470866457965011
0.48061644881544274 0.27519513924896688 0.14530430628004817 -0.42416989091822932 -0.33771578665144203 -0.84025469417600707
0.51193404926057229 0.24678077925835817 0.14112175214852402 -0.42506283830155239 -0.33139339666498935 -0.84231822973379211
0.51215174540751562 0.24470719488944323 0.14258193917577247 0.40151852414295125 0.35460940562372401 0.84441402416898281
0.53263699647645524 0.19767333419045682 0.15045207637939745 -0.42188980181833791 -0.33184559494487131 -0.84373425688267989
0.55000255541589105 0.17378798662238235 0.15156210846959411 -0.4179687225673408 -0.33301191563679849 -0.845224946981178
0.67447233868479772 0.29300109388048745 0.029338072473172914 -0.21707251088273463 -0.014755066112511392 -0.9760439606099105
0.59596010892878259 0.1317060669278079 0.14612334748530725 -0.41367490656505995 -0.33352259655689426 -0.84713384377224354
0.1853720100601301 0.1144766705615284 0.14946031455956232 -0.67703880262858041 0.7004670975276398 0.22575275195767211
0.51824181542915015 0.028815468858395928 0.22422701332282738 -0.46742315188480132 -0.37043383160547538 -0.80267949611545719
0.18472002993242076 0.1153701708211845 0.14527146036084318 -0.67461465248870023 0.70218801097654038 0.22765559050539541
0.18262688416008951 0.11177625845451353 0.14960508278453527 -0.67627778647430414 0.70122202896376384 0.2256901008404178
0.63474702186192022 0.090820656517208359 0.14496839228235514 -0.4159163513377197 -0.34074659890007025 -0.84315202901253405
0.11347765135564945 0.096727157529740912 0.14418388855076414 0.1536642227431449 -0.93957534372102391 0.30591744003940852
0.058853068883602602 0.08963205263697914 0.14325529706480328 0.11532375476228346 -0.93194388975204645 0.34377466157550685
0.048961419854685259 0.089768386023217045 0.14528621779677217 -0.21658920344596738 0.96376828846281204 -0.15569137132193098
0.37365725865686167 0.39999123791397256 0.14033996687638584 0.28715057048789644 0.51240942774659615 0.80930904370634682
0.37318161255602406 0.39839877534795304 0.14153932617351925 0.28853040577778605 0.51072502422430699 0.80988280298620186
0.44988841108238165 0.33646045757756254 0.13556818003862883 -0.40172058954118173 -0.3433262903856828 -0.84896856612520766
0.42838316071917737 0.3416954828688134 0.14310105776939525 -0.39983157818181436 -0.34824710309454476 -0.84785533216162356
0.45791223903387385 0.32140244734823598 0.13765803751670186 -0.40834555067144818 -0.34018741803763419 -0.84706931939229124
0.31000920619060263 0.31201724815022558 0.14702251383288711 0.76515530912102148 -0.47092428694423261 0.43905315041573278
0.30926247895547854 0.29605098844280642 0.13463569493259936 -0.65115974205623439 0.67315660790301324 -0.35050131463628964
0.47669918382362708 0.28393905567577593 0.14363340540194616 -0.42181775502738666 -0.33830934528034878 -0.84119948195397587
0.47943753950842921 0.27943647245361969 0.14412594558164168 -0.42292506960809484 -0.33801294287885214 -0.8407625324331276
0.33375470779752553 0.30164297699235354 0.043751645038691396 -0.14866676672436463 0.19683668657739431 0.96909932993938031
0.60790008517968075 0.14371997882231541 0.13608651188430876 0.39117765697356516 0.35358906475043966 0.84967924181633447
0.19903733420751063 0.12912374606301502 0.14174912190890271 -0.3041634701601223 0.94941244707268047 -0.078106265840949457
0.21759262869149545 0.13566855710613682 0.1389710839303728 0.20108656732343902 -0.96332179990399569 0.1776944069795163
0.64118568909767459 0.29493558748718607 0.031065293689286101 -0.095890293095598905 -0.35481393812198125 0.93000651664620659
0.63283131045989804 0.11423280976309035 0.13667712717008246 0.39647622371641417 0.36196618566407007 0.84367475040051776
0.64591136912666236 0.2944647929882222 0.031505949524809319 -0.077697309613168536 -0.33458094244823955 0.9391585175194459
0.51022378916296263 0.038260100817392874 0.22468644100359947 0.42131795386935933 0.36036242562787185 0.83224401706646889
0.10003197547216833 0.095107856387877651 0.14239958086390656 -0.21356472217642217 0.95457757715552227 -0.20777814763251853
0.67460404767386561 0.29906725742640083 0.03311537940171249 -0.00078370686697826978 -0.24342029953616104 0.96992058622202271
0.68636999531425069 0.037571015046633016 0.1431809110473152 0.38429895258678221 0.37436392431062004 0.8438992636656667
0.43486926140994531 0.36871729640110074 0.12988430374040785 -0.38250020074157032 -0.36070678089216468 -0.85063753423598132
0.45561663984949241 0.32617459882499295 0.13683574451451741 -0.40691002910812757 -0.3406282833054009 -0.84758279880117815
0.46174407552276059 0.32001921608231509 0.13641911449893768 -0.40905894978433816 -0.33943902712823126 -0.84702533755701437
0.47944826134984736 0.30821227966677206 0.13173953125587293 0.38568021534284691 0.37304923867776513 0.84385131214867182
0.33560668101847474 0.30740984978412211 0.12959009098967689 -0.47231127023128827 0.86813004489115475 -0.15255257837804187
0.6634604588941535 0.13304075701656645 0.11174801738309886 -0.4596117035427999 -0.3487534587110121 -0.81677910539116505
0.330601135697356 0.30514250502909362 0.12909293023741963 -0.46415418897823923 0.87114068396785405 -0.16023357198156826
0.61692556248486252 0.15303361701085474 0.12826220792477078 -0.43163464849576255 -0.33829724994453636 -0.8362096034475468
0.41957197807909125 0.17115076534298601 0.2179718191179725 0.42105328070202547 0.35439441348426703 0.83493636554003536
0.20355534611013776 0.12958856216664005 0.13152296956371015 -0.29743664324969138 0.95113662496826301 -0.082888864730658957
0.62488458895579491 0.11468797536750168 0.13976299769783343 -0.41647636146732087 -0.33954589198525459 -0.84335996322737494
0.62387294141870064 0.11302209564232107 0.14113477817202516 0.39112798785281533 0.35780114826443254 0.84793704684891646
0.15807284721435572 0.098422761007142104 0.13778657477919232 0.38779020485315346 -0.83092550936270726 -0.3989756319755316
0.52164779933995498 0.043647947355103904 0.21672534225821813 0.41624048943496422 0.35713562511268521 0.8361806026393539
0.14473785343898685 0.09524494442789827 0.13251336010891651 0.36575692793005643 -0.84532532559547247 -0.38941875093281764
0.044863083164963652 0.086373544268664407 0.13517341717090162 -0.20515871945780464 0.96231272491121422 -0.17850523606994709
0.091628542966473492 0.087777668452505883 0.12973162636629387 0.15124717916569697 -0.92756122988313927 0.34169351122328556
0.073859963552770871 0.086722348030332255 0.13310964308421441 0.12577692699500118 -0.92675394629824848 0.35398769421593923
0.72029734341508589 0.032849996834886465 0.12734457460122084 -0.45536663675078354 -0.38127033836554625 -0.80453350161251946
0.39079648463362532 0.41170660686252031 0.12671288841290676 0.28623234288211236 0.51649259510320134 0.80703559096967803
0.41838371059518259 0.39735932108264127 0.12539614362084928 -0.35644843988378899 -0.39043099273531146 -0.84882751464365946
0.4393636681597477 0.36658434503629517 0.12877977315546241 -0.38505828446864621 -0.35878544335111501 -0.85029590331919569
0.4564928191661875 0.34632445793768796 0.12855312839138994 0.38261855056949073 0.38267040395406943 0.84093186804742481
0.46898147996834449 0.33543916660351314 0.12728564782430257 -0.40427562171062076 -0.34096471740926637 -0.84870741906295954
0.52204832871432538 0.28895406764933296 0.12017891469198028 0.38359169825117118 0.37534527913781829 0.84378512102414771
0.5019071895802627 0.29094347659319314 0.12826009150425696 0.38536226541220497 0.37289334435629912 0.84406544659235272
0.52357334864947691 0.283726637027644 0.12163172575979737 0.38499077987263342 0.37264439857055176 0.84434486534061026
0.5859533011303093 0.20902162527967449 0.12021418827013831 0.39025365940339857 0.35182115787447765 0.85083720781011796
0.58776781869931993 0.20331322741537777 0.1216576810715319 0.38978198723729396 0.35282284867922481 0.85063860709188532
0.64067851824295707 0.14498261218281863 0.11940330197786896 -0.44891539594027308 -0.34413524750774505 -0.82464895483506861
0.65564271173465294 0.12835494921972523 0.11929462540051566 0.4182971290613352 0.37315836649540773 0.82811855753480346
0.21128775090972038 0.13142867388648882 0.1251585014952962 0.21424247452802042 -0.9572652046199952 0.19427683889735628
0.19947136324837128 0.12771337127086177 0.12412884028017046 0.23150448639319843 -0.94898445861273839 0.21408916388110202
0.385433382532678 0.33493931492564338 0.022615284700602291 0.44910144112502148 -0.14403892489368414 0.88179401432244964
0.11199203605349917 0.088483861486511592 0.12081386966007156 0.17905254801909007 -0.92757126956370717 0.32795079650435982
0.10841117356951858 0.088197975789096814 0.12219809579101526 0.17512298424342296 -0.92774080377361856 0.32958904927675942
0.088336975028553255 0.082841049167486108 0.12050120674938354 0.15166106661167808 -0.91960416600983597 0.36239080939168694
0.69901658447358872 0.058321582210929306 0.12777135945042073 0.39879307593183844 0.40731090053813551 0.82162151437972708
0.72780491982602546 0.040606970616185421 0.11884191920184463 -0.46326993403865896 -0.3842314229480232 -0.798590747401417
0.46072598937906939 0.36401624902581675 0.12064499439120005 -0.39589437601752187 -0.35985281297562993 -0.84485122715849992
0.37921727235718805 0.34929991218257239 0.030363502098015974 0.41041570703823727 -0.10436802657428744 0.9059063210096796
0.5242560137195148 0.29116592825053084 0.11834011083289173 0.38307355234584106 0.37697997941231948 0.84329161540680897
0.32739688262045441 0.30009296084930559 0.11316963799948039 -0.50783269650738094 0.84562581377569057 -0.16438654274071043
0.32443953544349036 0.29910032486730254 0.11643216943715204 -0.47605059146689832 0.86554928746102089 -0.15556434469291322
0.52547869559364913 0.28534696680475091 0.1201552480598993 0.38431617521009259 0.37363545207715249 0.84421420648019629
0.57929210567034628 0.23536654377958993 0.11359132282780805 0.39174812807362314 0.34935590324391308 0.85116617473877676
0.56666022196535315 0.23703578567831171 0.11890528635737518 -0.4151963201135403 -0.32834634267616142 -0.84841068770694028
0.60387894730353786 0.19637394003741154 0.1170231673452598 -0.42775198701354161 -0.32839576151195765 -0.84213090516080003
0.64109409976221521 0.16164098529324955 0.11169757055258576 -0.45253309891445881 -0.33956584000558299 -0.82456584618099449
0.50134457522492293 0.052915613721176924 0.22299920271755638 -0.46764996901064398 -0.36941907684915176 -0.80301497628890106
0.63006540963128854 0.15698394609996336 0.12027413301847599 0.39714208339339757 0.35899138880758108 0.844632078694597
0.48434238878541114 0.093111817305483402 0.21571653556742254 0.42079776647688827 0.3609286999303285 0.83226180574063657
0.65501415194015233 0.14621488628518214 0.11055080364595786 -0.45704334860962487 -0.34444655127395296 -0.82004143237228022
0.65067060271510824 0.14707821807002716 0.112678517231698 -0.45600051057917829 -0.3440698475898652 -0.82077979649295441
0.65641527785852116 0.12730448188655402 0.11874198352844491 -0.45473154758166262 -0.34985846858394265 -0.81903496359684447
0.563730333165537 0.36230281318288782 0.02600796171467664 0.047046300938595957 0.29009099103107405 0.95584196522783216
0.14046963571075272 0.098848254048975265 0.1167277342880219 -0.29370496943219354 0.94600001834983027 -0.13719094799933082
0.087300709692341591 0.080100250414735744 0.11481960491439885 0.15179817078003835 -0.91733340297513755 0.36804448526487715
0.036750188495178228 0.073827675164837916 0.11546843076131107 0.10180293189983776 -0.91325281228845956 0.39446858417853337
0.70381249049505823 0.058499530679729801 0.12440587683227569 -0.46075244823264017 -0.381086223347751 -0.80154879565886461
0.40715825707101627 0.42444759500454993 0.1089063649844096 0.059829434953224341 -0.76286943800221163 -0.64377842405238117
0.56418752326923349 0.36554872194376958 0.024722732731149138 0.04435490253508638 0.2850730172256134 0.95747899061597597
0.42911741169402268 0.41333447841506382 0.11407253006048762 -0.3487419993023031 -0.42167981951240474 -0.83699769876542562
0.38641456099872606 0.41523587556450298 0.10806889723254116 -0.85410327836953026 0.36551112675601388 0.37001244046108772
0.50263666967664433 0.33408023773498524 0.110309822534446 0.38618616117488241 0.38632887411353534 0.83762178215658645
0.53058623453144216 0.32110127201975031 0.10426958643979821 -0.41776080686330064 -0.34226851001213032 -0.84162234719795803
0.55519533530352438 0.29774015053906938 0.10153635739567118 -0.41978672935278177 -0.33670788872554003 -0.84285639318289785
0.51500102035590223 0.051021176374486769 0.21644709783161314 -0.45817774549488793 -0.36181809912561103 -0.81188719455251368
0.68208616204689565 0.12291973627336233 0.1053500043664657 0.43375635637932836 0.37613773396850791 0.81876481872731011
0.54074361536851479 0.29103981748135627 0.11137522416395779 0.38536422115554514 0.38218575703538116 0.83989788913443086
0.56123409149648185 0.28227397954526517 0.10581228941928748 0.39024540971619859 0.38032744953948883 0.83848646460287235
0.31217786545874959 0.28597446254876674 0.1051299885789776 -0.62186212955075704 0.73686971657769595 -0.26516129548126632
0.56748614631514727 0.25523922993981446 0.11254033774994644 0.39168255904377375 0.35664867470671252 0.84816654954723736
0.58005020718038658 0.24441884103706615 0.11006473235968552 -0.41608511490081002 -0.32769583111816808 -0.84822675000600689
0.57550778380437539 0.24657279066496574 0.11150459342715262 0.39208076167247469 0.35215365441685131 0.84985909420749794
0.58140951168106847 0.23719583988298351 0.11192976324988016 0.39182608098934429 0.34953434105383357 0.85105702904129421
0.61348469645168613 0.19916777865756036 0.1110839170044876 0.38716145990476675 0.35190453373193814 0.85221429412050875
0.52505387233521972 0.38398557505676534 0.02334532942674165 0.072046239981333152 0.29815973115035638 0.951793104631936
0.20978542256393237 0.12591722814971487 0.10688562827073815 0.23561128119884689 -0.94545881302748269 0.22493322795999129
0.54771353973503434 0.38207274070661368 0.020939133470312402 0.046985853957176339 0.2814287808696796 0.95843109863261466
0.15158347573231082 0.099556505455377739 0.10711701002477195 0.23887653590469951 -0.92897137338569458 0.28275464279842905
0.1486041325233344 0.098581064224107701 0.10952370391152459 0.23189359018894992 -0.93032028114975762 0.28412943759968856
0.10625884264043786 0.080870124317791905 0.10556396791101831 0.17432002923405041 -0.92150327338905225 0.3470507809256469
0.054041836002353467 0.072467254210378099 0.10965597898155348 0.11360346555283145 -0.91111052388367231 0.39619675147937128
0.073565188206395765 0.07731229602478408 0.10482729573394431 -0.16792772454869198 0.9506298549129113 -0.2609658182141022
0.35101504655741073 0.3844031135564398 0.016827260784427461 0.47717603630720234 -0.57261281139388065 -0.66664653198058677
0.39108398093901298 0.40874876759631174 0.10112207481517298 -0.27638532694234397 0.76841691051860395 -0.577188533046194
0.45351668400551992 0.40786549390180493 0.10475659345031714 0.37514173394972977 0.47353590382193811 0.79688921892615072
0.34774539414990241 0.32845561897112574 0.10509731804955744 0.7511305846422065 -0.56372255164245 0.34353999706698257
0.53560010457664065 0.31339690950177462 0.10489228057981327 -0.41818429719212979 -0.33997188829328173 -0.84234257208823593
0.34252588096308545 0.30578086952620748 0.0967930458254041 -0.5560730751228975 0.82524991781614454 -0.098718327922483307
0.072756729704508721 0.071445751812282909 0.22439625841385924 -0.18274486882454455 0.62615432747280508 0.75798091737548334
0.55688422996658704 0.29133234782194889 0.10322023830376009 -0.41915654442589795 -0.33528760498383325 -0.8437357484480229
0.31051099670678434 0.28449245306522097 0.10199316451996999 -0.5991503271021128 0.76421320222650357 -0.23874058531415307
0.56637657216204285 0.2784283911603142 0.10489751658051373 0.39096332157654823 0.37651883938723474 0.83986977845873356
0.60077947062977621 0.2582583875206787 0.095256404486869867 0.39230768835622754 0.35755638119598865 0.84749519876080825
0.61513744037053064 0.21581778253047681 0.10375234106716025 -0.42537323009802314 -0.32190639261786153 -0.84583325159734024
0.657289345642178 0.17112830580748328 0.09812086213604225 -0.44990232723654322 -0.33243242828615777 -0.8289008243275614
0.17499588146990724 0.11215309501698655 0.10397442950248442 0.25316303784387628 -0.93301501517994678 0.25571753502336114
0.16706787856434868 0.10580162679399718 0.098142546556570384 0.25164123923590187 -0.93037707804040792 0.26659928614460371
0.67051278629125277 0.12547475242329145 0.11105686074288103 -0.46113790916704089 -0.35083441420105399 -0.81502579256196128
0.082634207340509094 0.07291599290880614 0.10142014930743566 0.14166201695852698 -0.91305819573884317 0.38243509795175745
0.079559870463860718 0.07107682479891668 0.098704688134250082 0.14056422846702851 -0.91199370106868316 0.38536889714468969
0.08437072474625168 0.071700510851990182 0.097909008240548573 0.14362570371014313 -0.91297766290923921 0.38189454599738648
0.50444637314892571 0.066266207547971342 0.21582578235176461 -0.4579904951051858 -0.36085193458632098 -0.81242266567262644
0.031003014738257725 0.071352275801420673 0.097610093116922772 0.45917519282992408 0.86872134049448457 -0.18569161224747835
0.050505193271472855 0.061621004310703859 0.099070878772648321 0.44844990964168191 0.87367550332415012 -0.18863667043727275
0.74416460009243468 0.054613818392914938 0.10102993873795695 -0.46361864754215903 -0.37824488291564201 -0.8012418849506755
0.43122587105936822 0.44269876987439899 0.088582422389933829 0.048377673147079546 -0.76224046285443281 -0.645483599736147
0.40420049668550034 0.43782986439960586 0.093067957193177009 0.049925218874094721 -0.76381427247877687 -0.64350231520802659
0.3855727613389982 0.40774284614796658 0.090570451337837837 0.10218656052356422 0.94474535361070755 -0.31147090342332628
0.38316534492193394 0.40765294605797597 0.089502402074251322 0.10234164034184458 0.94474597185677667 -0.3114181069118096
0.52039694409288439 0.36962842976763804 0.089694750492410852 -0.42592439296473378 -0.37456490290149425 -0.82358335643213265
0.51681512587494294 0.37065427534555861 0.091100293501316654 -0.42435993757163082 -0.37459024957456799 -0.82437903194335582
0.08415576972210348 0.078550461084121961 0.22241977289105966 -0.21037499720475006 0.62951830314779533 0.74796327888006764
0.5262706154910658 0.34315979084622605 0.097733061063074486 -0.41941682371193045 -0.35265252462326807 -0.83649609973043548
0.3765614670836952 0.32764946473487749 0.09302474631639783 -0.61197172775292397 0.77543911647653929 0.15551456867183003
0.5684113345387608 0.31356601505494741 0.088493184824424517 0.39075682892398234 0.39474822300413548 0.83155453283855707
0.5652427095644168 0.30185519192997018 0.09371045028221052 -0.42311533379379307 -0.33920298707877439 -0.84018732903168913
0.34493908661014838 0.30667277330015741 0.092447494985697445 -0.57367667023542601 0.81721893438651938 -0.055211333145976732
0.34126987195142106 0.30474483960244325 0.094172134116273912 -0.56436574248397697 0.81932310034594147 -0.10099983143562052
0.5062345103108904 0.083003623066863375 0.20854995437082136 -0.4477445264871262 -0.35197804057740439 -0.8219709836436504
0.33119469732760226 0.29760701354570535 0.090946292796167325 -0.57533997852289165 0.80592326774472633 -0.13954065938263513
0.59254052079244612 0.28889336037888153 0.088018575416388078 0.39305405487031359 0.3837118735368879 0.83562773293902581
0.59135178640070907 0.26943469323803665 0.096114992501176125 0.39279476404364638 0.36714691358515888 0.8431580025029638
0.61610684003702265 0.25673117636730958 0.086557446590699874 -0.41891342117399938 -0.32734676885811104 -0.84696849910634209
0.59748048506799645 0.26142298959139426 0.094382667073840562 -0.4201784046130887 -0.33164779192843896 -0.84466552575903708
0.62372081965224857 0.24893171699881378 0.085894676925119207 -0.41940778764600029 -0.32414381817662674 -0.84795512428416009
0.50444843751412871 0.071903110783799393 0.21371511341680674 -0.45394945483025045 -0.3573756625974629 -0.81621843169726505
0.58020530890378841 0.39214165437892073 0.018119494017677932 0.068711261789916142 -0.079137725774974271 -0.99449282695372043
0.63098055945404075 0.24012947641467292 0.08558148098814379 -0.41960711358576652 -0.32200446968067548 -0.84867130959747217
0.4925570827708034 0.084613372346053858 0.21473581801926844 -0.4551250261488422 -0.35865690545560736 -0.81500088020935491
0.63857357568688566 0.20337258131839278 0.096030332970321014 -0.43716248542107089 -0.32396972335074742 -0.83900690086107876
0.63949678227688234 0.19852768164537771 0.097861261811238345 0.37865799964690899 0.33165736550966263 0.86407263074731833
0.70474900851892552 0.13755608536007466 0.085748634683308664 -0.44006755460772434 -0.33451986868597472 -0.83332886955624885
0.72003326184994509 0.11458786159290618 0.086858497707690621 -0.4457737604969686 -0.34513565155973236 -0.82593409935347162
0.36859799425412765 0.39950649680426353 0.015132182715576073 -0.44321134811543267 0.56910587884950647 0.69259093234075153
0.74390515315941286 0.094698002861026087 0.083126580595365207 0.3524028504729883 0.35473644265607562 0.86601055838264784
0.74459842966379219 0.09315490261758709 0.083473172954278349 0.35113546090680681 0.35713941574749136 0.86553759352976978
0.74703403512126965 0.068013763923717482 0.094296127461357931 0.36267211024310708 0.38572029797466068 0.84834473663844379
0.091316098364353365 0.07101125243525451 0.092945978568165097 0.15330701577086323 -0.91339230137969996 0.37710935111148802
0.41192113723397472 0.44441377835390722 0.083298351146843683 -0.17764654887937847 0.83529622760377864 0.52030944237265486
0.45459152235793304 0.438336240368493 0.088598739126796805 -0.38985001138977665 -0.50014458502271153 -0.7732220655748584
0.47801400030047053 0.42258550836294695 0.083886135075169066 0.39525223790472153 0.48634570663480897 0.779258315367374
0.48017949249088987 0.4118926205339079 0.090055143608458926 -0.43114856207400887 -0.43590174699725914 -0.79000036986462985
0.5563510258203026 0.40954782915671123 0.015362517049666626 0.040572443156591462 -0.082522931276715589 -0.99576294501743923
0.39372905466467512 0.34761100363558417 0.081838036807254128 0.64156250071751275 -0.63809367914239534 -0.42571588449529735
0.57246543365716018 0.41367445281950688 0.016194786792633906 0.051626861389621886 -0.077338437473017954 -0.99566733062418433
0.38327128601118848 0.33725053511606073 0.086884821372301274 0.66075901206025855 -0.67275460899328965 -0.33286448302490473
0.57746517835422795 0.29920527289418725 0.082480072507507815 -0.42812304993723543 -0.33898107634797081 -0.83773652420699107
0.57461710916975328 0.29987611206300574 0.083715939340100728 -0.42783601776954688 -0.33896191660921932 -0.83789090040869929
0.32971158195289729 0.29371135942109677 0.083343586503978467 -0.62694153235896333 0.7508144664368297 -0.20789889848811988
0.59462184824961306 0.28171063126448453 0.082000446490352374 -0.42548208206058274 -0.33571815246176517 -0.84039176575752483
0.61824842372157196 0.25843474987452947 0.084491992339885372 -0.41907143445720718 -0.32740172303619869 -0.84686908349219292
0.62042393738045298 0.25404997376434935 0.085462951420364433 -0.41893500293615682 -0.32543661438825011 -0.84769361996560744
0.68352378517563239 0.17168171607341925 0.083573423773036129 -0.44033696405656653 -0.32686996201137936 -0.83621730789318482
0.71130626504860917 0.1532978065818234 0.076339834149839594 -0.4328936568900561 -0.32794681428631606 -0.83967491853919929
-0.0015822562992609786 0.14182092836098234 0.078917335424350921 0.86978611684512774 -0.011343342187038452 0.49329852982904937
-0.012106252579901767 0.12006053928530444 0.081320905239361876 -0.46340353266500317 -0.55251858726294645 -0.69280616094442549
0.050932776810524188 0.058592691033292878 0.087583673443630855 0.46015661347854481 0.86857964676450805 -0.183916525354302
0.60726285921565004 0.20034765469345658 0.11362961542192238 0.38812376436623308 0.35325523226806155 0.85121717816866371
0.44007330725662808 0.45175229510753317 0.077601562645557731 -0.10861851926240167 0.88170794532035213 0.45912211494569305
0.42599517964706379 0.45750432726580781 0.08346263877938144 0.33347194718257067 0.58577843437678456 0.73868808455351975
0.42973577608471858 0.45435318967205496 0.07909358708710694 -0.083717795228854905 -0.72033604350008817 -0.68855451141987201
0.40774277962942912 0.44029211299335846 0.078157305626048626 -0.33336972797237596 0.84170948888113328 0.4247231578323527
0.47141953663247499 0.43064661395052134 0.082119829686475757 -0.48436493875794134 -0.51308206920881338 -0.70861653689313397
0.37248645531479291 0.35465020122325541 0.074097346611918108 0.80026726261151715 -0.319288502487102 0.50756985782433217
0.57822944674186905 0.43045823750473133 0.015518955071563215 0.035422524041386613 -0.074946537084767464 -0.9965582077177122
0.3508026733517785 0.3107312812926088 0.073978108754693669 -0.61150827632620097 0.79102930414793748 0.018173276088492684
0.33912970986769497 0.30177944928479261 0.075782215480711609 0.7631656221033033 -0.62062976145915183 0.17999147877284188
0.71360288700139174 0.15329969483180372 0.075166205452186496 -0.43256416494052896 -0.32805658032407381 -0.83980183574184775
0.72803328272870915 0.13645059407491625 0.074136724965247605 -0.43461143947526493 -0.33491169958780426 -0.83603053183268761
0.0013456623118166993 0.14074224553613052 0.077628625155518521 0.89567884547150045 -0.085946593064932145 0.4363170738297677
0.73178192191858626 0.13057503919939378 0.074512017351022933 -0.43493856655349106 -0.3367397846964113 -0.83512559578006529
-0.012384608555583964 0.1112340634677452 0.073217245889446878 -0.54797346635791278 0.73496917951878793 0.39943132742083864
0.74053192842408699 0.11712300244949303 0.075202722842473368 -0.43752700145089796 -0.34194986485245521 -0.83164921266647851
0.57912086398624729 0.4333719296929448 0.0154157685856335 0.032208215119096988 -0.074205008483551091 -0.99672275362549945
0.74793777608082157 0.10847977153081016 0.07473117563973164 -0.43938602203504118 -0.3461557829353954 -0.82892466339264259
0.75733868812174598 0.10041638340643871 0.07542941349672265 0.35065717177720562 0.34879636639286193 0.8691263674934433
0.76373475357008314 0.090590935356306357 0.073634735560290362 -0.44310304694987523 -0.35315684496140998 -0.8239781141757585
0.74101602253963372 0.069061733199732356 0.077720884609011803 0.52444139916703447 0.77247546674095779 -0.35811013965407718
0.039500299711907209 0.061477827494510265 0.073011091172765649 0.4729711535808207 0.86272704381566145 -0.17888637664595222
0.057052619186062477 0.051620723600930299 0.072771262446642754 0.47696394452697405 0.86165209664417763 -0.17338125610908003
0.43252723959781553 0.44574949717898305 0.054554593994480767 0.3219611998268625 -0.6988356568506614 -0.63872506645672822
0.44658486050117147 0.44855759874389217 0.065553769362889591 0.75680942062494028 0.65352839588148015 -0.011837931826201664
0.42259687611882335 0.44101648679904476 0.069140983790247038 -0.54898160613386726 0.80254880745225277 0.23352646056420706
0.38142773284667258 0.35679039682414831 0.07336478392337889 -0.80377011193250003 0.43791029247316782 -0.40272594020013291
0.36805530803396219 0.35135932357044752 0.043716414306031431 0.086312874615911417 0.16109594431310464 0.98315725313980518
0.46443751919111464 0.45367400848363937 0.020903323794779678 -0.42407538842037584 -0.31663619185537417 -0.84847014499240581
0.0081078481922514292 0.14840359838993081 0.062747829436183233 0.67206103953708718 0.42403198355981281 0.60706740651649249
0.0074654568056734859 0.13341274812473886 0.065393532907030288 0.85725942471781402 -0.027463319180012255 0.51415177217636765
0.029546845034138413 0.066515613476010052 0.070933440606669548 0.47330883046256211 0.86253435668678713 -0.17892242604288527
0.44181388397832194 0.44114780743225313 0.030943181666169578 -0.33713175690873176 0.50979156418551308 0.79148893837432732
0.43679107532486011 0.45674190166593104 0.017469480885345195 -0.31621666419436395 0.49001536517538014 0.81233734567470661
0.4296475179512399 0.39475020331277233 0.058378487761574387 -0.40447771608144018 -0.12632499444531661 -0.90578130526740985
0.078852201488737769 0.080141093344414702 0.21806679219658551 0.20510635877875713 -0.76937790330649525 -0.60497026661830322
0.41924726597763906 0.38252452813134707 0.063435604029045981 -0.33112799694498463 -0.17549382304172875 -0.92712252033558151
0.3601158259705825 0.32847915383907539 0.058297815848212142 0.71197069674048874 -0.66320770714249633 -0.23076668773819092
0.35267339733033493 0.31789702394677155 0.063307399273221446 0.74808408036490881 -0.6620119607187348 -0.045938791559258611
-0.0027405444403119077 0.17080558629695064 0.054170742568125582 0.81815043500260809 0.16902104412075156 0.54960144864199034
-0.00041303802109858199 0.1513981420270433 0.069010643521388193 -0.66799047304819026 0.069822272986566111 -0.74088702115224314
0.49472331678379405 0.45602678865513635 0.015771744399392176 0.10308717097153101 0.24958415005315487 0.96285034518523727
0.49914375701099362 0.4564496039310928 0.015137600086346596 0.099530122553830688 0.24347098050109495 0.96478787117078479
0.021405121575212356 0.12280734633109183 0.067745507094985127 -0.16057173965276181 0.29457887005770866 0.94204034188585006
0.043359632063525208 0.053112790628822376 0.054283110829744831 -0.5991807191508427 -0.4066511905304504 -0.68965011059090409
0.058630216086944062 0.047819443477051839 0.059784267940861141 0.49202380457262129 0.85802712539866111 -0.14731608131495116
0.43364913527650284 0.46930499809948922 0.057299745949885031 -0.095137648277407311 -0.75853548102980006 -0.64464932474883907
0.084143953234279409 0.081399098134651002 0.21836820695613665 0.20910964977866284 -0.76904040434021204 -0.60402815403066124
0.43334689365606577 0.42695492330049062 0.047084471520661322 -0.80423093241550681 0.58097757524620086 -0.12521048042048805
0.45128325533524039 0.46776499479132361 0.018164307346616646 0.094110517973620023 0.26053695047222031 0.96086612378903902
0.38693793003982124 0.36418235178824998 0.049864533329438611 -0.57853303660470867 0.63551441228435424 0.51129341608885082
0.37005154971049203 0.34174923936554913 0.054110645081003994 0.6890533572445523 -0.64195837713040216 -0.33629587107502784
0.36740256876509403 0.33866654491272385 0.054228174066379281 0.69094689225419603 -0.64443617406339593 -0.32755825381571585
0.33265206280080917 0.24777024923049595 0.054607059545100943 0.88737267167782974 -0.4140307588276172 -0.20285036924782321
0.32411508759180213 0.23779722386078342 0.031881048529876742 -0.32533646417678297 0.39226121032069955 0.86039951647748425
-0.020454591670649027 0.18338106986801805 0.053957708027873981 0.23731416286287088 0.71360686589763578 -0.65912611012495048
0.0017891088153446791 0.17799982556984431 0.051492032428010134 0.84997852414504849 0.14205910531710103 0.50730239412869937
0.54527420657024384 0.46705761531688317 0.010058094481882583 0.070708848695175561 0.16842429130934844 0.98317522182627581
0.0016098119397694598 0.17417682856285921 0.053261766680956432 0.84833348216452975 0.1449115938275562 0.50924545458252335
0.25121372124219488 0.086469322975110008 0.23151534304771973 -0.40648475815971669 -0.40938712996239668 -0.81680616991119037
0.48942539049858774 0.47321688946615043 0.012385472629571103 0.097921763217415594 0.25210412238148427 0.96273300544161988
0.05156764682016763 0.15039558254708349 0.050387676961706353 0.047310867256192025 0.91753096367083475 0.39483998346765253
0.51050210020744036 0.47234482229765457 0.012825705648820861 -0.011396331429868064 -0.065204662763643326 -0.99780683280072813
0.023905117274393987 0.14822647454672136 0.053263941523064531 0.17172108895199301 -0.78767963130900176 -0.59166938912711775
0.24919544201462121 0.062445946437454408 0.042229327857669176 0.30636495206985037 0.53011032874292918 0.79064755454203595
0.24895879323858264 0.06449507499328358 0.041654259304548601 0.23361691835618356 0.50160981432185914 0.8329530176629113
0.24285584395585655 0.065782615368005587 0.042777813969861911 0.2276594340195415 0.49623046135017512 0.83781054620367146
0.49015493719425646 0.082434922930566756 0.21679130598951993 -0.45827172581117931 -0.36143887255361329 -0.81200305832503872
0.25387754607131058 0.056466873956981391 0.041501196644354366 -0.37771529416224708 -0.42369258586501596 -0.82329566331843573
0.2378983179334884 0.060852631962627371 0.047006140066532226 0.22191254934873017 0.49094356608419526 0.84245429274357719
0.25143749024353007 0.050422874986221528 0.048482515412925087 -0.37439662762852233 -0.47931342231517787 -0.79377944569565517
0.046041286820068035 0.053902856177574038 0.052820008953345127 0.45669184622792519 0.55339281767588122 0.69655505664209927
0.26214094986254044 0.034549845017811567 0.055438849935459528 0.74682766285471103 0.62064359981149486 -0.23885134290599883
0.27179979795529474 0.028238931581356722 0.053171903042214884 0.5642549594669356 0.58833207632231466 0.5792078285790353
0.26784155762405326 0.031885612151046461 0.052766113011106758 0.37147325289289956 0.51357708809265568 0.7734637657779686
0.29377770565844746 0.019641141591058502 0.051649733724883379 0.11716619907072877 0.052434385534133994 -0.99172713838483628
0.27979402632599532 0.017889520790433766 0.056100131194875578 0.66970421151580461 0.65086733857691215 0.35758632056022716
0.30460499050556078 0.0014500159080694209 0.045713447353954134 0.23140836738231674 0.39869584055879448 0.88740734402334487
0.291034519864656 0.0035690510385688119 0.051223717760907693 0.24574677130888076 0.41338644958981996 0.87676688332006703
0.34881145841260874 -0.057436543517157192 0.056471595867958996 0.17468075024138696 0.5060888086932368 0.84460686310884703
0.46007482263220512 0.43945320228029339 0.040122510417199719 0.71059813913668257 0.492219482847776 0.50276263321825332
0.067832093297999843 0.082310446178265856 0.21160433765945594 0.20166954939384832 -0.7706090723235095 -0.60455855837129813
0.10760997642513671 0.031179726130261241 0.032001236192392472 -0.01681562905337004 -0.1468768746924258 -0.98901183931241432
0.43512240392558599 0.42617348251530413 0.044765953332030317 -0.81273262713775296 0.56235841803293396 -0.15237679105842217
0.1318424336920698 0.031770301611703203 0.034219221957296792 -0.066416779173332469 0.24328408825339695 0.96767849198323819
0.41746619113287536 0.40628508340892905 0.040546617847126071 0.53325985719015978 -0.58924464391298614 -0.60697996204931537
0.075646123365291015 0.036206903569665112 0.03305950306427613 -0.060824616663394289 -0.17506609889939545 -0.98267605395872859
0.38194623899241725 0.36967276881188937 0.04513020779647467 0.56660381843393315 -0.58527194850911912 -0.58001453363206812
0.3702777244242576 0.37208282069351251 0.040266942725374427 0.038689732085153618 0.19264471039833667 0.98050554316980798
0.35089951366293365 0.36436624165336706 0.031709199198080948 0.49273518358053581 -0.56363438499162721 -0.66296931974033746
0.35697004906763891 0.36089984955477417 0.042873749398806477 -0.059898635573234542 0.26097474096870471 0.96348551521690362
0.34420912466150477 0.36025703581053103 0.033173908061548067 0.46853987845339778 -0.56255283126148803 -0.68117890039148965
0.32408554273823159 0.3470237756181343 0.036006515162235207 -0.38920927777531289 0.48413298024489076 0.78366535940592619
0.28847159022734148 0.31469502320321041 0.036615081121948542 -0.32021492433092569 0.38013552964919772 0.86773232124547695
0.29938013790785739 0.30921882606061646 0.040312430326529938 0.14155906800786588 -0.055113035375284655 -0.98839444737233673
0.30690887456763055 0.28777395213823892 0.040379722944790183 0.13917497302957318 -0.0012598380139286168 -0.99026700424198533
0.29631874314507384 0.29218895340890272 0.04214278025831595 -0.13737239302241366 0.20156957759898947 0.96979303514814974
0.28320603256467103 0.29259336827982235 0.038920600508395513 0.14614795195839839 0.016178516837644406 -0.98913044222251079
0.16651017795961456 0.040611580956689805 0.037251075430872298 -0.12524790959371324 0.17003982363292586 0.97744535372638019
0.27529911554980446 0.28404590593810974 0.040683088441676479 -0.13605040923837144 0.18229454435051468 0.9737859031871996
0.2613730704773401 0.27566158076523811 0.040196099266988437 -0.18648759314920968 0.22444072412868593 0.95647725480222789
0.28573472030821911 0.2678111504007466 0.040960744675696791 -0.064718358628652023 0.094151116212889394 0.99345211327586402
0.25296111672927635 0.26732794354699507 0.035288773688723157 0.24953371882703634 -0.15122570302766528 -0.95648508086228823
0.068846241761630345 0.042550522421271351 0.033136281336307638 -0.11691861844668704 -0.20286043948674506 -0.97220248855460278
0.25140836308518671 0.25327760350310019 0.035801409197754 -0.075354150082589694 0.089167857066213663 0.99316204384357631
0.037431882314304027 0.25625428342593121 0.03968514522807505 -0.48650230834769898 -0.71986137950597817 0.4950909999869828
0.014398629970384694 0.24422292041524529 0.03807356669732688 0.22976384842656378 -0.70949998915295387 -0.66619692234967076
0.12943394855716617 0.045013919672819987 0.030544607448589941 0.043888095942304944 -0.10572080655175214 -0.99342687002949848
0.15004607055829286 0.041278418363693226 0.032879019855070524 0.12043526257032873 -0.079716720540588218 -0.98951533186498419
0.22856495397421292 0.24359066856262637 0.028482267063725784 0.16527330584657718 -0.13713451093194531 -0.97666722085160618
0.15431172829627887 0.043793837926713756 0.03401274013057301 -0.10566515233254604 0.20701029274982111 0.97261586162172642
0.17218392645407524 0.042389355794895764 0.03824085193954805 -0.12796925214109311 0.16042391661815936 0.97871754734618865
-0.022474298156928467 0.23311663433880095 0.035821301394927736 0.32321771447110575 -0.69855270810541781 -0.63839989274017084
0.084412659177158275 0.05167640206376773 0.029829642893541099 -0.051299325304448036 -0.16920475127025267 -0.98424495496338738
-0.050134390588909172 0.22669828692987298 0.040073128207124248 0.60142930819287521 -0.21945287763362825 0.76819478112322481
0.012573289979967053 0.22378794073335034 0.044708203010164434 -0.73937779482706023 -0.35364312777763268 -0.57293718215204559
0.065146404997631718 0.21310316444182953 0.041239962190579585 0.86359404665439277 -0.23155397651637133 -0.44787060468682943
0.063669284737469176 0.21153811314806173 0.03964477592041539 0.86976218101597214 -0.22448719441696272 -0.43945335135499902
0.097488371139860558 0.095471759610816859 0.21938417876735214 -0.69351656583905652 0.71897418003951563 -0.045944546393538413
0.062237597115227597 0.20331645163119283 0.04139668280535512 0.87242369746134474 -0.22200634105942038 -0.43541942611381529
0.13504858564821781 0.17379940031242344 0.035136338017208169 0.078875005819791663 0.40177553577918446 0.91233500004454349
0.065315536427960813 0.06168194966639097 0.0295404348920775 -0.080890181527970659 -0.18619768315547625 -0.97917679778470279
0.011020486369028012 0.16393541870640993 0.048276068147408403 -0.87222076826855599 -0.28476708494323927 -0.39766649184202058
0.00965531942431401 0.16506987898864067 0.04758668692145241 -0.88065348640400498 -0.34598718486506003 -0.32363915831311546
0.11101464817103823 0.058631616944612143 0.025515895917494039 -0.034446734194917963 0.28544315005202969 0.95777639905756673
0.12967233060899003 0.15928586230656056 0.04624996981861005 -0.20216158109423038 0.56995877543224627 0.79641552561288964
0.057683597300306692 0.15200305832802694 0.046851326180115234 0.035879343379926196 0.91793699246570148 0.39510043100665931
0.28178523403841632 0.14677836603940519 0.033404484259474794 0.15576450163269576 -0.17636551818547433 -0.971922128581445
0.27773077183827455 0.1489219434966309 0.042759343453012875 -0.15003401070525127 0.4380821968035471 0.88632600349728807
0.28342460884933551 0.14006010890708948 0.048087233335981402 -0.15123139779654182 0.44129925630948857 0.88452474849559548
0.19211933526414091 0.12526066730397861 0.033347185913484595 0.14154973011754329 0.34501747205636785 0.92786131392546167
0.19562690128151786 0.11897649411364693 0.035791365643084175 -0.33470736978949939 -0.22605393709195024 -0.91480631509288557
0.16633483547920233 0.11522162061244849 0.036642880212969541 -0.039674358269305245 0.21670576422772042 0.97543044705729709
0.16873674176850148 0.10985921176402999 0.035227981639973691 0.29075979562030235 0.02528691638433584 -0.95646187227228863
0.18224249139221313 0.090132417782456467 0.040044581687478854 -0.09515664498354931 0.19756147265320753 0.9756611488824235
0.17513002145906834 0.061032298495661538 0.035878825463519975 0.13359667089900087 -0.024862276648566998 -0.99072387511584381
0.2479124695196723 0.067031394822543403 0.04089840299792559 -0.33183260788308405 -0.57198378650284976 -0.7501477643260519
0.24251093045778893 0.069545958057423099 0.040683043272554863 0.22456745294349698 0.49372608138301061 0.84012142910453547
0.054580139437054746 0.072407807955380307 0.032505421846642547 0.45919695202414118 0.55352460139244797 0.69480117652827145
0.061048610180885123 0.069799942998281503 0.030270846159853579 0.44963619746721206 0.548616760199794 0.70487370525159165
0.083860334538712861 0.061225806246140088 0.020199105022500021 -0.44942539766069239 -0.34311480648664433 -0.82479636366024378
0.14367711126319402 0.065052981292092985 0.026746096482155451 0.24490650861924554 -0.13236976431168673 -0.96046813977976386
0.26524362452963518 0.034344055875064207 0.05225300525365157 0.30312160539178595 0.48818645780108494 0.81840776802541149
0.29290070149817393 0.024018072595934355 0.050195557832406333 0.34223835984674505 -0.031693448236248638 -0.93907850065279752
0.27856762947205088 0.024780850030705102 0.051052040055838709 0.28468506487742157 0.45612142446536802 0.84315340240043024
0.28558183988068975 0.012037506194184899 0.051439134918742704 -0.26234671004308602 -0.18387900819492831 -0.94729230656372287
0.29868275424384239 0.0035203005706640885 0.047257570459211175 0.23982865237822784 0.41020197344793913 0.8798957656892431
0.29348664097124061 0.006443780962753845 0.04937973506242762 0.24305414624422067 0.40599572098541642 0.88096092792758118
0.28660342282430218 0.010736400316912061 0.054687807978370306 -0.43295659003840054 -0.42371542704360726 -0.79562166136146262
0.31646992898250026 -0.013076913821357139 0.048701981277364595 -0.037883026511559739 0.061661229872554048 -0.99737794693532733
0.15270507178607051 0.062424720781194966 0.021281545480775255 0.4497856835458458 -0.48831380170557309 -0.74782516000803723
