0.29355399999999998 0.22434000000000001 0.21715799999999999 0.39306114496990302 0.20496635403857527 0.89637700217435423
0.30405599999999999 0.21416499999999999 0.216423 0.17423587817124989 0.51607991301287903 0.83863185137610452
0.33336300000000002 0.202544 0.217944 -0.18169074619452802 -0.2419458579766518 -0.95312678828958408
0.086902599999999997 0.064535400000000007 0.072481799999999999 -0.17745361300629378 0.90655552412716889 -0.3829716659304267
0.32131900000000002 0.20310700000000001 0.21679599999999999 0.25327678796051512 0.14154825151082617 -0.95698221570446784
0.33203700000000003 0.19116900000000001 0.216332 0.026731464936269218 0.057070799305846381 -0.9980122006513511
0.33377499999999999 0.18601500000000001 0.22022700000000001 0.14841800805524388 0.17760469938806786 -0.97284565355465691
0.39996399999999999 0.120779 0.22044900000000001 0.038360602301447444 0.037675051793532421 -0.99855348112328213
0.67242000000000002 0.081332000000000002 0.110767 0.39515514001840707 0.3533427152795714 0.84793946769559747
0.39432499999999998 0.124621 0.218972 -0.085996672182837297 -0.083797998629346643 -0.99276506173373846
0.40166499999999999 0.11579299999999999 0.21917900000000001 -0.001383943861193615 -0.014381833993720339 0.99989561832741614
0.152173 0.106187 0.20347199999999999 -0.027827688708225877 0.53314702703018724 0.84556482147144174
0.114771 0.075699900000000001 0.080045000000000005 -0.35040026108820915 0.92372222468424947 -0.15478019464290638
0.124392 0.080085199999999995 0.076666799999999993 0.41939592947555804 -0.90316378310021628 0.091663707297048549
0.128966 0.083618999999999999 0.080094100000000001 -0.42962356752190467 0.9027297074145616 -0.022420204748650099
0.39304800000000001 0.21413699999999999 0.18251800000000001 0.4128066950368342 0.36180699424006341 0.83587459074417203
0.19370999999999999 0.0983295 0.20739099999999999 -0.083824997350527911 0.31761987636452677 0.94450568233196308
0.18654299999999999 0.099395700000000003 0.20669399999999999 -0.073554227611695194 0.28862896413432654 0.95461148990738232
0.14363999999999999 0.10244300000000001 0.203981 0.0061643086492534638 0.18937720751983417 0.98188506179229873
0.13475899999999999 0.099772200000000005 0.20444499999999999 -0.050945426063108298 0.29381616100826891 0.95450334053559582
0.14227200000000001 0.089103399999999999 0.077697100000000005 0.33223849926337756 -0.93835303769194478 0.095452376929640342
0.15020700000000001 0.094015500000000002 0.0793933 0.31979066178680066 -0.93954273676756972 0.12244745167322035
0.16123499999999999 0.093964300000000001 0.074354500000000004 0.28579048183942923 -0.85513190779916703 0.43251961892351598
0.12550800000000001 0.098143599999999998 0.20518500000000001 -0.16208009036338672 0.43824528973676208 0.88412166036769968
0.22309499999999999 0.090215400000000001 0.208427 -0.54335439863008572 -0.43727371494488287 -0.71662939913712687
0.21771299999999999 0.0884857 0.20748800000000001 -0.44083401670047817 -0.44240809260744629 -0.78098684324075784
0.204014 0.089546399999999998 0.20885500000000001 -0.0118696594416908 0.27459277314757685 0.9614873478730035
0.121643 0.092244699999999999 0.208955 0.14758937024769186 -0.3779514703539415 -0.91398581162246895
0.16236700000000001 0.099353800000000006 0.081130900000000006 0.38367410880070812 -0.90078426921449717 0.2034253636390678
0.172899 0.099971500000000005 0.080238500000000004 0.39870047849754042 -0.84971353263203642 0.34499976943154281
0.18253900000000001 0.103501 0.080178200000000005 0.28381363884308852 -0.85861690125975965 0.42688035241474065
0.115204 0.089380299999999996 0.205988 -0.12138555840442952 0.34382741546087775 0.93115425928700823
0.10620599999999999 0.087718099999999993 0.20344100000000001 0.3957285642691234 -0.40801606610681856 -0.82275257108088962
0.094872899999999996 0.085734500000000005 0.20366300000000001 0.84034504081268668 -0.43189028981632538 -0.32755303378826167
0.089818200000000001 0.084342299999999995 0.20508000000000001 0.92139635766676564 -0.36946729717132698 -0.12051003443419961
0.22338 0.081298099999999998 0.210733 -0.51990845895905158 -0.41598155939379144 -0.74609284713575297
0.40113300000000002 0.21017 0.18032300000000001 0.42645345266518886 0.34060540951526613 0.83792923789475038
0.19358 0.109 0.080170699999999998 0.23652594815020345 -0.90094031910570516 0.3638159112262101
0.125723 0.077120599999999997 0.20416300000000001 0.26059604156290456 -0.27832757937273517 -0.92445846941994025
0.41404400000000002 0.15492900000000001 0.194854 0.43224534321451735 0.34704272012936221 0.83230121571134175
0.35842800000000002 0.227078 0.189031 -0.40295240829959578 -0.45178323662899705 -0.79594049007861345
0.23194999999999999 0.0670269 0.210198 -0.72713969888001628 -0.14815146363092158 -0.67031261523015895
0.64243799999999995 0.125948 0.111095 0.39682419724745904 0.35763477937426458 0.8453566827445268
0.225186 0.068859799999999999 0.21066099999999999 0.68185565560643135 0.23371840246334319 0.69314397730017618
0.216225 0.070696700000000001 0.212593 -0.50871919903546647 -0.42955072995225463 -0.7461172474418476
0.204764 0.072975999999999999 0.213979 -0.10934053172419428 0.70608213811734999 0.6996375221169191
0.34490799999999999 0.15434700000000001 0.19722400000000001 0.7156075090008911 0.65713305919449039 -0.2368164596797061
0.13127 0.067933900000000005 0.20784 0.89483354657831771 0.064958820819206134 -0.44164836183987843
0.11565499999999999 0.068475099999999997 0.20491500000000001 0.042146714416627172 -0.10330618715147608 -0.99375625087850772
0.65915299999999999 0.130324 0.104777 0.42451345582073596 0.37837855088032024 0.82256792914679377
0.105614 0.067501699999999998 0.207094 -0.14214492168734749 0.14812994364683035 0.97869931083744255
0.096060000000000006 0.067672999999999997 0.20612900000000001 0.62041704372253093 -0.12997391923842128 -0.77342709557940859
0.088915499999999995 0.066810499999999995 0.202599 0.86343007309673014 -0.077302392261954872 -0.49851063080214736
0.11677 0.058538 0.20424 -0.26044033842094616 0.34681561463259858 0.90104925479698172
0.095700300000000002 0.0587752 0.20657600000000001 0.45310527396670286 -0.076416554683612845 -0.88817572634802711
0.089351299999999995 0.058361200000000002 0.20254 0.78795343043639976 -0.13422544024535002 -0.60092671987061075
0.114888 0.047992800000000002 0.204128 0.17205935934268421 0.22367619939841976 0.95935631268328236
0.088027800000000003 0.048460099999999999 0.20203399999999999 -0.64863188899599966 0.41457711821408344 0.63828088302156361
0.374363 0.22451499999999999 0.18468699999999999 0.35225867273503603 0.33853883984531824 0.87252809777057438
0.39223799999999998 0.225138 0.181398 -0.40854633770327453 -0.35678661481743784 -0.84011499298391001
0.114357 0.037632699999999998 0.20581199999999999 -0.2559412699056835 0.41818646404660248 0.8715584591106128
0.089455000000000007 0.035689499999999999 0.201956 -0.52937023197456412 0.1576364346299477 0.83361736544793397
0.053868600000000003 0.034614800000000001 0.199744 0.48712575776540229 0.73669826537961902 0.46902469221581866
0.36514999999999997 0.234598 0.18549599999999999 -0.35853239998764258 -0.33498752088764289 -0.87134257270527782
0.37419999999999998 0.234989 0.182063 0.37155916060490668 0.37081356013692413 0.85114105399114481
0.62011700000000003 0.17049400000000001 0.106935 0.3699287594697922 0.38536459982354709 0.84536787147370218
0.34743800000000002 0.24585199999999999 0.187891 -0.63141000205486875 -0.35839424250386898 -0.68765905523387771
0.36424899999999999 0.245227 0.181869 -0.32231307641162599 -0.27585463531972426 -0.90554872919500895
0.37369000000000002 0.244676 0.18173900000000001 -0.37520560339319214 -0.28395897890791283 -0.88237636724921786
0.33932099999999998 0.25804199999999999 0.18851399999999999 0.35140425490482458 0.53065342078584199 0.77131186730340717
0.17730499999999999 -0.019567000000000001 0.20682700000000001 0.83325210188016052 -0.4982631260848982 -0.23963470511676596
0.353931 0.25568600000000002 0.183784 -0.36284325418198871 -0.34600718274338965 -0.8652304909008971
0.16136600000000001 -0.041362000000000003 0.20574799999999999 0.68922848232451406 0.68304922786441979 0.2416771637256345
0.26657700000000001 0.29777199999999998 0.201796 0.38852460134455769 0.031272791908830644 0.92090751253113345
0.26932899999999999 0.29236000000000001 0.20358999999999999 0.26108841054545318 0.31895840855421953 0.91109734687979871
0.27762599999999998 0.27791500000000002 0.20224 0.16183210972469309 0.45689798294998984 0.87467399723456141
0.26985399999999998 0.27965800000000002 0.20399900000000001 0.30283776465586265 0.50703788545451056 0.80697079935525473
0.28864600000000001 0.26812000000000002 0.20264599999999999 -0.34962296038412111 -0.38085209849236529 -0.85598800496631056
0.27193099999999998 0.27246999999999999 0.206342 0.20468805277097479 0.49560580306404906 0.84408393482050448
0.29979099999999997 0.25334000000000001 0.20688300000000001 0.25191358697796323 0.39117779181662232 0.88516635718116132
0.34560800000000003 0.24021400000000001 0.20722699999999999 -0.49298790232179102 -0.339953448774301 -0.80087113871759619
0.57936799999999999 0.21031 0.105902 0.32914990934251698 0.33936106585554499 0.88118919884506142
0.343808 0.22373899999999999 0.20868999999999999 -0.32710407130100377 -0.16500044269477415 -0.93047180529494644
0.35117799999999999 0.21177499999999999 0.206397 -0.31611514808040442 -0.3817366494268673 -0.86853229280116784
0.192496 0.115465 0.19570299999999999 -0.07111858487173936 -0.82254684212382667 -0.56423296553636559
0.571299 0.220774 0.106445 0.34845492775501885 0.31796003919978788 0.88174859046970644
0.57919500000000002 0.21998100000000001 0.103182 0.3579438536664073 0.34651632395296827 0.86706553088942684
0.17464399999999999 0.116091 0.195136 0.22472289841210241 0.95381588232746028 0.19933610197140023
0.213812 0.108941 0.20197999999999999 -0.4951123393949749 -0.70159909310210489 -0.5124670564408399
0.205538 0.11143500000000001 0.20030600000000001 -0.39234681016467043 -0.84848231121982975 -0.35516439587980014
0.175375 0.11022 0.19989599999999999 0.11993051787364255 0.54454345069672028 0.83011390856066769
0.16536100000000001 0.110207 0.20039100000000001 0.0011079381598753883 0.60706066204434483 0.79465472066257559
0.13545099999999999 0.10861700000000001 0.19691400000000001 0.27650309282225149 -0.79697465208704177 -0.53700786175852944
0.12587799999999999 0.10742500000000001 0.196489 0.24637416438924825 -0.91028553468049156 -0.33268606293764613
0.22212000000000001 0.096631300000000003 0.19895599999999999 0.69034153462679315 0.63700467902060198 0.34300671199698674
0.21565000000000001 0.100522 0.203209 0.52265285631775904 0.56720719700754385 0.63648251150030299
0.20496900000000001 0.099976599999999999 0.20300199999999999 -0.27055375980057206 -0.44558234779489164 -0.85337977149178235
0.115163 0.10001599999999999 0.19830900000000001 0.36853545911499874 -0.77526135182644695 -0.51298289614676951
0.181368 0.092682700000000007 0.20425499999999999 0.34615898175150683 0.15098555109095363 -0.92594671699537923
0.451878 0.082716100000000001 0.210838 -0.38448115477107642 -0.26241797058982413 -0.88504861467459395
0.22838700000000001 0.077697000000000002 0.20514299999999999 -0.65177796073041416 -0.39341629019678692 -0.64838963017147355
0.53243200000000002 0.26249 0.105805 -0.33720640371077976 -0.34435446538573217 -0.87619167050671565
0.192334 0.078043500000000002 0.20381099999999999 -0.24056384880857429 0.33503205902425548 0.91097889880741656
0.35630800000000001 0.26277899999999998 0.18257499999999999 0.39660325371877037 0.39064000408987587 0.83072633661413853
0.094792899999999999 0.079395800000000002 0.19158800000000001 -0.91570983220784852 0.40183924793960418 0.00084971360336050933
0.23186499999999999 0.069559200000000002 0.19911499999999999 -0.73265917950222481 -0.19938139296715299 -0.65073618835101266
0.22975799999999999 0.072154499999999996 0.20475399999999999 0.71260089550077932 0.26723197750532285 0.64868099550555836
0.434006 0.144403 0.19395000000000001 0.41863741831652512 0.36685759333684265 0.83075761699570017
0.52187099999999997 0.27239200000000002 0.105295 -0.35136760809822826 -0.31483600383757521 -0.88171372602841813
0.36202899999999999 0.26149899999999998 0.181314 -0.2758216406677616 -0.3877031339648907 -0.87955028420957615
0.34096399999999999 0.27230399999999999 0.18118200000000001 0.35140953988324497 0.49979581387939243 0.79165363619936835
0.089565800000000001 0.070765900000000007 0.190138 -0.93311899726622982 0.33200199173318168 0.13807104847166962
0.080210199999999995 0.045910699999999999 0.19043599999999999 -0.5571853443975654 0.33721794994722176 0.75883367493935028
0.077782400000000002 0.036398199999999999 0.189835 0.414988540634181 -0.4011321919212163 -0.81662566439390905
0.067274 0.036111600000000001 0.189162 -0.12009183734789988 0.51148980704658042 0.85085611468088851
0.056934899999999997 0.036436799999999998 0.19137199999999999 0.26501611438975053 0.71191420001079475 0.65034193385998784
0.048105599999999998 0.040344600000000001 0.19109400000000001 -0.36215925517487163 -0.79874735851503309 -0.4804615813532227
0.631826 -0.053511499999999997 0.19120999999999999 0.27357713066067885 0.44167546511767591 0.85444621661784814
0.067495399999999997 0.027466000000000001 0.19334999999999999 0.10150418802880491 0.56446205178372566 0.81919441642916468
0.60489099999999996 -0.045213400000000001 0.195379 0.35452024007295091 0.39651171314385164 0.84681394693187795
0.61482999999999999 -0.045156500000000002 0.19270599999999999 -0.34027771568626486 -0.40366239419413141 -0.84927483638737311
0.18496899999999999 -0.0031666699999999999 0.19440399999999999 -0.97866514247367131 0.078806599686927825 -0.18974735506133755
0.51785999999999999 0.28669899999999998 0.103253 -0.35728026946638114 -0.31588740247454933 -0.87895731296116542
0.17977499999999999 -0.0111425 0.198798 0.91499323377093245 -0.38298141784607187 -0.12693547864180627
0.176565 -0.017614299999999999 0.198602 -0.85679379112058174 0.49290954381915864 0.15147468801489566
0.17502499999999999 -0.030568999999999999 0.19839899999999999 -0.73766287547744203 0.61114003744680223 0.28698664911781774
0.32908199999999999 0.298902 0.093867699999999998 -0.79186280278357624 0.20060064109948561 -0.57681252097905678
0.15747 -0.033343100000000001 0.19387599999999999 0.84200999301057466 0.5003504323925736 0.20166461383915824
0.16741800000000001 -0.039424899999999999 0.19847000000000001 0.22247789069448504 0.93621707557373135 0.27203157088158542
0.280192 0.30018499999999998 0.19395299999999999 0.24290064788963461 0.45579319525965573 0.85630125447168914
0.29079500000000003 0.2893 0.19372600000000001 0.36214256696585051 0.33521546627434173 0.86976051437269808
0.281393 0.29140300000000002 0.195797 0.2892293788357852 0.3819274886661535 0.8777686254471796
0.25569399999999998 0.29629899999999998 0.20058100000000001 0.61238830636590902 -0.77921284246412126 0.13344627520196148
0.32166299999999998 0.30161100000000002 0.087919499999999998 0.8702155981531845 -0.046055919518972595 0.49051367463930817
0.32960200000000001 0.30062499999999998 0.089822600000000002 0.84941308581365194 -0.045241858534243395 0.52578568246472535
0.29808200000000001 0.27929399999999999 0.19509199999999999 -0.32720876776385449 -0.36659421818725024 -0.87094379927188126
0.29205399999999998 0.28233599999999998 0.196406 0.35816862603492761 0.32068640770188678 0.87685544033182061
0.25592300000000001 0.27905799999999997 0.19309699999999999 -0.60457899147967997 0.78188567869676595 -0.15211518172197921
0.48830400000000002 0.30924400000000002 0.10231 0.42535963225345996 0.23664129423531843 0.87353882633334334
0.24510499999999999 0.26737499999999997 0.194524 -0.49322932888501231 0.86821301564741626 -0.054138605339066129
0.236592 0.26883400000000002 0.189888 -0.67716281029374448 0.73304287983813943 -0.064020814378490665
0.33219799999999999 0.25873200000000002 0.19981499999999999 0.34424353904800004 0.58876513437422351 0.73133576582101534
0.34916199999999997 0.23202700000000001 0.19614300000000001 -0.52753501500910394 -0.43069501818158329 -0.73226266411234564
0.31753300000000001 0.229549 0.203537 -0.34838208389864089 -0.14414695786551182 -0.92620277377934834
0.32391900000000001 0.22762399999999999 0.20366799999999999 0.27624171465575331 -0.036265540635816829 0.96040373054587891
0.334567 0.215973 0.203265 0.34859341196871152 0.33021071233486304 0.8771792967183587
0.36625200000000002 0.18454000000000001 0.20452699999999999 -0.50333251376541732 -0.35389359649820207 -0.78829924707826138
0.396976 0.145118 0.20566599999999999 -0.40640051935090898 -0.2853170767146701 -0.86800505966630526
0.19278699999999999 0.116538 0.19395200000000001 -0.10235002764676211 -0.88098181478382598 -0.46194752284312912
0.185114 0.117676 0.192472 -0.25118880265736515 -0.94690673023048155 0.20067842351328435
0.17555999999999999 0.120019 0.19150400000000001 0.31962488200085393 0.94213332848312481 -0.10111738805590759
0.59527600000000003 -0.034512899999999999 0.19600600000000001 0.36297433590404726 0.38968551978621069 0.84640110299075522
0.14604600000000001 0.11814 0.189053 0.25290119685510037 -0.95747078734999447 -0.13889087803250222
0.416989 0.1145 0.20486699999999999 0.35767257084439563 0.2892037213783385 0.88793667544846966
0.20461799999999999 0.111596 0.19200700000000001 -0.45540108616461528 -0.88491119480885316 0.097683304725303233
0.14274000000000001 0.11354499999999999 0.19200200000000001 0.24420915009465641 -0.81900904482183368 -0.51921679047395353
0.12532599999999999 0.111599 0.188273 0.32232290376119704 -0.94500883845851125 0.055373648482339777
0.11085299999999999 0.104202 0.185451 -0.52710179851018091 0.83976359204970985 -0.13023364954995639
0.44786799999999999 0.354904 0.101601 -0.38323643038218574 -0.36507574760671169 -0.84843947158139743
0.45310899999999998 0.10588 0.201546 -0.38707886007325815 -0.35288323295298796 -0.85184704025137903
0.21066499999999999 0.10365000000000001 0.187336 -0.43538669278205583 -0.89198118959805628 0.12168806495108798
0.106074 0.100144 0.186776 -0.61824241344231978 0.78518964543285863 -0.035405351658154297
0.100795 0.093956399999999995 0.186663 -0.76639025115605075 0.62842035914228545 -0.13316844651961102
0.22587499999999999 0.087414199999999997 0.19200700000000001 0.66390066064983955 0.57950478573647224 0.47266279322285587
0.21776499999999999 0.094045199999999995 0.18912499999999999 0.60032466110695859 0.79864294176555051 -0.042187116930209906
0.23542099999999999 0.080427799999999994 0.19007199999999999 0.45666236051182363 0.42813341828348661 0.77984694949757039
0.090722700000000003 0.074715599999999993 0.18652299999999999 -0.92127380617906685 0.38847151411449593 0.018559546598088447
0.23721800000000001 0.070475300000000005 0.191745 -0.62397612934911462 -0.19479247154927812 -0.75677584728254943
0.23940600000000001 0.060851000000000002 0.19115499999999999 -0.72592341044366981 0.050983318542360934 -0.68588330159017541
0.58516800000000002 -0.024668900000000001 0.19589799999999999 0.36598508820786152 0.38235295933790431 0.84844630336576454
0.085059599999999999 0.058800600000000001 0.184082 -0.69332097138417836 0.54673872539350954 0.46944946138426891
0.067957100000000006 0.056678800000000001 0.180447 -0.31223440722413659 0.60070487473161738 0.73597780429783632
0.060099699999999999 0.053775499999999997 0.178115 -0.19834090023585277 0.67529715201166551 0.71037640992544571
0.59437399999999996 -0.0261371 0.19239300000000001 0.3689458763328472 0.36358558294615251 0.85538556464947091
0.076815800000000004 0.048620400000000001 0.18590100000000001 0.46234544746701178 -0.48169019006842478 -0.74445365738800262
0.057448199999999998 0.047538799999999999 0.181725 0.041717341856395106 -0.70045750813512997 -0.7124738189474481
0.56654800000000005 -0.012308899999999999 0.198988 -0.40534359437046313 -0.36763521203565158 -0.83698322645936885
0.52806900000000001 0.0070803799999999998 0.207542 0.34291911957841598 0.36590056679938815 0.86517238319507805
0.181315 -0.0011270500000000001 0.18829799999999999 -0.95738101887992033 0.28493686111343342 -0.047250077960465486
0.17801800000000001 -0.0097742100000000002 0.18928200000000001 -0.92893633659150465 0.34696368663349036 0.12920326125006359
0.175951 -0.019672499999999999 0.19112799999999999 0.8449547752928882 -0.48548837748584356 -0.22439354499608072
0.15582599999999999 -0.022597300000000001 0.18490999999999999 0.60293098108451471 0.67048458191082005 0.43234784314060959
0.174425 -0.026386900000000001 0.19147400000000001 0.73886291925032188 -0.66097169106770359 -0.13114118408796274
0.160104 -0.032510900000000002 0.18745800000000001 0.25501239241283968 0.88448383052077406 0.39071349255327531
0.56529099999999999 -0.031475499999999997 0.20583099999999999 -0.36993959486733369 -0.34269177472646983 -0.86354330735882368
0.60581799999999997 -0.079060000000000005 0.208399 -0.063570359374075514 -0.48902704965070204 -0.86994905259962263
0.28991699999999998 0.31258399999999997 0.18474299999999999 0.1927226087772953 0.61228857803502112 0.76678595010206441
0.29988300000000001 0.300786 0.18513299999999999 -0.37016348442447039 -0.37953613383774537 -0.84789817661688127
0.29221200000000003 0.30161300000000002 0.18737100000000001 -0.23879876073999243 -0.42429527171293585 -0.87346933218693479
0.28270600000000001 0.30421799999999999 0.190474 0.23692626055062077 0.4839181780917326 0.84243049800792325
0.30848500000000001 0.291962 0.184364 0.37172421826740243 0.40450174819149026 0.83558329403089215
0.29255900000000001 0.29447400000000001 0.19164800000000001 0.35874595514969787 0.37070550490569282 0.85666724479014944
0.26469300000000001 0.295707 0.18948799999999999 0.56591679415223672 -0.81474595018113383 -0.1262030853818415
0.329125 0.27902199999999999 0.185029 -0.34609213659050836 -0.44828072013398479 -0.82417512031507778
0.32067400000000001 0.27985199999999999 0.18504999999999999 -0.35719487717087972 -0.42996090129492609 -0.82918360034466154
0.30350700000000003 0.282383 0.18868299999999999 0.339754993099598 0.38176950026870016 0.85954557373561025
0.26097100000000001 0.27872799999999998 0.183279 -0.49931453606558618 0.86502766230773243 -0.049113516632672979
0.72172400000000003 0.041628600000000002 0.117339 -0.40492182522108638 -0.38807255462931967 -0.82791183576700844
0.25285299999999999 0.27229799999999998 0.18545300000000001 -0.53840613884325961 0.84248179999270523 0.018526908456181879
0.242946 0.271318 0.185312 -0.63268298273242496 0.7737445952110017 -0.032117670254312503
0.32982699999999998 0.261957 0.18502099999999999 -0.36337924652507991 -0.47931278011121936 -0.79888345959652929
0.31607800000000003 0.26439499999999999 0.19217200000000001 0.24974477352660551 0.51466002665371768 0.82021497490654194
0.33297300000000002 0.252971 0.18912699999999999 0.36478666641010316 0.59390772055132279 0.71708040517011473
0.71820099999999998 0.0491399 0.11523799999999999 0.32758516807434263 0.44697124728462517 0.83240895103220214
0.34597800000000001 0.23371 0.19300600000000001 -0.53457918648585645 -0.45060223342152228 -0.7149704333828466
0.36525800000000003 0.21543599999999999 0.192105 -0.41711744228816178 -0.3642288921443585 -0.83267661998297704
0.38646399999999997 0.185554 0.19519 -0.41007673539780926 -0.35088284193705493 -0.8418540861216095
0.44572099999999998 0.12559799999999999 0.194164 0.38847812131257364 0.34966993308100336 0.8525348597920086
0.455648 0.11613900000000001 0.194156 -0.38220233683857069 -0.36929944511036983 -0.84707691124024209
0.55528 0.0051217399999999996 0.19691500000000001 -0.36130002754313845 -0.35086832033217846 -0.86391765341646021
0.027833900000000002 0.061712299999999998 0.084663100000000005 -0.34653709409087458 0.91227355138020794 -0.2183323381251524
0.0390852 0.0622336 0.078767100000000007 -0.055879556600889127 0.93292178872224973 -0.35571675709947348
0.056395300000000002 0.060799100000000002 0.079083899999999999 0.070831367896228972 -0.88486841291672858 0.460424596589039
0.22692399999999999 0.097690600000000002 0.178705 -0.24437396333345313 -0.81275962957042214 -0.52886969149805696
0.073674699999999996 0.0629942 0.079253400000000002 0.14673200686199564 -0.90052906300120794 0.40928855939595643
0.083545800000000003 0.062000399999999997 0.079742099999999996 -0.13447094972767321 0.90965296694209019 -0.39300005523255388
0.20744599999999999 0.100772 0.179507 0.2061782252021791 0.97605673104792945 0.069309431021395654
0.19678300000000001 0.10129299999999999 0.179257 0.16737653744738845 0.96887151019528139 -0.18240913201930803
0.18900800000000001 0.102395 0.17693999999999999 -0.11267737147251619 0.91781849548416805 -0.38067442691258208
0.12825300000000001 0.097557400000000002 0.17261199999999999 -0.2144097170335014 0.83290035463717427 -0.51020140384644486
0.031364700000000002 0.064575800000000003 0.082632800000000006 -0.24405049970729698 0.93009095202460967 -0.27453629005028435
0.043455500000000001 0.065346799999999997 0.079834100000000005 0.073415686024078705 -0.90474340168715384 0.41958254747924312
0.052546700000000002 0.064808400000000002 0.083534499999999998 0.076758326894717788 -0.91454458690400842 0.39713518833880768
0.483788 0.093550499999999995 0.193051 0.37894913006082576 0.38419734623604451 0.84189664209528969
0.071455099999999994 0.069032899999999994 0.085211400000000007 0.12006938603093348 -0.92437409094551248 0.36209927164634365
0.084280599999999997 0.068514699999999998 0.086841699999999994 -0.17841553128044149 0.91867879053783186 -0.35241619998783236
0.092619099999999996 0.068263799999999999 0.083747100000000005 0.19364154885268373 -0.90792994175066188 0.37170710435849041
0.47570000000000001 0.096452200000000002 0.193216 0.3933253491523121 0.37589675016530971 0.83904517335443296
0.22681799999999999 0.091419200000000006 0.18345900000000001 -0.44132876138551363 -0.74756546902726162 -0.49636155561443196
0.112862 0.093184400000000001 0.17473 -0.44486136710777868 0.80511013416182076 -0.39229585254617827
0.100163 0.085617399999999996 0.17491300000000001 -0.69599598366459736 0.68897271312110397 -0.20225279057974541
0.48596699999999998 0.085910100000000003 0.19428100000000001 -0.39814828777997957 -0.35362281994001926 -0.84642119666011406
0.50336700000000001 0.073735400000000006 0.193385 -0.38559429615962543 -0.33294192319234606 -0.86050375626730713
0.494977 0.075442700000000001 0.193745 -0.4058834991744053 -0.33850848616435308 -0.84892319434249086
0.093434500000000004 0.072139400000000006 0.17354900000000001 -0.71770491164221961 0.67976262740555549 0.15107094421935988
0.11386599999999999 0.078044000000000002 0.0874061 -0.240802727336211 0.94625566822078944 -0.21590335075553951
0.123068 0.078550700000000001 0.086398500000000003 -0.26407115274999332 0.94861093039543876 -0.17436665111078159
0.087337499999999998 0.068617899999999996 0.17388600000000001 -0.59068497987297786 0.70817054486444919 0.38676314966507447
0.071098400000000006 0.063538700000000004 0.16974 0.25255458427321514 -0.71593070822566174 -0.65089123744454136
0.083793400000000004 0.062445100000000003 0.178317 -0.59131533304318473 0.64832277380337933 0.47960792098955179
0.047961999999999998 0.057358800000000001 0.17127700000000001 0.15125010487762786 -0.7881569211956212 -0.59660043022608189
0.038463799999999999 0.057174500000000003 0.1699 -0.097276397539084847 0.83368408599024202 0.54360661074754479
0.0317138 0.054259099999999998 0.16708200000000001 -0.11016477997418768 0.87564141263098572 0.4702295585550218
0.51567200000000002 0.054278100000000003 0.194771 0.38897283037405156 0.37197752560514541 0.8428124688656855
0.50680899999999995 0.0566522 0.19552 -0.39701173830089315 -0.37156034181511099 -0.8392404852255051
0.47500599999999998 0.0154168 0.194495 0.67168956772981181 0.65659236410170152 -0.34310288836772707
0.15869800000000001 0.093739199999999995 0.090884800000000002 -0.4413516224739773 0.85870097418135305 0.26046378304782153
0.0466373 0.050930299999999998 0.17565800000000001 -0.010474343436038966 0.81507113540367915 0.57926620163905729
0.037432 0.049686599999999997 0.17425599999999999 0.062678966507652173 0.88438349657160087 0.46253343462859203
0.51733899999999999 0.047057099999999998 0.19689699999999999 -0.36764314565808387 -0.37073098451035447 -0.85287575564944507
0.66876400000000003 0.100076 0.11411200000000001 -0.43674939317646916 -0.33626517338820033 -0.8343714405024838
0.52607599999999999 0.034826799999999998 0.19503000000000001 -0.37843554820815117 -0.33764844065304594 -0.86184689265377212
0.54483599999999999 0.014978699999999999 0.19567599999999999 0.35671912764135233 0.36330602361286857 0.86067426892024534
0.55501 0.014585600000000001 0.193246 0.36533967724955374 0.32337436507718553 0.87290087652500337
0.54417899999999997 0.0265075 0.19633700000000001 -0.3404802735173072 -0.37845765772412104 -0.86072236212123132
0.53661400000000004 0.026282400000000001 0.196023 0.34214722759341509 0.37743472699111386 0.86051048890253712
0.56213299999999999 0.012171599999999999 0.19103300000000001 -0.39009356562582331 -0.35953085146816 -0.84768188425842328
0.18122099999999999 -0.0026994699999999998 0.17796400000000001 -0.88097232487869825 0.38284255457562566 0.2780635560511846
0.53961300000000001 -4.6637800000000003e-05 0.20283799999999999 -0.34048910643876229 -0.35109997693724582 -0.87223619197508573
0.18168799999999999 0.108308 0.094172500000000006 -0.48444052002772731 0.87462353398892279 -0.018736497751516035
0.17838100000000001 -0.010255999999999999 0.17697399999999999 -0.78490295001345534 0.50460096274198507 0.35959036063281369
0.20130899999999999 0.115049 0.091363700000000006 0.21467708985009404 -0.96120455679104488 0.17320377333541634
0.211483 0.11473700000000001 0.092394000000000004 -0.18079120576412258 0.97528589753739081 -0.1270116450686353
0.21815899999999999 0.115838 0.092718099999999998 -0.11178392161992294 0.98877305014955608 -0.099157501810071269
0.154838 -0.013549200000000001 0.174429 0.46107687282825 0.67601490536582343 0.57481472238118458
0.175207 -0.017381299999999999 0.178258 -0.70788453059526302 0.58625521636292877 0.39395978555073352
0.15357599999999999 -0.016706499999999999 0.179899 0.87589002872814636 0.3970846263378433 0.27411759721101892
0.16864799999999999 -0.0288642 0.178255 -0.17312135777814541 0.78025678495180073 0.6010227491682244
0.16114700000000001 -0.030861099999999999 0.176954 0.12407689273118161 0.79038953829732372 0.59990774494110188
0.31059599999999998 0.31823499999999999 0.17427500000000001 0.23941279973150437 0.46373012465459801 0.85301575765782522
0.30243799999999998 0.31075199999999997 0.17764199999999999 0.25658147045078866 0.50172474590352523 0.8260981953553429
0.31991599999999998 0.30238300000000001 0.175007 0.34262259498737341 0.38001355268265208 0.8591853450691691
0.32873599999999997 0.289184 0.17499600000000001 -0.33477887098267534 -0.35911005267874735 -0.87118486993785205
0.63092899999999996 0.13097200000000001 0.11828 -0.34822255472358266 -0.34079950603756193 -0.87326785642569915
0.313581 0.29398000000000002 0.18126999999999999 0.36996174088458372 0.38613485337444486 0.84500188478555727
0.33260400000000001 0.28303099999999998 0.177817 0.33720564169890405 0.38535732109503906 0.85894824656953861
0.32365699999999997 0.284472 0.18151300000000001 0.34367991646812301 0.35958042326847844 0.86751716652670685
0.26930100000000001 0.27946100000000001 0.17388600000000001 -0.42592805723262073 0.90475530608976218 -0.0017680962830532599
0.63009700000000002 0.14069100000000001 0.114676 -0.35883300955653102 -0.31157028090656802 -0.87986523474246026
0.25583600000000001 0.277202 0.171156 -0.53287507817264945 0.84165953970330543 -0.087483542960449398
0.243618 0.27066600000000002 0.17518700000000001 -0.54854643809362391 0.83298794706329715 -0.072304116771259738
0.23771400000000001 0.26713999999999999 0.17468 -0.57491438466502709 0.8090410719997938 -0.12217198583414081
0.54439899999999997 0.023751399999999999 0.19300400000000001 -0.32921789738236118 -0.38114342518812061 -0.86391276497051717
0.46623500000000001 0.143402 0.18184800000000001 -0.36877398476254281 -0.36888483427307184 -0.85318797882159825
0.226715 0.107477 0.16864699999999999 0.10703654311309173 0.84283954462205468 0.52741319708525203
0.50374699999999994 0.10306800000000001 0.18420500000000001 0.34365737904114457 0.39955299403391531 0.84985705315017834
0.137769 0.095009200000000002 0.16502500000000001 -0.052863622825524439 0.80508989754334859 -0.59079242907759155
0.11750099999999999 0.095115199999999997 0.167098 -0.27229363605605117 0.85455050236193209 -0.44226645212625421
0.108097 0.0883192 0.164549 -0.38853275557246869 0.89220851382505961 -0.23023089650466647
0.102312 0.083766999999999994 0.16118299999999999 -0.39707674242044544 0.9163638260519168 -0.051062696092738696
0.51526099999999997 0.087578199999999995 0.184478 -0.37366777355265357 -0.33288943802179022 -0.86576960968940198
0.087232900000000002 0.076513999999999999 0.162799 -0.34813132403222108 0.85360804040325222 0.38750212204127682
0.58174899999999996 0.180863 0.116912 0.33093550477413208 0.33518897789822188 0.88211679542758747
0.58940599999999999 0.179899 0.114708 0.33043765203002051 0.33778323691323647 0.88131347600119181
0.069187100000000001 0.074800099999999994 0.160358 0.24208441670826891 -0.80985159551080454 -0.53435524553953928
0.094194799999999995 0.072437500000000002 0.165906 -0.57797321706699578 0.78402958121761623 0.2263726488093401
0.058364100000000002 0.066327700000000003 0.16153600000000001 0.24501554205901482 -0.75151048842176882 -0.61253519894092767
0.048210999999999997 0.066031199999999998 0.16101099999999999 0.23501901866790889 -0.73891338623709835 -0.63148481256796518
0.038555300000000001 0.064619999999999997 0.16012599999999999 0.27462149181104334 -0.74886421238167467 -0.60314627384196862
0.50099499999999997 0.069089999999999999 0.19178200000000001 -0.39191948956460443 -0.36277746164495539 -0.84545350376106587
0.055223700000000001 0.061759700000000001 0.166407 0.22630131897367703 -0.70651411865084535 -0.67054120915704607
0.0499304 0.061516300000000003 0.165575 0.23517977990866548 -0.71607275077207311 -0.65721403418051572
0.51051599999999997 0.060041799999999999 0.19092600000000001 0.38433040991814205 0.38114707262353792 0.84084305613036969
0.52107300000000001 0.050410400000000001 0.19279199999999999 0.41023375519257937 0.37473346041108063 0.83143436286271688
0.17453199999999999 -0.0029630099999999999 0.16545199999999999 -0.64768648852799515 0.70894434254979311 0.27910595075153266
0.155556 -0.0038640699999999998 0.165465 -0.27605106632467802 0.85442939565846876 0.44016612388473514
0.15590799999999999 -0.0075219900000000001 0.16971 0.12199019685493639 0.79250000894753558 0.59754675774323318
0.16088 -0.022904000000000001 0.166439 0.74346973658263471 0.50794943514945112 0.43501738139653878
0.62757399999999997 -0.052760899999999999 0.18998200000000001 -0.30347023052211697 -0.41242325097908517 -0.85896034904918372
0.31859700000000002 0.33019999999999999 0.16561500000000001 0.14604692213454928 0.49171793215479087 0.85841934491974337
0.32062000000000002 0.32236100000000001 0.16731699999999999 0.18738312903782403 0.41392087068377165 0.89081820578857884
0.53991999999999996 0.230102 0.11461399999999999 0.34656130110347472 0.35896084153927954 0.86662701251396446
0.30291600000000002 0.32349699999999998 0.17002400000000001 0.19192551383916279 0.55172871524400202 0.811640327924122
0.29514899999999999 0.32430700000000001 0.17008899999999999 -0.3253480892829741 -0.54690656930648363 -0.77138954183300301
0.331951 0.31348300000000001 0.16739299999999999 0.3503097788617312 0.32284908852997551 0.87923348711773308
0.52159900000000003 0.24196799999999999 0.114852 0.32632750040562375 0.33834331920819827 0.88262911850119519
0.34238800000000003 0.301506 0.16758400000000001 0.3507287240414132 0.33055427805529913 0.87619816901864278
0.33359699999999998 0.30214800000000003 0.167492 0.33030619151762092 0.3276631213936132 0.88517495373723654
0.28046599999999999 0.28409699999999999 0.163332 -0.41447185242364298 0.91004930524431948 -0.0048317256591283719
0.27319100000000002 0.28082099999999999 0.16626299999999999 -0.55417818066047386 0.79871443008950727 -0.23439667925685492
0.26388400000000001 0.28063199999999999 0.16558700000000001 -0.52430485570397944 0.84523785217739233 -0.10333146438417529
0.25632700000000003 0.27857999999999999 0.16703299999999999 -0.43044808153945391 0.90216965325182308 -0.028361344299747897
0.24437800000000001 0.269042 0.164691 -0.58004324685972097 0.79329799559894043 -0.18500843751336443
0.22827800000000001 0.25860100000000003 0.166876 -0.66452215152754035 0.66672817777877813 -0.33746680886421881
0.45092900000000002 0.041283 0.198548 -0.61970012545271769 -0.64603813943582311 0.44565286592614461
0.40853400000000001 0.20558899999999999 0.17633599999999999 -0.38915422593650323 -0.3452361819967929 -0.85403218152247529
0.50506499999999999 0.13484399999999999 0.17475399999999999 0.28955555265770289 0.3470765590077784 0.89201762544941476
0.23455000000000001 0.112578 0.16185099999999999 0.33791083340948569 0.83639291125672077 0.43158216675856081
0.227465 0.112887 0.162638 -0.073883933506793356 -0.8495386361010121 -0.52232678482076322
0.21757799999999999 0.11185100000000001 0.16217100000000001 0.092587640025644138 -0.85815458788068333 -0.50497349654592372
0.201241 0.107409 0.15761 0.47235761148995137 -0.8124306875618178 -0.34181086111377529
0.206784 0.10269 0.164322 0.23163371138259348 -0.92943162266567769 -0.28723280199199225
0.18892900000000001 0.100494 0.160385 -0.40758831106099014 0.88689975263494536 -0.21744102065277887
0.16159799999999999 0.085995799999999997 0.15812799999999999 0.09636048978452591 -0.8721129010232691 0.47972256969759419
0.14769699999999999 0.087068400000000004 0.15501799999999999 -0.16126557009306461 -0.82331239931289013 0.54419675581558813
0.137077 0.086656899999999995 0.15567700000000001 -0.12148651721069595 -0.90138610643979955 0.41562496707165464
0.12797700000000001 0.086794499999999997 0.15503 0.00040073905076296046 -0.94961010585248584 0.31343338410425187
0.090253399999999998 0.0847604 0.152894 -0.21865484904640017 0.94696099042954418 0.23548872498103193
0.075484899999999994 0.083089099999999999 0.14907400000000001 0.19497971466522079 -0.93084517309699177 -0.30904720447061262
0.105439 0.083206000000000002 0.151142 -0.22016638532234337 0.97420627755102485 -0.049486276423555978
0.31011 0.28369699999999998 0.099177199999999993 -0.76133407208331283 0.46430664916024811 -0.45253703299357007
0.087593599999999994 0.081573099999999996 0.156218 -0.24332095796058639 0.91567188558387391 0.31990609460967573
0.32596999999999998 0.28872399999999998 0.10416300000000001 -0.29216470174492432 0.95168917361802641 -0.094485469107885744
0.078541 0.080871999999999999 0.15398600000000001 -0.22841454274804007 0.8931603496056395 0.38741629618994566
0.058627400000000003 0.075651499999999997 0.15262100000000001 0.21769255055470263 -0.87561681222608956 -0.43116719678102761
0.049083799999999997 0.075070499999999998 0.15129000000000001 -0.17297012033888604 0.89128054316847061 0.41916623294257283
0.031166200000000002 0.072537500000000005 0.14685200000000001 -0.37790693057365926 0.85706987453918015 0.35016793397138662
0.174956 0.0015911199999999999 0.16298000000000001 -0.62029399951063868 0.77985906561692242 0.083995190018219312
0.16132299999999999 -0.0134077 0.15391099999999999 0.2150900750579649 0.82436028085603286 0.52360900198384819
0.327762 0.29450300000000001 0.100103 -0.74873054619958701 0.33839879171459653 -0.56999019899799064
0.61711000000000005 -0.012926 0.17932899999999999 -0.34873604005343123 -0.32344181092322383 -0.87964115940226295
0.16738800000000001 -0.017878399999999999 0.15983600000000001 -0.019485170312528111 0.80115462116114977 0.5981401183084335
0.61799999999999999 -0.020978 0.1802 0.33629195179637816 0.32967288377023246 0.88216977553280618
0.32116699999999998 0.34877599999999997 0.15551400000000001 0.039851099218600944 0.58208195283895581 0.81215299671321561
0.32914900000000002 0.34197300000000003 0.157386 0.23764817098760327 0.45473795048434096 0.85833370154943112
0.30977199999999999 0.30287599999999998 0.098482899999999998 -0.41062018559680125 -0.50839904986397944 -0.75691576101825953
0.31393300000000002 0.34157799999999999 0.158526 -0.00543574366226654 0.48771021319207009 0.87298866008613396
0.33773399999999998 0.30049700000000001 0.099472400000000002 -0.57937939277120054 -0.67116774769512544 -0.46244283288415966
0.307809 0.33841199999999999 0.15845600000000001 -0.13400443430418432 0.54230630755446185 0.82942551225137795
0.34010499999999999 0.32921899999999998 0.15611 -0.34047512516152295 -0.36171358249174262 -0.86789398741276869
0.33133299999999999 0.33257500000000001 0.15724099999999999 0.25495803013443863 0.43266052616013839 0.86475503581812052
0.33424300000000001 0.31677 0.16413900000000001 -0.3662961867721965 -0.33401363717382815 -0.86848258113681165
0.267766 0.28861100000000001 0.15810299999999999 -0.37846855639764315 0.92437958290572519 0.047790569418258558
0.25712600000000002 0.27763700000000002 0.15379100000000001 -0.55249771733616315 0.82924791635607042 -0.084226869569305585
0.36632399999999998 0.27713700000000002 0.16526199999999999 0.32998664372135456 0.43422939157199197 0.83818473528246362
0.24245700000000001 0.26168400000000003 0.15237899999999999 0.66315725020967731 -0.6327118579430806 0.39987268763014361
0.477163 0.15684999999999999 0.16759299999999999 -0.33728132977298281 -0.30053300571340752 -0.89214416831778576
0.50685000000000002 0.12717300000000001 0.166879 0.27167291086018169 0.3269665263568472 0.90514458521657926
0.44881399999999999 0.33044899999999999 0.10947 -0.43382320008670444 -0.25721555281887304 -0.86350309232486966
0.22791900000000001 0.118454 0.15255099999999999 -0.2353581476579642 -0.87553043061373703 -0.42196327731253525
0.217672 0.11874 0.15195700000000001 0.11041879940924007 -0.89784024838716414 -0.42625177666855246
0.201959 0.11674 0.147115 -0.52795741085977033 0.78057629749164992 0.33460665879876783
0.23549999999999999 0.11627 0.154921 0.46533926243609014 0.84195777690664508 0.27306862277064242
0.22861799999999999 0.116202 0.15734200000000001 -0.20918223879262726 -0.86728121254967649 -0.451736747821192
0.21849199999999999 0.115879 0.15659999999999999 0.11806005811964246 -0.90251770503004225 -0.41415409545734549
0.19869899999999999 0.110569 0.150787 -0.55914608465037308 0.78538240135729809 0.26557511114259508
0.19164100000000001 0.098268800000000003 0.14945 -0.68033621747844275 0.72493342056721866 0.10776904440439922
0.53676400000000002 0.0965313 0.16672899999999999 -0.30918737144781727 -0.30761357024778285 -0.89987613633021868
0.17891899999999999 0.088194900000000007 0.149372 0.53288297440286636 -0.81225580577852174 0.23722614015036009
0.145342 0.086906999999999998 0.15001400000000001 -0.18864275687497911 -0.88532202828195383 0.42499272525225051
0.13855300000000001 0.086512599999999995 0.14768700000000001 0.206426433055757 0.92008680227352668 -0.3329090026087505
0.119369 0.0877917 0.14578099999999999 0.097432646246757293 -0.97869413983250508 0.18073367174621063
0.15713099999999999 0.075742000000000004 0.14718000000000001 -0.0059745525307712414 0.9525843047764051 -0.30421611892815625
0.15195900000000001 0.077100299999999997 0.14621000000000001 -0.080088722320442285 -0.94653007847279058 0.31251657092604185
0.038915900000000003 0.075284199999999996 0.14143800000000001 -0.26753874847941295 0.93051448003762893 0.25013160636427095
0.030811600000000001 0.074564500000000006 0.14108799999999999 -0.38012066848843779 0.89615783242809111 0.22893103058713696
0.019562099999999999 0.066374799999999998 0.14011199999999999 -0.58543650761621624 0.78086480437633399 0.21797764297385575
0.44490600000000002 0.36382799999999998 0.10315199999999999 -0.35881472013911653 -0.35554163436016312 -0.86304237604418477
0.56682600000000005 0.066345500000000002 0.16738400000000001 -0.30482416202376333 -0.31392281026823332 -0.89918557564042656
0.59657700000000002 0.039004900000000002 0.16939699999999999 0.32873217283990613 0.32318112004292032 0.88740583849091148
0.64648600000000001 -0.011649700000000001 0.17125099999999999 0.31433153599212976 0.36518287692491547 0.87626317501174877
0.62391700000000005 -0.026760800000000001 0.17805199999999999 -0.32502464280871374 -0.32850393762535879 -0.88681686076196276
0.43307600000000002 0.37287799999999999 0.102782 0.27519450060852679 0.35195699781903911 0.89464756106582666
0.34071099999999999 0.35266399999999998 0.14757999999999999 0.1270172796659248 0.60047223565071806 0.78949332161766717
0.33298699999999998 0.35352800000000001 0.14809800000000001 0.074528149008732614 0.69572365762404986 0.71443274506950338
0.41336400000000001 0.38647199999999998 0.107128 0.34253678769102869 0.36327061415070577 0.86643119171280991
0.31753999999999999 0.349024 0.15346799999999999 -0.064252107392561486 0.67760238013677732 0.73261632600467574
0.34159899999999999 0.34350000000000003 0.148678 -0.240934644888817 -0.49722667991598984 -0.83349632612988866
0.334399 0.34431200000000001 0.15068799999999999 0.20305482778450967 0.44930204196601187 0.8699979379277718
0.32663500000000001 0.34826400000000002 0.154948 0.12395099332630305 0.59856160482544096 0.79142918601869583
0.316301 0.347331 0.15387700000000001 -0.1212698010851721 0.59202427484868658 0.79674393209779115
0.34321699999999999 0.33404099999999998 0.15229500000000001 -0.31955634688025508 -0.357788533127255 -0.87742299190937145
0.35382400000000003 0.31556400000000001 0.15432999999999999 -0.39356112964375273 -0.28180068898536936 -0.87504171838884581
0.292184 0.29111999999999999 0.149947 0.19068388152366789 -0.9815509819211452 0.014047320623656434
0.277586 0.28967399999999999 0.14882600000000001 -0.26837227508426792 0.94896022482987819 0.16568287074082425
0.27420899999999998 0.28148200000000001 0.14721200000000001 -0.41999371078681463 0.90548305169309584 0.060874674504918583
0.26433299999999998 0.282333 0.146567 -0.52447600980462072 0.85071726004572024 -0.034713953962707975
0.24945300000000001 0.26753900000000003 0.148864 0.67969298225842811 -0.67065105196171326 0.2970599541696789
0.41601100000000002 0.25780799999999998 0.15482499999999999 -0.37552496438477717 -0.27721310893769407 -0.88438334072782621
0.466588 0.206398 0.15476899999999999 0.38211593755148188 0.32212302338865417 0.86615481761178503
0.493591 0.183055 0.15452099999999999 0.3235444662235496 0.35698604528757533 0.87628759083194585
0.48544700000000002 0.186504 0.15537699999999999 -0.32763322873997008 -0.34220613113422216 -0.88065397929014666
0.50265400000000005 0.17314399999999999 0.155001 -0.37830945328911325 -0.28021896036647626 -0.88224672955087979
0.49564799999999998 0.17541399999999999 0.155112 -0.35798272519888019 -0.32676723518387596 -0.87468368137828478
0.53435600000000005 0.143709 0.157 0.31164802456440166 0.39656636728257999 0.86348747826786931
0.54623600000000005 0.127358 0.15753300000000001 0.39034034631803038 0.31147692162124685 0.86638129096470662
0.19996800000000001 0.117465 0.140067 -0.52746695538921617 0.80865012667538072 0.26050639838653017
0.193159 0.11115899999999999 0.13834399999999999 -0.73251146847890536 0.65473449126749028 0.18641269938386215
0.19400899999999999 0.101706 0.14030200000000001 -0.72874919539850336 0.64320398714603677 0.23497497978609486
0.19087000000000001 0.098527400000000001 0.13897499999999999 -0.7788379103527735 0.60119146143847046 0.17883046745675416
0.13699700000000001 0.085824499999999998 0.14083000000000001 0.26166164200811443 0.92467282002945572 -0.2766104860636901
0.12729499999999999 0.088052900000000003 0.138127 -0.095174143741877243 -0.98906809251166694 0.11263299134060628
0.69116500000000003 0.051305799999999999 0.12576799999999999 -0.40803355863793289 -0.41006387828063257 -0.81569371136150781
0.109018 0.084344500000000003 0.13592699999999999 -0.067446957327452609 0.99555284175297076 -0.065768132289534251
0.10205500000000001 0.084140300000000001 0.132827 0.086214742508046324 -0.99215783028870452 0.090497834068453964
0.089486200000000002 0.085589999999999999 0.13483700000000001 -0.097476096982859792 0.99343663856314235 -0.059850277170224092
0.17630299999999999 0.083196400000000004 0.13916000000000001 0.55704559706255485 -0.8304809276962255 -0.0012773120362649382
