0.65193800000000002 0.34981000000000001 0.021566499999999999 -0.82055789178116501 -0.033967858552912039 -0.57055317966073926
0.64978199999999997 0.36859399999999998 0.0214681 -0.84345387581606113 -0.047387505319645813 -0.53510745062131659
0.493892 0.54515100000000005 0.12266199999999999 0.26439414111550058 -0.077112170003016886 0.96132692221804661
0.47511500000000001 0.54494600000000004 0.12715000000000001 -0.09401874242403567 0.092223380254678605 -0.99128972768177304
0.46524900000000002 0.54499200000000003 0.127806 0.026505730789197823 0.09568183369875094 -0.99505900977548833
0.45478499999999999 0.54515899999999995 0.126892 0.14364339699096015 0.088296499713312854 -0.98568265818125977
0.50332500000000002 0.53524700000000003 0.119103 0.30644901036113509 -0.075066369267945424 0.9489225702098194
0.493649 0.53519899999999998 0.12200900000000001 0.25282496116102959 -0.073987785697052472 0.96467888262445711
0.47517399999999999 0.53484100000000001 0.125833 -0.10066085101044464 0.10457542498042563 -0.98940960858686666
0.465227 0.53496900000000003 0.126472 0.015112968051005371 0.11073915977912011 -0.99373459066699665
0.48460799999999998 0.52504499999999998 0.123047 -0.17450805667444283 0.1024243765819353 -0.9793141402213652
0.47506199999999998 0.524926 0.124572 -0.092602889782755188 0.11544364700062273 -0.98898810365498269
0.65132500000000004 0.46974399999999999 0.019778299999999999 0.70404654529626853 0.066768104689924987 0.707008120358249
0.46500599999999997 0.52501900000000001 0.12545300000000001 -0.0047963032125049182 0.13187979033325539 -0.99125411291815113
0.45438899999999999 0.755409 0.12740199999999999 -0.22018040754638149 -0.11028023783821639 -0.96920527096949682
0.64090800000000003 0.48655999999999999 0.0289097 -0.82391500236367921 -0.061613848985645737 -0.56335406494782014
0.645868 0.48486600000000002 0.024640100000000002 0.79294179863016934 0.069110052205409389 0.60536526549622738
0.50025600000000003 0.51430399999999998 0.11840100000000001 -0.27690162761010334 0.093226090172589926 -0.95636519423178945
0.49992599999999998 0.50797999999999999 0.118086 -0.27621218216536397 0.092464834653029362 -0.956638429489447
0.49422199999999999 0.50528600000000001 0.119574 0.22337290007458588 -0.10191293520771771 0.96939068550797214
0.47503400000000001 0.505054 0.12202200000000001 -0.071527679965006113 0.10513679223388725 -0.99188207258604677
0.64068899999999995 0.50612100000000004 0.027751100000000001 0.81516055574208135 0.049208930002250795 0.57714101359225423
0.46509600000000001 0.50506200000000001 0.122144 -0.0092233381860758468 0.10416902216418038 -0.99451683990471662
0.44747199999999998 0.504583 0.120658 0.15500682975706123 0.079283781593440253 -0.98472684776282449
0.64024700000000001 0.51478400000000002 0.0283466 0.81595785553322264 0.02567511194138411 0.57754096531797805
0.49295299999999997 0.49570599999999998 0.11902600000000001 -0.21392590993090052 0.12057324857030277 -0.96938010954910792
0.47494199999999998 0.495259 0.120486 -0.077443610279990915 0.095793722395721231 -0.99238402343869514
0.46497300000000003 0.49509900000000001 0.12030200000000001 -0.012492102537040799 0.085533460908344128 -0.99625698212822833
0.448353 0.48403800000000002 0.119905 0.11141539288036917 0.03803573552709498 -0.99304576583973525
0.49015799999999998 0.47944700000000001 0.118002 0.23102566528017138 -0.16128153984127874 0.95948705404933965
0.64107800000000004 0.53580899999999998 0.0281485 0.811492896692389 0.041521795861588842 0.58288525379033573
0.47453699999999999 0.47595500000000002 0.11991599999999999 -0.11123585234984873 0.13961520531111676 -0.98393809744207872
0.46510200000000002 0.47584199999999999 0.120126 -0.035945996066008089 0.10780365393046061 -0.99352214749650347
0.63975499999999996 0.54466300000000001 0.028162900000000001 0.79830008441811962 0.0354052713985374 0.60121829810412375
0.44529800000000003 0.47523399999999999 0.119632 0.11815190547566219 0.06250817072837303 -0.99102616303741586
0.439917 0.47250500000000001 0.118799 0.15369516217125362 0.055945892127316377 -0.98653325046813867
0.63809700000000003 0.55569500000000005 0.028206999999999999 0.81118694309224593 0.05361097076751363 0.58232431442455013
0.64447600000000005 0.55520000000000003 0.023393799999999999 0.7236104789455956 0.037028492677830635 0.68921460046210092
0.48121999999999998 0.46667999999999998 0.11683 -0.17644349999573605 0.1709075968509626 -0.96935972922743352
0.46541199999999999 0.465111 0.119544 0.079185960197578217 -0.15006481157572438 0.98549994217875547
0.46073999999999998 0.44924900000000001 0.11621099999999999 0.082009674638921753 -0.18377465175654237 0.97954136749673792
0.47442400000000001 0.75495999999999996 0.121575 -0.28380533246002448 -0.13510408543107291 -0.94931629047809374
0.63854 0.57576300000000002 0.028155599999999999 0.78421969499072741 0.0059990342024622972 0.62045425421805922
0.41302800000000001 0.88427 0.11604100000000001 0.1648340608344929 0.19220704388347309 0.96741210694842317
0.45248100000000002 0.87340200000000001 0.11068699999999999 0.21542574039439388 0.16750739512276183 0.96204626861430842
0.63831300000000002 0.58466300000000004 0.028843299999999999 0.77888461621899052 -0.011156849058970061 0.62706800216282077
0.64398299999999997 0.58522799999999997 0.023909799999999998 0.74246767195043006 0.01915791826234918 0.66960789293164802
0.435062 0.87512199999999996 0.113873 0.19529670755415357 0.17727686976966911 0.96458908736475713
0.42484499999999997 0.87493600000000005 0.115707 0.1834251056490134 0.1860369796833127 0.96526963735940552
0.46127800000000002 0.86335899999999999 0.10997 -0.22083844695462251 -0.16478734406110607 -0.96128846429360504
0.44506099999999998 0.86500200000000005 0.113763 0.20547275793603836 0.16678584319161663 0.96434611434744721
0.43494899999999997 0.86499300000000001 0.115804 0.19588939289005497 0.17406308695427966 0.9650540852787024
0.60886899999999999 0.016273699999999999 0.040747499999999999 0.28638900074141699 -0.24759467964996246 0.92556913024547516
0.61594499999999996 0.0165744 0.0383994 0.31605345599825363 -0.19814019906332253 0.92782038911995623
0.425043 0.86506700000000003 0.117677 0.18695729665740246 0.175911857089947 0.96648951766779245
0.47428100000000001 0.84251399999999999 0.110678 0.22038990378626 0.16421465053776374 0.96148938572292242
0.64109700000000003 0.018575100000000001 0.028486899999999999 0.35766669805142265 -0.11130642422023256 0.92719222010988533
0.464144 0.84554399999999996 0.112261 -0.21852494430410585 -0.16427702605481995 -0.96190431303091228
0.455071 0.84522699999999995 0.114477 -0.22152833860483742 -0.1704820397822229 -0.96013596396899603
0.44514100000000001 0.84514199999999995 0.11676400000000001 -0.20889109193401195 -0.17428387811334528 -0.96228355568428425
0.43513600000000002 0.84529600000000005 0.118926 0.20318493151040751 0.1761843654484043 0.96315884099075511
0.617058 0.034406399999999997 0.0399674 0.35993633867750935 -0.080379189948212637 0.92950794398041503
0.48350199999999999 0.83379800000000004 0.110387 -0.23238991595487177 -0.14509028245029415 -0.96173995284639269
0.47497 0.83477199999999996 0.11233799999999999 -0.2273537976661415 -0.15286426570309108 -0.96173944858149507
0.64054999999999995 0.035868299999999999 0.029725399999999999 -0.39053526596249327 0.052524017115870514 -0.9190883709772506
0.61800500000000003 0.044841800000000001 0.039960599999999999 -0.36520801261977387 0.044868778310917991 -0.92984401931248728
0.625471 0.044882199999999997 0.036719799999999997 -0.38190167836312916 0.039680409403779607 -0.92335073139786539
0.464976 0.83484899999999995 0.114496 -0.22464378259122392 -0.16460979812326323 -0.96043676798888011
0.44581999999999999 0.835816 0.118592 0.21364450745600497 0.17555885422724757 0.96100734291486911
0.47501900000000002 0.82492900000000002 0.11386499999999999 0.23857529798833838 0.1412977428395655 0.96078966223529905
0.491145 0.81333800000000001 0.11065800000000001 -0.26736226822176951 -0.098261023288967242 -0.95857299609029023
0.475018 0.81498499999999996 0.114825 -0.24916689336943088 -0.12370120914855688 -0.96052791219402434
0.465138 0.81505300000000003 0.117475 -0.24124868540504496 -0.13240090829746642 -0.96138913623586542
0.61873500000000003 0.064454800000000007 0.039983499999999998 -0.37123856481893358 0.018037722459824622 -0.92836230457706581
0.625274 0.064968200000000004 0.037254599999999999 -0.37323624964693891 0.025176320649486997 -0.92739465969351076
0.49391699999999999 0.80385799999999996 0.111081 -0.27735246034811767 -0.080303415426106306 -0.95740637882236213
0.47503099999999998 0.80492399999999997 0.115884 -0.25942375087645703 -0.1029675525501539 -0.96025881959137527
0.61870899999999995 0.074742100000000006 0.040196700000000002 -0.37597492273268518 0.019024289504508615 -0.9264345275760183
0.62525900000000001 0.075080300000000003 0.037323299999999997 -0.36689057747646653 0.026038924125451359 -0.92989960672610972
0.46518199999999998 0.80523800000000001 0.11856999999999999 -0.2530506386445181 -0.11517771399797942 -0.96057246914524941
0.501 0.79313599999999995 0.10961600000000001 0.28811040268401905 0.071452349032018428 0.95492772380063362
0.48499500000000001 0.79503500000000005 0.114375 -0.27596609073356004 -0.082488443802206574 -0.95762120559453268
0.49475999999999998 0.78468800000000005 0.11165700000000001 -0.28353546929743373 -0.081772157345056731 -0.95546896963397987
0.48489300000000002 0.78493999999999997 0.114956 -0.28297510605568316 -0.087815299661914106 -0.95509871871867968
0.475134 0.78512999999999999 0.118077 -0.28172026281879509 -0.097474229584193647 -0.95453259142067881
0.50270300000000001 0.77388100000000004 0.11008900000000001 -0.28665561609471607 -0.10155817019998167 -0.95263555246851372
0.61834599999999995 0.095048800000000003 0.040535099999999998 -0.35390933834058086 0.033656353001720395 -0.93467396996918428
0.625579 0.094972000000000001 0.037529199999999999 -0.35493007785944375 0.037834771036930288 -0.93412695600291529
0.49419299999999999 0.77483000000000002 0.112523 -0.2907880436914011 -0.097485233155872847 -0.95180824905160011
0.48513800000000001 0.77471999999999996 0.115449 -0.2858468508495397 -0.10442856412224744 -0.95256824052388323
0.475993 0.77452200000000004 0.118452 0.28734154050845723 0.10695266271550272 0.95183820423236354
0.61907599999999996 0.103936 0.040684199999999997 -0.36028061016358809 0.038513450436992232 -0.93204860177760573
0.62590199999999996 0.104809 0.037701600000000002 -0.34610256833374969 0.036243638860456763 -0.93749635243820273
0.51106799999999997 0.76210999999999995 0.10982500000000001 -0.30541498377538551 -0.1124839952976914 -0.94555223995681514
0.50456000000000001 0.764629 0.111045 0.29422210974321134 0.1181586602878149 0.9484049141254185
0.49472500000000003 0.76490400000000003 0.11379300000000001 -0.28600807908131803 -0.11572450085717614 -0.9512135504720125
0.51333799999999996 0.74451599999999996 0.111745 -0.3318616534528489 -0.10743122307467516 -0.93719068245273351
0.62635300000000005 0.114956 0.038111600000000002 -0.3457360476126134 0.04776882525991609 -0.93711510750520732
0.50473699999999999 0.74499899999999997 0.114061 -0.31335647005877432 -0.12281212127667755 -0.94166071678701102
0.52054900000000004 0.734483 0.110024 0.36746090268999704 0.077348650567804308 0.92681695671237685
0.50446599999999997 0.73479799999999995 0.114898 -0.3279922957652896 -0.11457760079673265 -0.93770625854490253
0.62011300000000003 0.12547 0.041311100000000003 -0.35846828171466666 0.046340591818522396 -0.93239103414524727
0.52225200000000005 0.71440499999999996 0.110232 0.40044961856614314 0.096065635014331685 0.91126916811638259
0.51476299999999997 0.71498200000000001 0.11376500000000001 -0.37581638568552034 -0.097702016045453061 -0.92152935944055836
0.50477099999999997 0.71506000000000003 0.117266 -0.34895615816703279 -0.11144496483821351 -0.93048891422171953
0.52323299999999995 0.70481899999999997 0.110721 0.41157425559486932 0.10200731549924286 0.90564956783303707
0.62004700000000001 0.13408300000000001 0.041633299999999998 -0.34819124241310551 0.049570765022157355 -0.93611195802742331
0.62662700000000005 0.13495399999999999 0.039220600000000001 -0.33010466588274717 0.05838263392548191 -0.94213713312784941
0.51493599999999995 0.70497399999999999 0.114452 0.38147806426250724 0.10854498133714535 0.91798282855021285
0.53013999999999994 0.69070699999999996 0.110018 -0.41332089871054201 -0.11561904949768528 -0.90321540624723717
0.52430600000000005 0.69470200000000004 0.11182599999999999 -0.39669239717607724 -0.11783167539850871 -0.91035753322278723
0.62010399999999999 0.141955 0.042191600000000003 -0.34748192598147681 0.051803648347182506 -0.93625460913905501
0.62683599999999995 0.14457999999999999 0.039787500000000003 -0.33232271464972329 0.050981737321106967 -0.94178685263044526
0.51479699999999995 0.69494699999999998 0.115666 -0.37853694657358561 -0.11148517864424547 -0.91884755809731955
0.64541000000000004 0.144984 0.034598200000000003 0.48627100881758228 -0.056597907618929889 0.87197315488304439
0.53201799999999999 0.674709 0.110781 -0.40922512307948106 -0.064527714777242465 -0.91014887390262178
0.52495099999999995 0.67495099999999997 0.11387 -0.39165347146363699 -0.061305657174665552 -0.91806817540358332
0.53258700000000003 0.66479299999999997 0.111249 -0.40840889826138388 -0.02083633746031785 -0.91256124115708659
0.52512000000000003 0.66495899999999997 0.114519 -0.39305902188407227 -0.021076652999236313 -0.91927165735373684
0.53322099999999995 0.64492899999999997 0.110205 -0.40767907682256965 0.030954439274265656 -0.91260045639387743
0.62793100000000002 0.16442599999999999 0.040745900000000002 -0.3286436554300512 0.044947555923593674 -0.94338383755609734
0.53294900000000001 0.63535600000000003 0.10936899999999999 -0.40555724322527625 0.030906338096829005 -0.9135469997394543
0.52469900000000003 0.63529199999999997 0.113445 -0.38643658346007831 0.029573601317810529 -0.92184172669108277
0.65287300000000004 0.16505400000000001 0.031945000000000001 -0.64527510962859524 -0.011804711954713091 -0.7638590718643532
0.62789300000000003 0.17511099999999999 0.041143800000000001 0.33372801260340862 -0.040055016378634178 0.94181803405259057
0.53317400000000004 0.61484399999999995 0.10893799999999999 0.41514885232141918 -0.0046285458749970648 0.9097417254250193
0.64543099999999998 0.17497499999999999 0.036440699999999999 0.52064607744709435 -0.014722001613077986 0.85364566695289867
0.52382300000000004 0.61500999999999995 0.11339 -0.38298320531491142 0.0059918257217521616 -0.92373587267748603
0.62738700000000003 0.18451100000000001 0.041070500000000003 -0.31467188230019916 0.026422516891666425 -0.94883268129357734
0.53912400000000005 0.60565899999999995 0.10657 0.42509475481702741 -0.0031591115901870954 0.90514334193044355
0.64545300000000005 0.185061 0.036362400000000003 -0.50593655967400875 0.026447111115574996 -0.86216515117398984
0.53288199999999997 0.59498899999999999 0.109261 0.41376068613816169 -0.0076008624859070359 0.91035395396293417
0.52341099999999996 0.59489099999999995 0.11350300000000001 -0.39625550896893746 0.007276499527355932 -0.91811144430640679
0.532806 0.57496100000000006 0.10882699999999999 -0.41285869685246618 0.021324743815217928 -0.91054541442725379
0.52366599999999996 0.57518899999999995 0.11323900000000001 -0.41290613949701871 0.020634847881537334 -0.91053979760281434
0.53295099999999995 0.56520499999999996 0.10811800000000001 -0.41394188025085288 0.033506572635431928 -0.90968644563091894
0.62822299999999998 0.20463100000000001 0.041483899999999997 -0.32843014321597175 0.031314247295981264 -0.94400903541408066
0.52350799999999997 0.56510499999999997 0.11304 -0.40155919903026849 0.036205083055678045 -0.91511715186368348
0.645374 0.204815 0.037513600000000001 -0.48005915365071727 0.035960484764061981 -0.87649874645186465
0.53144899999999995 0.54500300000000002 0.108533 -0.40155910527182426 0.042573748646585217 -0.91484302527781747
0.62906799999999996 0.214702 0.041775399999999997 -0.32390236601192912 0.055005591154850868 -0.94449014935762021
0.52338799999999996 0.54507700000000003 0.11200400000000001 -0.38365129822733168 0.055002079682612427 -0.92183862611580258
0.64622999999999997 0.21460599999999999 0.038489200000000001 -0.50855154124763935 0.021746802609575702 -0.8607568800020774
0.65303299999999997 0.21496399999999999 0.034299200000000002 -0.65753113954055364 0.026741270030029934 -0.75295265788207566
0.51513500000000001 0.54486100000000004 0.115134 -0.35827357207368071 0.059968922688203301 -0.93168866895824221
0.53186999999999995 0.53557500000000002 0.107819 0.39264826767695904 -0.056615525911675263 0.91794445372039157
0.52333600000000002 0.53555799999999998 0.11146 0.37152095785406669 -0.066317772560970364 0.9260529849407908
0.51472499999999999 0.53515299999999999 0.11464100000000001 -0.35600517558706124 0.071185768300376942 -0.93176869519570726
0.62981799999999999 0.231906 0.0424374 -0.36648141881916879 0.059438204599136818 -0.92852488900100028
0.51478599999999997 0.52495700000000001 0.11383799999999999 -0.35708102045466206 0.074172986044035341 -0.93112379035892356
0.64642699999999997 0.23496400000000001 0.039265000000000001 -0.55417938664715849 0.026623570607326494 -0.83197138947411853
0.52379200000000004 0.51517100000000005 0.109306 0.37408912798752353 -0.084130509345870311 0.92356882890163527
0.63799399999999995 0.244729 0.041862900000000001 -0.46189931468211487 0.097424413124480858 -0.88156537297215953
0.64621700000000004 0.245064 0.038994800000000003 -0.58406659591542898 0.044692016017354244 -0.81047445070160462
0.52278999999999998 0.50560499999999997 0.108852 0.37385906257919899 -0.10943035237809934 0.92100727429581541
0.52126600000000001 0.49565999999999999 0.108778 0.36624957164273808 -0.11250287860382351 0.92369061572442313
0.50497300000000001 0.49495099999999997 0.11482199999999999 -0.30598678256117112 0.11846933400208758 -0.9446359646969642
0.51336499999999996 0.47597 0.107886 0.32994774287906364 -0.16689232897427814 0.9291293976075411
0.638069 0.26422499999999999 0.043018199999999999 -0.48994347874224375 0.15435344669232326 -0.85798042001676755
0.64646800000000004 0.26450600000000002 0.040536000000000003 -0.67158487368488584 0.057379545541355707 -0.73870247406592815
0.50389399999999995 0.47532600000000003 0.112681 -0.3141153821546675 0.17358121511372576 -0.93338153423638592
0.63841400000000004 0.27379199999999998 0.046090399999999997 -0.54042501351012084 0.086006265817472505 -0.83698490249987167
0.64725999999999995 0.27440700000000001 0.041405999999999998 -0.70950678791294286 0.022517090367189459 -0.70433876689193631
0.51168999999999998 0.46637699999999999 0.106173 -0.31927257253091951 0.17617867948885443 -0.93114236146952956
0.640571 0.283586 0.047153800000000003 -0.59938170970552962 0.021458845619272571 -0.80017565822459535
0.64838799999999996 0.28407399999999999 0.043771600000000001 -0.73203287218809698 0.013234513796080826 -0.68114075027164989
0.50294700000000003 0.46579999999999999 0.109939 -0.304128805221342 0.1821140293057012 -0.93506157560060255
0.49452000000000002 0.465285 0.112997 -0.28736911171072593 0.19177339642634242 -0.93842525437974711
0.48482799999999998 0.465312 0.11521099999999999 -0.22280048417705131 0.19601639508023808 -0.95495419634148937
0.44552700000000001 0.46474199999999999 0.119225 0.11519961735462476 0.090805359477328984 -0.98918321601791304
0.64067300000000005 0.30608999999999997 0.046773099999999998 -0.65560967784379054 0.022238766296119469 -0.7547724078099225
0.43685200000000002 0.462418 0.116983 0.18133682177172225 0.065381882309493419 -0.98124521223565642
0.50200599999999995 0.44597599999999998 0.106486 0.29332343183382747 -0.17679266013292713 0.93952419854964297
0.49365100000000001 0.44585200000000003 0.10878500000000001 -0.26651010479058024 0.17398389350778729 -0.94799892871478741
0.64904399999999995 0.31556800000000002 0.039351400000000002 0.7590221884309607 -0.054981352225545503 0.64873906031387196
0.47435300000000002 0.44592799999999999 0.113095 0.16806580492616363 -0.19588886292000371 0.9661166795984989
0.64232500000000003 0.32153700000000002 0.046125600000000003 -0.6192506444294309 0.11705594588346857 -0.77641905238541198
0.44512699999999999 0.44512600000000002 0.11601 0.034988867224859062 0.14008184562203571 -0.98952152866799481
0.43799700000000003 0.44461600000000001 0.11512 0.077337869789439337 0.11336477922385052 -0.99053888400605439
0.65008999999999995 0.33463300000000001 0.039280299999999997 0.77561529397856122 -0.0262804880365127 0.63065858568254896
0.50165300000000002 0.43638900000000003 0.10519100000000001 -0.28748457204366901 0.16180287969232832 -0.94401930539588963
0.650945 0.34529399999999999 0.040655799999999999 0.75116639259761442 0.075211483641842866 0.65581421405782259
0.49357200000000001 0.43586999999999998 0.10774499999999999 0.24956460793069465 -0.16224838063709895 0.95466903660328151
0.64807000000000003 0.36558000000000002 0.040441699999999997 0.81975792729920571 0.059270518220948781 0.56963492370107549
0.64753400000000005 0.37556299999999998 0.039076600000000003 0.84702889751555022 0.06454849982125499 0.52761305702609085
0.64659900000000003 0.38566899999999998 0.037716399999999997 0.85607944143493042 0.017737825614857962 0.51653979468663802
0.47431099999999998 0.43569400000000003 0.111308 0.16355236289717806 -0.15676710225379104 0.97399933277271777
0.64459900000000003 0.40503800000000001 0.038432399999999999 0.84167013865958684 0.06887529130268949 0.53558152688150207
0.64253099999999996 0.41592099999999999 0.037994899999999998 -0.82805039424913029 -0.056568911558365451 -0.55779252668798096
0.46464899999999998 0.43577900000000003 0.11237900000000001 0.11930949869790794 -0.15850785499298872 0.98012269814854069
0.640266 0.43564199999999997 0.039355500000000002 0.82243843871249134 0.014482233101902629 0.56866974550484151
0.45492500000000002 0.43548199999999998 0.11357399999999999 -0.071974434590373407 0.15187707485575214 -0.98577534707389414
0.63990199999999997 0.44569999999999999 0.038773000000000002 0.81520103792665932 0.023715665234581941 0.57869234916817314
0.444967 0.43522499999999997 0.114213 0.0045583995429648305 0.12899701197548227 -0.99163450519584295
0.63956400000000002 0.45544600000000002 0.038884200000000001 0.82619513397282585 0.0054683328633250601 0.56335752230295111
0.47431400000000001 0.42571300000000001 0.109767 0.17484736313664492 -0.13174939504857847 0.97574099868176878
0.63879200000000003 0.47506599999999999 0.039565999999999997 0.81664939056531516 0.017736544800480741 0.57686149799396391
0.63768100000000005 0.48753299999999999 0.038597100000000002 0.8493284847316187 0.067714756626610723 0.52350342573711162
0.46443699999999999 0.42553600000000003 0.110584 -0.12689420475525648 0.12592443341918663 -0.98389069406493934
0.63599499999999998 0.50032500000000002 0.039725799999999999 0.86426186826716833 0.038536743254386926 0.50156389670578261
0.63767399999999996 0.51339299999999999 0.0305788 0.83247277676928977 0.026436416532808253 0.55343490296414433
0.63429800000000003 0.53367600000000004 0.039771899999999999 0.86497436518774251 0.037087561928163003 0.50044366348100233
0.63458199999999998 0.55903899999999995 0.0317647 0.82963512960788122 0.038668951695059038 0.55696522682777916
0.44479800000000003 0.42526199999999997 0.112859 -0.027202150867934316 0.12981331463636206 -0.99116524673299511
0.63127999999999995 0.57798400000000005 0.039503799999999999 0.83430686147301703 -0.010246676367569067 0.55120510386104193
0.43559999999999999 0.42487599999999998 0.113307 0.041327516200060352 0.10757339964849359 -0.99333780764289836
0.49138700000000002 0.41655900000000001 0.10491399999999999 -0.26072019635220328 0.12382010213152213 -0.95744115303354715
0.48969200000000002 0.40714099999999998 0.10397199999999999 -0.25737806460488066 0.12844396870277977 -0.95773622608948283
0.47372599999999998 0.40581499999999998 0.108302 -0.17469128764501227 0.11879074134061804 -0.97743118110313754
0.57747499999999996 0.019746300000000001 0.0485552 0.19441762328420653 -0.25360266827795119 0.94756924517357788
0.58640000000000003 0.018840699999999998 0.0471146 0.22907437689618718 -0.177971876890165 0.95700101404638838
0.596495 0.018423200000000001 0.044891399999999998 0.24497701776367789 -0.24955114436138226 0.93686204273390161
0.46437200000000001 0.40539399999999998 0.109737 -0.13469647275638305 0.10914623398569422 -0.98485732968472595
0.445268 0.40509899999999999 0.110744 -0.039061284089701262 0.093843700615650658 -0.99482037370573773
0.43503900000000001 0.40521499999999999 0.11089599999999999 -0.00050637690374972372 0.083375236959113655 -0.99651809489062604
0.48144799999999999 0.39665499999999998 0.105088 -0.23459082060172198 0.13155713004870684 -0.9631510101862315
0.46407700000000002 0.39602700000000002 0.10845399999999999 0.1374317546086922 -0.11011911721983471 0.98437101381943426
0.445017 0.39521499999999998 0.109225 -0.052195742531950626 0.080109202398457285 -0.99541856530437545
0.435444 0.39511499999999999 0.109795 0.01442966526944417 0.058815268044546135 -0.99816459013784908
0.47059499999999999 0.37778400000000001 0.10431699999999999 -0.2012706680760846 0.13511337012279837 -0.97017240498081903
0.46387 0.37567600000000001 0.10587100000000001 -0.17572911675798064 0.13110726935215442 -0.97566908398620578
0.454125 0.375807 0.107617 -0.13285711695417132 0.11999577089132217 -0.98384450064165263
0.43539899999999998 0.37552799999999997 0.109496 0.037740711353790077 0.10714563258592853 -0.99352677473949902
0.46273500000000001 0.36685000000000001 0.104777 0.18584369216875801 -0.15856861397879005 0.96970001378876414
0.44472600000000001 0.36571100000000001 0.10823199999999999 -0.071046739099727002 0.14339341420828555 -0.98711229838604819
0.57933800000000002 0.030480799999999999 0.0510848 0.22365222210148009 -0.14174247403960014 0.96430739632246065
0.58677000000000001 0.033905400000000002 0.050130300000000003 0.24690402892318097 -0.11730832326867095 0.96191327976766905
0.43523400000000001 0.365344 0.109051 0.024234590082396014 0.14602587828374133 -0.98898388637783186
0.60502900000000004 0.034901700000000001 0.044329 0.31170009642474217 -0.090307415554268064 0.94587928436176016
0.44396799999999997 0.35008800000000001 0.104993 0.056035880789051466 -0.20437628777297867 0.97728722137370261
0.43905 0.350549 0.105087 -0.014110423698896514 0.20788578877007735 -0.97805132522300697
0.44483499999999998 0.77483599999999997 0.12761700000000001 -0.22106012607351597 -0.10940375980357965 -0.96910434835532633
0.49173800000000001 0.88325699999999996 0.100356 0.22834797420418099 0.13622636374364627 0.96400185710299902
0.17477999999999999 0.044989500000000002 0.048425500000000003 -0.1572512742744657 -0.13794822526347622 0.97787643589858209
0.47484599999999999 0.88552200000000003 0.10299700000000001 0.21445277574372321 0.15457299447248202 0.96442583766488865
0.58771200000000001 0.044368999999999999 0.050412100000000001 -0.26002690442424092 0.077174737703986945 -0.9625123733416977
0.45510200000000001 0.77466100000000004 0.124774 0.2535039172763478 0.11145897341346332 0.96089159699269078
0.60511899999999996 0.0449325 0.044654300000000001 -0.32653372823202276 0.056673648080942406 -0.94348493466514505
0.50089799999999995 0.87102299999999999 0.099954000000000001 0.23528202578649032 0.14923485525228297 0.9604016484365463
0.49397600000000003 0.87434699999999999 0.101116 0.22766558820140537 0.14987134279218156 0.96213666417956256
0.47209699999999999 0.87416199999999999 0.105625 0.21989236492434561 0.14475205115802006 0.9647249305027441
0.15560499999999999 0.055379600000000001 0.047172199999999997 -0.15541375786287204 -0.17399185889716126 0.97240598358116415
0.164934 0.055129600000000001 0.048509099999999999 -0.14970612153289845 -0.1648140768801731 0.97489712136087137
0.46503800000000001 0.87500800000000001 0.107225 0.21544364143643432 0.15201971744563431 0.9646108245672752
0.50231199999999998 0.86418300000000003 0.100592 -0.23520793159746067 -0.15097495405505734 -0.96014779704049602
0.49487399999999998 0.86482899999999996 0.102156 -0.22387763861862731 -0.15433432040525771 -0.96231996782338181
0.47496500000000003 0.86487599999999998 0.10638499999999999 0.21770015484862454 0.15777223732356588 0.96317940369839794
0.51187800000000006 0.852522 0.100332 -0.26371265161640339 -0.15345471269544533 -0.95231680050758538
0.52098500000000003 0.840395 0.0996528 -0.28841819609972141 -0.11576989648905237 -0.95048002358045236
0.50504899999999997 0.84504400000000002 0.10331700000000001 0.25260674417272888 0.13881490078774394 0.95755953137010874
0.49505199999999999 0.84507500000000002 0.105514 -0.23128716498099977 -0.14854135870233226 -0.96147891920203676
0.52069200000000004 0.83653500000000003 0.10011200000000001 -0.28959928003144964 -0.10766184163698192 -0.95107370106664157
0.155225 0.064867599999999997 0.048705900000000003 0.14493213458427193 0.1879087772556777 -0.97143448970845325
0.16262199999999999 0.063492400000000004 0.0495513 -0.14081684533793504 -0.17893170992751412 0.97373202640741385
0.58901099999999995 0.0639816 0.050496699999999999 -0.28237833702120591 0.036218319289016289 -0.95861916741165643
0.50492499999999996 0.83492 0.104821 0.26319160225626059 0.12377707905740125 0.95677030430600218
0.60502500000000003 0.065018599999999996 0.045363399999999998 -0.33760164332733889 0.02482402761468009 -0.94096168788939849
0.52298 0.81447599999999998 0.10108200000000001 -0.31681884781310793 -0.076695248729072477 -0.94538016506205602
0.50491299999999995 0.81494500000000003 0.106698 -0.28454479136343647 -0.082279805828471955 -0.95512527725988239
0.52473999999999998 0.80469900000000005 0.10130599999999999 -0.32137452590874538 -0.074030918804344897 -0.94405393763169809
0.14743500000000001 0.0730354 0.0491703 0.14884530782839506 0.20728436155325314 -0.96689103201598192
0.50496399999999997 0.80497200000000002 0.10789700000000001 0.28804706497750854 0.077623818737380765 0.95446499732702039
0.58916999999999997 0.074289599999999997 0.050726800000000002 -0.28790622015238465 0.037993558747205503 -0.95690464409537135
0.53025 0.79145600000000005 0.100276 -0.32825101365697235 -0.074471126311844063 -0.94165031905639762
0.60505100000000001 0.074993699999999996 0.0456021 -0.3412974359103218 0.028850161840403895 -0.9395124950754099
0.52501900000000001 0.78513999999999995 0.102576 -0.3185087256597196 -0.079531288922171164 -0.94457766528803733
0.53243700000000005 0.77451899999999996 0.101131 -0.32908222628084516 -0.075591384747123153 -0.94127085947566402
0.51484600000000003 0.77482300000000004 0.10681400000000001 0.29585125753691999 0.10166857216587832 0.94980815686515063
0.53450600000000004 0.76465000000000005 0.10108200000000001 -0.3525467032834198 -0.077471537269368451 -0.93258189072977038
0.54006100000000001 0.74569700000000005 0.10014000000000001 -0.38432385392467289 -0.043289245071298756 -0.92218285419196799
0.53479299999999996 0.74495599999999995 0.10238700000000001 -0.38083085038712472 -0.058838133774597408 -0.92277079353832048
0.54110899999999995 0.73372199999999999 0.099981600000000004 -0.4064577963290163 -0.023792218214731185 -0.91335972658957454
0.53495199999999998 0.73494700000000002 0.102974 -0.40124596861210221 -0.054164076516083737 -0.91436750023592583
0.58987999999999996 0.092501100000000003 0.051142300000000002 -0.29583780550922906 0.049185244845045682 -0.95397107111327883
0.59669000000000005 0.094864699999999996 0.049133299999999998 0.32349292205671726 -0.045703691746440775 0.94512618307819229
0.54196200000000005 0.71435899999999997 0.10015400000000001 0.42024916236879878 0.073691185970624448 0.90441154937261048
0.53440100000000001 0.71481099999999997 0.103909 -0.43505770998559273 -0.08836913238119784 -0.89605562630022373
0.54365699999999995 0.70465999999999995 0.101022 -0.432808192521691 -0.10848912499061376 -0.89493417536983011
0.59731699999999999 0.10484 0.049680500000000002 0.33026896301653624 -0.048919893847019613 0.94261829817481169
0.53470499999999999 0.70487500000000003 0.105533 -0.42990271277080894 -0.10730704768806736 -0.89647579725766768
0.61461399999999999 0.10502400000000001 0.042768 -0.38609271788594557 0.038899815857770734 -0.92163941838534391
0.55060100000000001 0.69326500000000002 0.0999168 -0.43392890127103334 -0.12185683845511908 -0.89266825840478803
0.59714 0.11477 0.050372500000000001 -0.33383497446997373 0.050820753820948097 -0.94126057008763653
0.55205099999999996 0.67493700000000001 0.101315 -0.44445732085349759 -0.071507441772179631 -0.89294141784941861
0.61477400000000004 0.115118 0.043139299999999998 -0.38185512598985188 0.046548738300061586 -0.92304922822022173
0.55283700000000002 0.66459299999999999 0.10168000000000001 -0.44204440271626594 -0.021281861498880464 -0.89674066953515752
0.55367999999999995 0.65498000000000001 0.101367 -0.4416176865336528 0.025009292129491496 -0.8968547007446892
0.55309299999999995 0.645061 0.100647 -0.44745170508162402 0.037098382887858813 -0.89353829330737311
0.55318500000000004 0.63490899999999995 0.099474999999999994 -0.44469527565116551 0.035505917766183552 -0.89497790007190403
0.55826399999999998 0.62357499999999999 0.096576700000000001 -0.45145786568588142 0.016633596486533127 -0.89213738795001263
0.59823199999999999 0.13466700000000001 0.050672500000000002 0.33989509238502907 -0.046885362739662616 0.93929393106382997
0.553396 0.62510200000000005 0.099061499999999997 -0.44732689143438709 0.020202869231474137 -0.89414232439498353
0.61456100000000002 0.13508300000000001 0.044120199999999998 -0.3708643210097391 0.044599174252084296 -0.9276155286852511
0.553562 0.61501799999999995 0.099581000000000003 -0.44956037833609952 0.0036107857557467296 -0.89324264814020671
0.54456000000000004 0.61496799999999996 0.104139 -0.43397510414035079 0.0040168011716353626 -0.90091590855901704
0.59828000000000003 0.14486199999999999 0.050794600000000002 -0.3466079302057658 0.058720897894643159 -0.93617028305160499
0.55849000000000004 0.60580500000000004 0.097033800000000003 -0.45735766244102255 -0.00052935742894059186 -0.88928268193370119
0.61466299999999996 0.14507700000000001 0.044372500000000002 -0.3443455453911296 0.049453604241587852 -0.93753959190895109
0.553373 0.60496799999999995 0.099603800000000006 -0.44923814343368157 -0.0020287918478786109 -0.89340974613437996
0.55843799999999999 0.59578399999999998 0.096716300000000005 -0.45428783699254305 -0.0014962543378761238 -0.89085370425429156
0.55325800000000003 0.59499400000000002 0.099564200000000005 -0.44424112073224475 0.001974020246556941 -0.89590508978051064
0.55874199999999996 0.57478499999999999 0.096886899999999998 -0.44862900334083106 0.015462889765989404 -0.89358430850227988
0.55335299999999998 0.57507699999999995 0.099382799999999993 -0.43943387988245003 0.017755670166788824 -0.89809943847459595
0.55302499999999999 0.56541399999999997 0.099362300000000001 -0.43452403906140596 0.022504281173732703 -0.90037904063045338
0.55247800000000002 0.55499200000000004 0.098988000000000007 -0.43242873000397142 0.032068404768212586 -0.90109767000185648
0.55238500000000001 0.54523999999999995 0.0985843 -0.43025830489109473 0.036760347144456897 -0.90195702112132869
0.59974000000000005 0.16458999999999999 0.051739500000000001 0.35234707011704475 -0.06608641483417739 0.9335331423973654
0.54312800000000006 0.54519399999999996 0.1033 0.41766125959505435 -0.036912890449815335 0.90785269220954135
0.61489899999999997 0.16497000000000001 0.045529199999999999 -0.37337369309440493 0.049316232842758233 -0.92636925385250335
0.62395400000000001 0.16508600000000001 0.042164500000000001 -0.34051256624565923 0.045691944611325072 -0.93912908507107329
0.55210199999999998 0.53535999999999995 0.0986205 -0.43269608105988938 0.050602248349195578 -0.90011861101602608
0.54344599999999998 0.53513100000000002 0.10284500000000001 0.41541405924516284 -0.048083552081012747 0.90836068353970989
0.60031000000000001 0.17463999999999999 0.052655 0.35622817064420137 -0.050087185266287443 0.93305560622697414
0.54362200000000005 0.52507599999999999 0.102328 -0.40984137773755763 0.06831892625472559 -0.90959472811224107
0.615205 0.17499999999999999 0.045745000000000001 -0.38374632601153813 0.042950321428454792 -0.92243917260805786
0.62398900000000002 0.17505499999999999 0.042042700000000002 -0.33052996356845021 0.033268045803669752 -0.94320898019041555
0.53555200000000003 0.52449400000000002 0.105577 -0.39891034375388756 0.072888435580159602 -0.91408851519140766
0.55047000000000001 0.51547399999999999 0.097904500000000005 -0.41483467429446458 0.07305964404609952 -0.90695891936452266
0.60685 0.184806 0.050072600000000002 0.39054283025920067 -0.041391768177786427 0.91965374965812541
0.61534599999999995 0.184893 0.046485199999999997 -0.39764592743992644 0.039607575471453355 -0.91668367300596876
0.62422299999999997 0.18518399999999999 0.042086600000000002 -0.33730291181833955 0.029441050706513636 -0.94093568866961685
0.54962599999999995 0.50687199999999999 0.097231700000000004 0.40805937548393684 -0.078115337572812124 0.9096073549150453
0.54356400000000005 0.50538799999999995 0.099852499999999997 -0.40212936108416059 0.083393590808213944 -0.91177710322543037
0.53485199999999999 0.505054 0.103835 -0.3870102871814553 0.092422899899139085 -0.9174317659586253
0.54322099999999995 0.49524899999999999 0.098876099999999995 -0.38813336534096554 0.091555534431896055 -0.91704420549065502
0.53413999999999995 0.49530099999999999 0.103551 -0.37819593129433582 0.10718445827602115 -0.91949949943242826
0.60849200000000003 0.20453399999999999 0.0502914 -0.38871305611778167 0.054144773384553514 -0.91976654837991878
0.61575299999999999 0.204961 0.047080900000000002 -0.40595837312273247 0.048276690831117304 -0.91261556003277788
0.62448599999999999 0.20507700000000001 0.042764799999999999 -0.35088340659427897 0.032483931586632597 -0.93585555999067982
0.51037500000000002 0.493029 0.11246299999999999 -0.35427285851365059 0.13105343819378351 -0.92591346143047049
0.54109499999999999 0.47599000000000002 0.098346199999999995 -0.35514297670885875 0.11056026133899433 -0.92825098691411279
0.60900600000000005 0.214591 0.0505578 -0.39423588747945143 0.059606523797544116 -0.91707422128422211
0.61596700000000004 0.21503800000000001 0.047158899999999997 -0.4103158915762537 0.047069332654423091 -0.91072792152401461
0.53344800000000003 0.47569600000000001 0.10072399999999999 -0.35289046234899496 0.12497201032824509 -0.92728114302924869
0.54012300000000002 0.46586100000000003 0.097876900000000003 -0.33691534116656841 0.12602989332251671 -0.93306190516799581
0.533524 0.46562700000000001 0.099355399999999996 -0.3281685535669201 0.14084760064782814 -0.9340596093620287
0.53337400000000001 0.455899 0.098270499999999997 0.31430709513023003 -0.14773300480916041 0.93775583668716955
0.476767 0.453739 0.11386499999999999 -0.17250019742921663 0.20197476486768071 -0.96407980802603999
0.53188400000000002 0.44586599999999998 0.0973247 0.297940023283019 -0.16430508407455799 0.94033801469118883
0.52315699999999998 0.44571 0.099188299999999993 0.300800198361801 -0.16789399678570091 0.93879222755028402
0.51388100000000003 0.44555600000000001 0.102141 -0.31137830733508925 0.16950717963228482 -0.9350459163988919
0.53181400000000001 0.43662699999999999 0.094723000000000002 0.29823205845781653 -0.15228907025512689 0.94226624602011599
0.52268400000000004 0.43600499999999998 0.097497700000000007 0.30289385718687478 -0.1518949919809687 0.94084176283238963
0.60970899999999995 0.23406199999999999 0.051869800000000001 -0.40823006488695351 0.046555516680396335 -0.91169117467978988
0.61600299999999997 0.23486799999999999 0.048325699999999999 -0.39167330283714269 0.063196464958406931 -0.91793149562557497
0.62458000000000002 0.23507400000000001 0.043545399999999998 -0.33565012701532765 0.059238865557036419 -0.94012219899442329
0.513324 0.435861 0.100994 -0.30552405018032935 0.14913492893678743 -0.94043278746140402
0.45360200000000001 0.43118600000000001 0.11303100000000001 -0.068817768586702438 0.14041495189576769 -0.98769821099911714
0.51319300000000001 0.42572900000000002 0.099023 -0.30677988566581571 0.13870908737660473 -0.94161876087406982
0.61022500000000002 0.245063 0.052460699999999999 -0.37670966097056979 0.085930165741560038 -0.92233716066689309
0.61623300000000003 0.24480299999999999 0.0491049 -0.38283148250235854 0.090175205708612829 -0.91940659573469197
0.62504199999999999 0.24499199999999999 0.044812299999999999 -0.33802574341823821 0.092545413724816533 -0.93657564733717591
0.50380499999999995 0.425452 0.101942 -0.28838391081085774 0.14260076883832742 -0.94683670224181371
0.52078100000000005 0.407086 0.094520800000000002 -0.29205209623031736 0.11066258414408829 -0.94997861321086075
0.50335700000000005 0.40598200000000001 0.100131 -0.28573134280119888 0.12276120749042416 -0.95041427055601235
0.61014599999999997 0.25567200000000001 0.052350800000000003 0.37483918482306561 -0.12065807890504365 0.91920466356308472
0.51282099999999997 0.39596100000000001 0.096046400000000004 0.28395903132185019 -0.11422500213090275 0.95200835995223898
0.503363 0.39572000000000002 0.098541699999999996 -0.27529764359685754 0.11889881434857287 -0.95397813359453965
0.493782 0.39563799999999999 0.101502 -0.25917850397005543 0.12691406485299153 -0.95745460635078383
0.42263099999999998 0.39292300000000002 0.109014 0.16437626305470454 0.084937983833373754 -0.98273393298821843
0.510243 0.37645899999999999 0.094520000000000007 0.26904882467533198 -0.12348670752199939 0.95517734636359497
0.610684 0.26487699999999997 0.052872799999999998 -0.37412343531388276 0.13825549774345722 -0.91701530657489438
0.49343199999999998 0.37615500000000002 0.098945199999999997 -0.24999030195830091 0.14490540423252857 -0.9573438633798228
0.48387799999999997 0.375975 0.100859 0.23235671981617051 -0.14462178942198589 0.96181853422600061
0.42515199999999997 0.37523800000000002 0.109293 0.13795750595955347 0.1056827443150993 -0.98478367375959752
0.445162 0.78502899999999998 0.12645400000000001 -0.22523625195891595 -0.10850282343625929 -0.96824365121071654
0.50956100000000004 0.36743900000000002 0.093412599999999998 -0.25740733775406022 0.13874131057148281 -0.95629091348358763
0.61167099999999996 0.271953 0.055322900000000001 0.3659798761396304 -0.1662980496784387 0.91564386577641022
0.49326199999999998 0.36623 0.097789600000000004 -0.24571131999066467 0.15188519246889082 -0.95736974860141288
0.47387600000000002 0.36572399999999999 0.10165299999999999 -0.21699591378578884 0.15998760310348678 -0.96297286579294183
0.45511800000000002 0.78492399999999996 0.12378599999999999 0.25229404800166494 0.10666918236310001 0.96175329418563549
0.41589100000000001 0.35563600000000001 0.103431 0.21508412948335021 0.12772614349312261 -0.96820702822937821
0.40595100000000001 0.35836299999999999 0.101262 0.31789302790674906 0.084600528499173488 -0.94434462638696637
0.490842 0.349109 0.094546000000000005 -0.22611740721610515 0.15750441616100799 -0.96128210065705799
0.47377799999999998 0.34635500000000002 0.098724999999999993 0.20184612414704142 -0.17539308339962212 0.96358466595436754
0.62750799999999995 0.283995 0.051647199999999997 -0.36892854486561766 0.11695771904763315 -0.92206974830460253
0.46403499999999998 0.345914 0.100398 0.18155937303920455 -0.18386029388141126 0.96603912260086655
0.41841600000000001 0.34718700000000002 0.10195700000000001 0.15106094362158565 0.1590847671792022 -0.97563959952622625
0.42652600000000002 0.79605700000000001 0.12909200000000001 -0.17583021397479132 -0.10341850920649828 -0.978973108827349
0.48131400000000002 0.33697899999999997 0.095350500000000005 0.20490158825685093 -0.16600691940928028 0.96460201214701013
0.61968400000000001 0.29485299999999998 0.055756100000000003 -0.36626909560393156 0.039725532539282619 -0.9296606002568617
0.46400000000000002 0.335976 0.098260600000000003 0.16709189467048946 -0.18689606624425173 0.96806516266099074
0.4541 0.33583800000000003 0.099319099999999993 0.1343827931175258 -0.1953946873170018 0.97147423078650064
0.44458199999999998 0.33582800000000002 0.100729 -0.070105496350009677 0.18426025615929079 -0.98037410072973241
0.43508200000000002 0.33571299999999998 0.101159 -0.0076767699262487929 -0.1777670041095073 0.98404266139910324
0.41877300000000001 0.33810200000000001 0.099909700000000004 0.13742941886933502 0.14359304231832185 -0.98004805648856097
0.61973100000000003 0.304817 0.055425599999999998 -0.37501183600328197 0.00060732632733022417 -0.92701982395857108
0.62793600000000005 0.30482799999999999 0.0516883 -0.46446527212381028 -0.041948428183261818 -0.88459727580628955
0.46339900000000001 0.326241 0.097045500000000007 0.15504082111334308 -0.16711322370110343 0.97367115303511242
0.45408799999999999 0.32616400000000001 0.098394200000000001 0.13332313828198883 -0.16736876716113452 0.97683808104393821
0.44488800000000001 0.32558300000000001 0.099740400000000007 0.091315400671206873 -0.1552452145011361 0.98364649187335251
0.43518499999999999 0.32553399999999999 0.099903099999999995 0.016144150432726292 -0.13769357542653637 0.99034329688904454
0.61908700000000005 0.315056 0.055559400000000002 -0.37912721619375295 -0.0039569266518409514 -0.92533609930265193
0.62809800000000005 0.31485099999999999 0.051205100000000003 -0.40657641272490608 0.016519391262351118 -0.91346742160192451
0.43493799999999999 0.31609999999999999 0.099090399999999995 0.038161249267973596 -0.14743809180447287 0.98833482592660038
0.42571399999999998 0.315027 0.098677799999999996 -0.016263358517955739 -0.1325881506881692 0.9910377820581856
0.41913899999999998 0.31062800000000002 0.097966499999999998 0.04483776698791659 0.13736843932095444 -0.98950466726037367
0.46068700000000001 0.31084600000000001 0.094344499999999998 0.14718580963701267 -0.19083194420013522 0.97052537654318638
0.453679 0.30869999999999997 0.095724100000000006 0.13282990260783917 -0.19437378153609508 0.97189250950120543
0.43513499999999999 0.30642999999999998 0.097310499999999994 -0.058407796324416554 0.18322798959164896 -0.98133380312650376
0.41612199999999999 0.29647899999999999 0.095696299999999998 0.057916023229772573 0.17620629005555249 -0.98264799272074399
0.61982800000000005 0.33360899999999999 0.0553757 -0.3699913036748696 0.019936525491613271 -0.92882127998678654
0.62832699999999997 0.33446999999999999 0.052326600000000001 -0.35781991705435962 0.025521415777642154 -0.93344178409578193
0.43501200000000001 0.79491500000000004 0.127475 -0.21088540588705276 -0.11564259926257243 -0.97064624597205806
0.64405900000000005 0.334812 0.046940700000000002 -0.71593143713439178 0.011468587169480172 -0.69807639183045023
0.51507999999999998 0.89198699999999997 0.093012399999999995 0.27230446812041409 0.1328508156613491 0.95299576988556089
0.61973199999999995 0.34538799999999997 0.055670999999999998 -0.36896583854189635 0.036754951582317383 -0.92871593263131669
0.62765400000000005 0.34483200000000003 0.052088099999999998 -0.36200986245883632 0.027653920393100391 -0.93176398308231811
0.50513399999999997 0.89123300000000005 0.095901600000000004 0.25153283089427297 0.12892976449874571 0.95922278476306599
0.64368300000000001 0.34448299999999998 0.047533100000000002 -0.71906347394192238 -0.0076991700135128479 -0.69490175077033567
0.49474499999999999 0.89111200000000002 0.098651600000000006 0.23464151686419177 0.1153902696324593 0.96520901582912033
0.444915 0.79511399999999999 0.12502199999999999 -0.22920705014613418 -0.11601682334090586 -0.9664389400604636
0.62720299999999995 0.35494399999999998 0.053133600000000003 -0.37742851650683823 0.014879678503793951 -0.92591917038965721
0.530088 0.88055899999999998 0.090169799999999994 -0.31063187223808852 -0.14994788959499228 -0.93862850497727179
0.64439400000000002 0.35538700000000001 0.047017700000000003 -0.71578356318851588 -0.026770434039265809 -0.69780888109173655
0.53113900000000003 0.87520100000000001 0.090627399999999997 -0.31979776553836542 -0.15831895189724021 -0.93416513455963879
0.62094899999999997 0.36536200000000002 0.056664100000000002 -0.40928978342242561 0.027239620572218404 -0.91199773917324234
0.51479299999999995 0.87304899999999996 0.095818899999999999 -0.26783670165492068 -0.14972609487753774 -0.95175921206959468
