# .PCD v0.7 - Point Cloud Data file format
VERSION 0.7
FIELDS x y z
SIZE 4 4 4
TYPE F F F
COUNT 1 1 1
WIDTH 362
HEIGHT 1
VIEWPOINT 0 0 0 1 0 0 0
POINTS 362
DATA ascii
-0.031952206 0.016702237 0.27887934
-0.028626133 0.01696039 0.27929634
-0.033677287 0.014601489 0.28359342
-0.025484929 0.016681716 0.28317857
-0.017887117 0.018350489 0.28550583
-0.032285891 0.020757169 0.28319231
-0.024844378 0.021182686 0.28473783
-0.01862298 0.020764634 0.28677499
-0.044089954 0.035923623 0.28820768
-0.043346778 0.040724408 0.28956252
-0.032333147 0.0093943328 0.29747221
-0.026339004 0.0092692589 0.29631427
-0.03510157 0.01248486 0.29325861
-0.023953188 0.012952722 0.29457539
-0.014626639 0.018019667 0.29541072
-0.045085162 0.029174887 0.29622373
-0.035247575 0.021671725 0.29550001
-0.023920184 0.023293341 0.29445997
-0.015346481 0.022855949 0.29652685
-0.050812986 0.033207309 0.29711363
-0.044137336 0.03322763 0.29277489
-0.039040148 0.034552213 0.29702911
-0.042299144 0.042609204 0.29445532
-0.038868587 0.04518462 0.29885229
-0.014216921 -0.042882115 0.30843931
-0.0066252444 -0.043302093 0.30943999
-0.021825114 -0.032617141 0.30908695
-0.014805919 -0.03471962 0.30746761
-0.0050189388 -0.034688845 0.30750006
0.0012794436 -0.032025848 0.30914775
-0.022037871 -0.028971149 0.30955887
-0.013842584 -0.026877794 0.30840224
-0.0057114316 -0.025885558 0.30782056
0.0018590442 -0.027262712 0.30914101
-0.032858875 0.0083542541 0.30488464
-0.026072284 0.0080748061 0.30413464
-0.038494833 0.01325786 0.30375001
-0.020628408 0.013083077 0.30235416
-0.016091075 0.014911737 0.30465505
-0.0093212901 0.019414162 0.30741668
-0.050609104 0.029024882 0.30428573
-0.045112897 0.028464681 0.30457693
-0.039683074 0.029880468 0.30912501
-0.0223107 0.025591275 0.30464998
-0.013053614 0.025462892 0.30321273
-0.008545992 0.023305723 0.30652082
-0.052203063 0.032858219 0.30418184
-0.040484589 0.030229757 0.30250001
-0.034816075 0.035388764 0.30410507
-0.026184069 0.037416242 0.30808163
-0.041946117 0.043861832 0.30172729
-0.035173703 0.042746305 0.30257085
-0.027298711 0.041002017 0.30722001
-0.02188899 -0.051836058 0.31589001
-0.014934976 -0.052626159 0.31549132
-0.0053384081 -0.052679423 0.31568766
0.001255372 -0.051348478 0.31852502
-0.023938429 -0.045025006 0.3155162
-0.015791731 -0.046673935 0.31118244
-0.0040785978 -0.045755897 0.31131846
0.0039522392 -0.044067688 0.31422129
-0.030090654 -0.031854514 0.31850004
-0.025376823 -0.035455961 0.31238374
-0.019193914 -0.038916621 0.31022727
-0.0014072132 -0.039081421 0.31024998
0.0052532852 -0.035337828 0.31324577
0.010513596 -0.031572409 0.31864288
-0.024189636 -0.025151037 0.31469798
-0.016235637 -0.022763548 0.31154299
-0.0026518248 -0.022436151 0.31145
0.0053725364 -0.024675362 0.31415966
0.010588281 -0.028815478 0.31789285
-0.021225549 -0.018663501 0.31843054
-0.014869585 -0.017539561 0.3162871
-0.0051740063 -0.017268492 0.315516
0.0026980112 -0.018661791 0.31747305
-0.033132654 0.0077145682 0.31432146
-0.02382735 0.0083924932 0.31399998
-0.041207999 0.015207004 0.31300002
-0.013734251 0.014357331 0.31427675
-0.0092165656 0.018859575 0.31460002
-0.051650912 0.028130572 0.31515628
-0.0444277 0.028151955 0.3143661
-0.038908236 0.029649202 0.31659377
-0.022270331 0.027737299 0.3154
-0.014737307 0.0291603 0.31335872
-0.004500858 0.025844617 0.31649432
0.0040403935 0.026294947 0.31929025
-0.054130573 0.035284705 0.31516668
-0.033790477 0.031112229 0.31405407
-0.024585597 0.034141157 0.31384328
-0.016630013 0.03511855 0.31678215
-0.0013600563 0.031608101 0.31905001
0.00339958 0.032549571 0.319352
-0.04204198 0.049010105 0.31156251
-0.033137407 0.045893751 0.31350002
-0.024457399 0.041874837 0.31390625
-0.018930893 0.04049914 0.31825
-0.013030726 -0.071242191 0.32965627
-0.013677045 -0.060973495 0.3280476
-0.0076512345 -0.061007079 0.32712504
-0.03124739 -0.053738914 0.32835937
-0.025389396 -0.055389337 0.32714731
-0.014918101 -0.057951253 0.32435328
-0.004673562 -0.057352629 0.32275012
0.0043976554 -0.053310368 0.3257958
-0.032286521 -0.043707211 0.32560819
-0.028867681 -0.044846788 0.32143241
0.0079401657 -0.046778094 0.32452026
0.012164778 -0.043025613 0.32877147
-0.032189395 -0.036049288 0.32656673
-0.029417733 -0.038234372 0.32180002
0.0096830754 -0.037698437 0.32082143
0.0115579 -0.035031348 0.32462502
-0.03113677 -0.026004534 0.3270379
-0.028086118 -0.022937916 0.32292312
0.0092051243 -0.022336291 0.3218056
0.012011915 -0.025280969 0.32486886
-0.030769296 -0.016238293 0.32800958
-0.025180604 -0.014708248 0.32465234
-0.015094826 -0.012656411 0.32298324
-0.0045452584 -0.012512912 0.32378146
0.0045478647 -0.015386199 0.32599103
0.010625165 -0.019918436 0.32825002
-0.023049518 -0.0078570889 0.32835177
-0.014830906 -0.0051960433 0.32759568
-0.0059857084 -0.0058487658 0.32770732
0.0008172933 -0.0096707568 0.32941666
-0.03435614 0.0076838941 0.32768753
-0.024556035 0.0080973245 0.32477272
-0.013865247 0.0033373914 0.32880786
-0.0070818779 0.0049067 0.32928669
-0.041749388 0.013140156 0.3251875
-0.039586656 0.010460601 0.32500002
-0.014530564 0.013156472 0.32594049
-0.0048682694 0.015333061 0.32733589
0.0022112185 0.016920812 0.32751271
-0.051863283 0.02785114 0.32495001
-0.04476146 0.027916951 0.32428128
-0.03770278 0.029430572 0.32496431
-0.024546891 0.028982334 0.32510939
-0.0029647325 0.022323482 0.32124996
0.0064307977 0.023160253 0.32182181
0.01271223 0.026792616 0.32479462
-0.055504099 0.03116785 0.32250002
-0.032591213 0.030628478 0.32423535
-0.02450021 0.031081533 0.32310233
-0.013220974 0.034583163 0.32193515
-0.0050525018 0.035209481 0.32252789
0.0060456102 0.036212366 0.32351881
0.012541007 0.032827288 0.32606483
-0.032599121 0.0467011 0.32266667
-0.025661476 0.043910142 0.32418752
-0.018467026 0.041017856 0.32233334
-0.0035884283 0.041045338 0.32788751
0.003331095 0.041200839 0.32712501
-0.02087475 -0.073369272 0.33755767
-0.014936335 -0.073214397 0.33286637
-0.0084432121 -0.07312949 0.33542687
-0.023485465 -0.061579347 0.33510002
-0.014798333 -0.066507533 0.33427891
-0.0052878265 -0.06343475 0.33476672
0.0017517435 -0.060940988 0.33692861
-0.033390235 -0.052816547 0.33299464
-0.027488984 -0.057139125 0.33144441
-0.0012272107 -0.059349991 0.33012503
0.0063345702 -0.05595845 0.3329756
0.011306276 -0.052226119 0.33466074
-0.036527973 -0.045450427 0.33450001
0.0096773487 -0.049044859 0.33020002
0.013644529 -0.044802126 0.3333793
-0.041380886 -0.0340726 0.33516252
-0.036527805 -0.034920081 0.33282974
0.015618582 -0.035637435 0.33628768
-0.042043645 -0.024900058 0.33553529
-0.036095425 -0.024931241 0.33477086
0.014732581 -0.024706854 0.33394313
-0.041510653 -0.019505255 0.33908334
-0.033173133 -0.015077908 0.33477378
-0.029823823 -0.010681932 0.33100003
0.0074328864 -0.012713796 0.33371702
0.011249258 -0.017432705 0.33513638
-0.030988218 -0.0061018756 0.33661613
-0.025663106 -0.004079279 0.33225805
-0.0017763133 -0.0035795886 0.33145908
0.0040087658 -0.0052326489 0.33488974
-0.033559296 0.0071413256 0.33562502
-0.024173371 0.0040184408 0.33412221
-0.016571799 0.0071592331 0.3313531
-0.0032206434 0.0048445128 0.33252856
0.0030934333 0.005258284 0.33645153
-0.012714279 0.012227212 0.33113894
-0.0031434572 0.012049882 0.33032691
0.0060986723 0.014399964 0.33301359
0.010796099 0.015933219 0.33739653
-0.053378657 0.028228084 0.33356249
-0.044666115 0.028090505 0.3346591
-0.03599105 0.029495912 0.33458337
-0.028604183 0.029433623 0.3324286
0.0089250347 0.020648791 0.33175004
0.01613838 0.025550261 0.33442631
0.020795908 0.027800804 0.33717504
-0.057944153 0.035293911 0.33383337
-0.032364368 0.030306729 0.33343184
-0.028651159 0.030455971 0.33000001
-0.012073521 0.039906375 0.33062503
0.008900675 0.039575428 0.33087501
0.015630204 0.034484867 0.33318409
0.020595986 0.030523242 0.33875
-0.015772535 0.041319113 0.33229169
-0.0043474413 0.042819813 0.33465791
0.005037732 0.042433236 0.33372369
0.010141198 0.040555138 0.33600003
-0.022616649 -0.073286347 0.34477636
-0.0065683979 -0.074207358 0.3450349
-0.031414852 -0.061098777 0.34530002
-0.023477511 -0.065948926 0.34483066
-0.015654061 -0.067940146 0.34183168
-0.0054956246 -0.06721279 0.34411806
0.0032716026 -0.062864371 0.34510294
-0.04063385 -0.050195042 0.34925002
-0.037111465 -0.054485608 0.34404415
0.0082303621 -0.058640201 0.34378573
0.012881781 -0.053481538 0.34437498
-0.041179609 -0.044126507 0.34572372
-0.039315581 -0.046567727 0.34220836
0.017600916 -0.044140697 0.3439
-0.044426695 -0.034584019 0.34464476
0.018914878 -0.03342396 0.34293756
0.020307932 -0.034275662 0.34647498
-0.045737036 -0.024995951 0.34407893
0.017369444 -0.026017189 0.34521005
-0.04268888 -0.018252136 0.34423748
-0.036834553 -0.016931193 0.34427273
0.0095463451 -0.010631507 0.34100002
0.011981171 -0.014131867 0.34414285
-0.032800566 -0.0050068563 0.34405559
0.0088509768 -0.0044130115 0.34361112
0.010581988 -0.0053420775 0.34849998
-0.040330857 0.0098389778 0.34025002
-0.030995315 0.003310354 0.34582144
-0.029053051 0.0046605631 0.34215629
0.0074343085 0.0043582967 0.34389493
0.010495837 0.0016992397 0.34775001
-0.045355286 0.014602743 0.34737504
0.009546346 0.010605856 0.34100002
0.014980873 0.016603552 0.3445912
0.02088855 0.018714732 0.34695455
-0.05352648 0.028219191 0.34375
-0.046487883 0.02817966 0.34175003
-0.03307968 0.029590985 0.34224999
0.016455725 0.022289861 0.34349135
0.021776132 0.024209078 0.34450608
-0.060598865 0.037925575 0.34549999
-0.05878837 0.031724971 0.34375003
-0.033986691 0.030229898 0.34383336
0.016729442 0.037095271 0.34303129
0.021142201 0.031866141 0.34525004
-0.059973169 0.041792311 0.34625003
-0.010581485 0.041873105 0.34075001
-0.0056931414 0.044557381 0.34520832
0.0063814647 0.044109683 0.34242859
0.012156448 0.040828429 0.34450004
-0.0026528335 -0.06869176 0.35245833
0.0045953128 -0.065115161 0.35548684
0.014103672 -0.054809231 0.35446155
-0.043403875 -0.045870665 0.35468754
0.018431347 -0.047127943 0.35412502
0.020695198 -0.042895976 0.35575002
-0.047370631 -0.034410179 0.35520834
0.021301759 -0.034703232 0.35373333
-0.048110843 -0.025423519 0.35510421
0.018423991 -0.024876449 0.35395002
0.020588284 -0.027453389 0.35696432
-0.043156158 -0.017237561 0.35427502
-0.037557803 -0.014355868 0.35463461
0.013952586 -0.015134408 0.35510421
-0.034666397 -0.0051678163 0.35425001
0.011977475 -0.0045227986 0.35471669
-0.032863747 0.0033473847 0.35539588
0.0095812483 0.006741079 0.35324997
0.011611865 0.004575944 0.35558063
-0.047630996 0.01923199 0.35587502
0.015619553 0.01358195 0.35430682
0.02175246 0.017665746 0.35566667
-0.055533189 0.028813127 0.35412502
-0.047747534 0.023306541 0.35291669
0.024070546 0.024937315 0.35497501
0.018756175 0.03774035 0.35549998
0.022077298 0.032996718 0.35466668
-0.0039939326 0.046233758 0.35125002
0.0052205017 0.046200853 0.35100001
0.013830652 0.041651882 0.35481253
0.019709095 -0.048654869 0.36337501
0.02153476 -0.044855136 0.36438888
0.022750776 -0.035144653 0.36497501
-0.05066995 -0.026722252 0.36660004
-0.049573559 -0.024754882 0.36250004
0.018132104 -0.022699291 0.36364999
0.02172252 -0.027257752 0.36475
-0.045193899 -0.017257776 0.36513335
-0.038707744 -0.013564467 0.36396432
0.014648628 -0.014948552 0.36457142
-0.036358505 -0.0050009307 0.3651042
0.013589478 -0.0051527945 0.3647885
-0.034689426 0.0029077001 0.36502087
0.013481447 0.0050343727 0.36389777
-0.048716486 0.017019827 0.36700001
0.017247565 0.013711633 0.3641786
0.02262244 0.017555317 0.3655625
-0.048350394 0.022287866 0.36125001
0.024854425 0.024058614 0.36425
-0.062856957 0.035644971 0.36062503
0.019702317 0.03828752 0.36325002
0.022731023 0.034221958 0.36418754
-0.063139796 0.043330152 0.36225003
0.016467759 0.041320089 0.36200002
0.02404983 -0.034831338 0.37584087
0.018181719 -0.022008827 0.37287503
0.022216296 -0.026673442 0.37425002
-0.039274413 -0.011206592 0.37258336
0.015473177 -0.014790326 0.37411112
-0.038080346 -0.0054470222 0.37484375
0.014742469 -0.005199831 0.37560719
-0.03693673 0.002853083 0.37571874
0.014883978 0.0045492831 0.37519443
-0.050726086 0.01758536 0.37900001
-0.048639346 0.015152912 0.37358335
0.018661985 0.014093558 0.37425002
0.021879988 0.016504398 0.37333333
-0.050826471 0.025088994 0.37975001
-0.049722273 0.023732098 0.37150002
0.025823569 0.02369157 0.37525001
-0.06441462 0.035547152 0.37187502
0.024191482 0.034339782 0.37431252
-0.065927789 0.046072919 0.37825
0.016702987 -0.016097691 0.38569444
0.015375895 -0.0055361507 0.38264284
0.015575133 0.0062190192 0.38285005
-0.051389828 0.016269561 0.38712502
0.019123238 0.014022863 0.38350001
0.025173433 0.018765831 0.38625002
-0.05258742 0.022841381 0.38866666
0.027084544 0.025974942 0.38428575
-0.066757634 0.036603667 0.38300002
0.026232749 0.032834891 0.38312501
-0.068854518 0.04444075 0.38933337
0.016947133 0.0040381635 0.39575002
0.021288807 0.014780819 0.39250001
-0.053588592 0.024312884 0.39395005
0.027541794 0.023351733 0.396
-0.069039732 0.03761512 0.39362502
0.027326351 0.033687036 0.39291668
-0.070392355 0.044529144 0.39762503
-0.069612019 0.043462723 0.39200002
-0.068460345 0.050297834 0.39525002
0.027196975 0.019616064 0.40375003
0.028622124 0.024106368 0.40518752
0.027848696 0.03585678 0.40458333
0.028924532 0.037161116 0.41583335
0.03064524 0.03237883 0.41456252
0.026628157 0.040614091 0.41550002
