# .PCD v0.7 - Point Cloud Data file format
VERSION 0.7
FIELDS x y z rgb
SIZE 4 4 4 4
TYPE F F F U
COUNT 1 1 1 1
WIDTH 1187
HEIGHT 1
VIEWPOINT 0 0 0 1 0 0 0
POINTS 1187
DATA ascii
0.3399854 -0.2694217 1.2357501 2500904
0.3428266 -0.26953071 1.23625 1645848
0.34573993 -0.26969424 1.2370001 1184527
0.34879729 -0.26996675 1.23825 1184017
0.45774731 -0.26408014 1.2112501 2039834
0.55007917 -0.27040282 1.2402501 1976613
0.55595183 -0.27062082 1.24125 1581087
0.55900407 -0.27078435 1.2420001 1316630
0.63308442 -0.27705249 1.27075 398362
0.89924574 -0.31040999 1.42375 4794661
0.90396029 -0.30882934 1.4165001 11048298
0.9129315 -0.30872029 1.416 11703148
0.92573452 -0.3027792 1.3887501 11439724
0.90732396 -0.29291365 1.3435 10979183
0.89772785 -0.28888023 1.325 10519402
0.88176346 -0.28283009 1.29725 10519402
0.88477093 -0.2828846 1.2975 10519654
0.88777965 -0.28293914 1.2977501 10322790
0.89113247 -0.28310263 1.2985001 10323560
-1.1696841 -0.41494763 1.9225001 5265233
-1.160671 -0.4147318 1.9215001 5200975
-1.1549641 -0.4141922 1.9190001 3095860
-1.149418 -0.41370657 1.9167501 6582889
-1.144778 -0.41354468 1.9160001 6714222
-1.1404389 -0.41349074 1.9157501 5989988
-1.1361009 -0.41343677 1.9155 5662301
-1.1320595 -0.41349074 1.9157501 5860963
-1.1280168 -0.41354468 1.9160001 660753
-1.1238266 -0.41354468 1.9160001 462091
-1.1197824 -0.41359866 1.9162501 725263
-1.1158828 -0.41370657 1.9167501 923155
-1.1119808 -0.41381449 1.91725 1120534
-1.1083657 -0.41403031 1.9182501 989971
-1.1097827 -0.41613474 1.9280001 1796
-1.112734 -0.41883272 1.9405001 659985
-1.0896238 -0.42304152 1.96 6186084
-1.0803536 -0.42109901 1.9510001 6845548
-1.075949 -0.42104504 1.9507501 6518127
-1.0712706 -0.42088315 1.95 6716021
-1.0582511 -0.41742977 1.9340001 7109496
-1.0529314 -0.41699809 1.932 6449767
-1.0485705 -0.41694412 1.9317501 9739157
-1.0443457 -0.41694412 1.9317501 7306361
-1.0401211 -0.41694412 1.9317501 7306873
-1.0401863 -0.41867083 1.9397501 7437945
-1.0402166 -0.42039752 1.9477501 8291460
-1.0408767 -0.42239404 1.9570001 12830140
-1.0368617 -0.42250195 1.9575001 13159101
-1.0290875 -0.42282569 1.9590001 8617606
-0.69112879 -0.3723197 1.725 657932
-0.68338561 -0.37221178 1.7245001 723723
-0.67358923 -0.37097076 1.7187501 461073
-0.64300346 -0.38413683 1.7797501 263942
-0.63372463 -0.38089928 1.7647501 263942
-0.6299544 -0.38095322 1.7650001 789769
-0.62609434 -0.38095322 1.7650001 856330
-0.62232244 -0.38100719 1.7652501 527114
-0.62240338 -0.38343537 1.7765001 328967
-0.6238277 -0.38672689 1.7917501 1382173
-0.70254046 -0.441064 2.0435002 9212295
-0.70234138 -0.44376191 2.056 9543563
-0.6979298 -0.44381589 2.0562501 9477516
-0.69343281 -0.44381589 2.0562501 9475463
-0.68893582 -0.44381589 2.0562501 9407614
-0.68427247 -0.44370797 2.0557501 9868676
-0.67952853 -0.44354609 2.0550001 9213315
-0.67454153 -0.44322237 2.0535002 9473153
-0.66915315 -0.44262877 2.05075 9206383
-0.66434413 -0.44241294 2.0497501 10588038
-0.65970039 -0.44230503 2.0492501 10461335
-0.65513879 -0.44225106 2.049 10265753
-0.65073705 -0.44230503 2.0492501 10265749
-0.64633417 -0.44235897 2.0495 10331542
-0.64193028 -0.44241294 2.0497501 10462358
-0.63744748 -0.44241294 2.0497501 10395795
-0.63296467 -0.44241294 2.0497501 10461588
-0.62832862 -0.44230503 2.0492501 10330774
-0.62369472 -0.44219714 2.0487502 9936534
-0.61891186 -0.44198126 2.04775 9870741
-0.61405849 -0.44171152 2.0465002 9739670
-0.26262388 -0.24405828 1.1307501 4079417
-0.25692996 -0.24103653 1.11675 4276798
-0.25072759 -0.23747522 1.10025 4407357
-0.24645936 -0.23569456 1.092 4539711
-0.24245076 -0.23412976 1.0847501 5592653
-0.23985709 -0.2339139 1.08375 5986387
-0.20429125 -0.23121595 1.0712501 3225399
-0.20011701 -0.23456141 1.08675 3289903
0.33739719 -0.41726789 1.9332501 8815207
0.33959302 -0.41478574 1.9217501 7038812
0.3420516 -0.41268134 1.9120001 1184026
0.34492028 -0.41111651 1.9047501 2041388
0.34871942 -0.41068485 1.9027501 1450532
0.35260251 -0.41036108 1.9012501 1647652
0.35633829 -0.40987545 1.899 1185048
0.35930493 -0.40852648 1.8927501 1382427
0.36234027 -0.40728539 1.8870001 1119255
0.36510766 -0.40577453 1.8800001 1053462
0.36912099 -0.40566659 1.8795 987669
0.37308249 -0.40550473 1.8787501 791058
0.37417981 -0.40226719 1.8637501 725263
0.37820506 -0.40221322 1.8635001 1118483
0.38228053 -0.40221322 1.8635001 657934
0.38645962 -0.40232113 1.8640001 1186077
0.39069334 -0.40248302 1.8647501 792091
0.39530075 -0.40302262 1.8672501 989468
0.3997587 -0.40340033 1.8690001 989722
0.40411627 -0.40367013 1.8702501 1251611
0.40842476 -0.40388593 1.87125 1054232
0.41279271 -0.40415576 1.8725001 1053460
0.4171105 -0.40437159 1.8735001 1184278
0.42143261 -0.40458742 1.8745 1052438
0.42570242 -0.4047493 1.8752501 1053208
0.31483209 -0.26601973 1.2325001 1251860
0.31726992 -0.2658039 1.2315 1054479
0.31976834 -0.26564202 1.2307501 1909790
0.32232893 -0.2655341 1.23025 2040353
0.32501948 -0.2655341 1.23025 1184274
0.33616748 -0.27238697 1.2620001 460294
0.33892751 -0.27238697 1.2620001 1513492
0.3378287 -0.26715288 1.2377501 1778204
0.34019172 -0.26688308 1.2365 593677
0.34310395 -0.26704499 1.2372501 331790
0.35157633 -0.26731479 1.2385001 2039834
0.38873109 -0.27055234 1.2535001 1316630
0.39131629 -0.27044439 1.253 1381398
0.39397797 -0.27039045 1.25275 1775384
0.39671773 -0.27039045 1.25275 1644568
0.39945748 -0.27039045 1.25275 1054230
0.40219721 -0.27039045 1.25275 1843997
0.45519224 -0.26148716 1.2115 1251858
0.89066619 -0.30648929 1.4200001 2693907
0.89471591 -0.30681303 1.4215001 7754564
0.89744759 -0.30562592 1.416 10389603
0.90070337 -0.30567989 1.4162501 10718566
0.90421742 -0.28992373 1.34325 10650724
0.89483011 -0.28598469 1.325 10387046
0.88129771 -0.28075063 1.30075 10518632
0.88125372 -0.27983335 1.2965001 10190691
0.88425952 -0.27988732 1.2967501 10190943
0.88743758 -0.2799952 1.29725 10256482
0.89044619 -0.28004918 1.2975 10191204
-1.1821693 -0.4063665 1.9020001 4609611
-1.1770806 -0.406046 1.9005001 4806990
-1.1690756 -0.41053271 1.9215001 5396819
-1.1645702 -0.4104259 1.9210001 6121823
-1.160067 -0.41031906 1.9205 5728344
-1.1551147 -0.410052 1.9192501 4413517
-1.1498678 -0.4096781 1.9175001 3161916
-1.1450768 -0.40946445 1.9165001 7766648
-1.1405877 -0.40935764 1.9160001 5924195
-1.1362493 -0.40930423 1.9157501 6187367
-1.1322072 -0.40935764 1.9160001 6253924
-1.1281641 -0.40941104 1.9162501 5003093
-1.1241199 -0.40946445 1.9165001 1713443
-1.1200746 -0.40951785 1.9167501 265227
-1.1161739 -0.40962467 1.91725 529169
-1.1122708 -0.40973151 1.9177501 727061
-1.1082212 -0.40978494 1.9180001 857362
-1.1043143 -0.40989175 1.9185001 791569
-1.1124471 -0.41448528 1.9400001 1542
-1.0854757 -0.41881174 1.9602501 6975598
-1.0760869 -0.41683546 1.9510001 6846061
-1.071408 -0.41667521 1.9502501 6912117
-1.0593455 -0.41363066 1.9360001 7174264
-1.0534765 -0.41298971 1.9330001 7436151
-1.0489776 -0.41288289 1.9325001 7172207
-1.0447513 -0.41288289 1.9325001 9543059
-1.040525 -0.41288289 1.9325001 7043954
-1.0365667 -0.41298971 1.9330001 7174775
-1.0368787 -0.41480574 1.9415001 7240057
-1.0391482 -0.41742301 1.9537501 9211792
-1.0372589 -0.4183844 1.95825 13685190
-1.0333719 -0.41854468 1.9590001 13094080
-1.0294815 -0.4187049 1.9597501 10790305
-1.0254573 -0.41881174 1.9602501 9210763
-0.67862892 -0.3679091 1.7220001 725263
-0.67319733 -0.36700106 1.7177501 67333
-0.66914839 -0.36684084 1.7170001 262147
-0.66519952 -0.366734 1.7165 6578524
-0.66134924 -0.36668059 1.7162501 7962744
-0.64860338 -0.38355911 1.7952501 460294
-0.63417345 -0.37730977 1.766 263172
-0.63031125 -0.37730977 1.766 592390
-0.62644905 -0.37730977 1.766 789769
-0.62258685 -0.37730977 1.766 658700
-0.62222821 -0.37944633 1.7760001 394758
-0.62391478 -0.38286474 1.7920001 2960428
-0.62587732 -0.38649684 1.8090001 2038047
-0.69798595 -0.43654487 2.0432501 11713447
-0.69801468 -0.43937579 2.0565002 9673866
-0.69351715 -0.43937579 2.0565002 9276541
-0.68893582 -0.43932235 2.0562501 10001289
-0.68435562 -0.43926892 2.056 10199440
-0.67961121 -0.4391087 2.0552502 9474688
-0.67470574 -0.43884164 2.0540001 9472122
-0.66956109 -0.43841431 2.052 10591118
-0.66458726 -0.43809384 2.0505002 10330002
-0.65986139 -0.43793359 2.0497501 10134165
-0.65529865 -0.43788016 2.0495 10199958
-0.65081638 -0.43788016 2.0495 10396819
-0.64641303 -0.43793359 2.0497501 10266003
-0.6420086 -0.43798703 2.0500002 10199956
-0.63752526 -0.43798703 2.0500002 10134165
-0.63304192 -0.43798703 2.0500002 10068374
-0.62848192 -0.43793359 2.0497501 9870743
-0.62377083 -0.43777335 2.049 9673624
-0.26515543 -0.24164064 1.131 3883842
-0.26262388 -0.24158724 1.1307501 4472899
-0.25380403 -0.23795515 1.1137501 4539713
-0.25131181 -0.23790172 1.1135 5396047
-0.24585925 -0.23501742 1.1 5660243
-0.24162766 -0.23325479 1.09175 5660243
-0.21345629 -0.22374727 1.04725 3552824
-0.21126677 -0.22385408 1.04775 3881530
-0.20917483 -0.22406775 1.04875 3552818
-0.20541669 -0.22497578 1.0530001 3290422
-0.20431936 -0.22631109 1.05925 3421238
-0.20429125 -0.22887494 1.0712501 3158066
-0.20256111 -0.2295693 1.0745001 2896434
-0.20291297 -0.23266727 1.0890001 3028535
-0.19391918 -0.2333082 1.092 3158064
-0.19013877 -0.23453671 1.0977501 3092014
0.34144849 -0.41282949 1.9322501 7565923
0.34406421 -0.41090661 1.9232501 723470
0.34618786 -0.40844959 1.9117501 2041386
0.34908596 -0.40695405 1.9047501 1121821
0.35264885 -0.40625966 1.9015001 1647911
0.35624447 -0.4056187 1.8985001 792606
0.36001682 -0.40519142 1.8965001 1251359
0.3636364 -0.40460387 1.8937501 1118231
0.36700118 -0.40374926 1.8897501 1249817
0.3691701 -0.40161273 1.8797501 855829
0.37313214 -0.40145248 1.8790001 921874
0.37623766 -0.40038422 1.8740001 724493
0.37820506 -0.39814088 1.8635001 856079
0.38233179 -0.39819428 1.8637501 724495
0.38651145 -0.39830112 1.8642501 1053462
0.3907457 -0.39846137 1.8650001 725780
0.39535367 -0.39899549 1.8675001 661268
0.3997587 -0.39931595 1.8690001 1056026
0.40400824 -0.39947623 1.8697501 1121821
0.40831563 -0.39968985 1.8707501 1055515
0.4126825 -0.39995694 1.8720001 726296
0.4171105 -0.40027741 1.8735001 1053978
0.42143261 -0.40049106 1.8745 922394
0.42575917 -0.40070471 1.8755001 857112
0.43003276 -0.40086496 1.8762501 922392
0.30718124 -0.26370025 1.2342501 1843744
0.30981779 -0.26364681 1.2340001 1054228
0.31238988 -0.26353997 1.2335 1578775
0.31483209 -0.26332635 1.2325001 2171165
0.31707671 -0.26295245 1.2307501 1909020
0.31957346 -0.2627922 1.23 725263
0.32206696 -0.26263198 1.2292501 856079
0.32482135 -0.26268539 1.2295001 1382676
0.34444746 -0.26962909 1.2620001 462608
0.34459373 -0.26759937 1.2525001 791056
0.35435647 -0.26466167 1.2387501 1448216
0.38179705 -0.26872104 1.25775 1382425
0.38637459 -0.26808009 1.25475 1644825
0.38888615 -0.26791987 1.2540001 1448218
0.39405659 -0.26770622 1.253 791056
0.39671773 -0.26765278 1.25275 1777181
0.39945748 -0.26765278 1.25275 1710620
0.40219721 -0.26765278 1.25275 1119504
0.45784178 -0.25883964 1.2115 989718
0.89078206 -0.30237129 1.4152501 10193517
0.89403498 -0.3024247 1.4155 10389612
0.89728916 -0.3024781 1.41575 10389605
0.88991559 -0.29291716 1.3710001 10849132
0.87997258 -0.27838883 1.3030001 10255462
0.87791002 -0.27683982 1.29575 10124898
0.88074386 -0.27683982 1.29575 9994595
0.88374805 -0.27689326 1.296 10191202
0.88675356 -0.27694666 1.2962501 10650722
0.88975996 -0.2770001 1.2965001 10979171
-1.1871086 -0.40247437 1.9032501 3622465
-1.179994 -0.40146992 1.8985001 5071186
-1.1724355 -0.40030685 1.8930001 5005139
-1.1579581 -0.39676479 1.8762501 4085322
-1.1526247 -0.39634183 1.8742501 2570547
-1.1686193 -0.40617508 1.9207501 3817538
-1.1641155 -0.40606931 1.9202501 5860710
-1.159614 -0.4059636 1.9197501 5401182
-1.1548136 -0.40575212 1.91875 5335389
-1.1498678 -0.40548781 1.9175001 3427143
-1.1452261 -0.4053292 1.9167501 5794919
-1.1407366 -0.40522346 1.9162501 6715506
-1.1363975 -0.40517059 1.9160001 5530464
-1.1323549 -0.40522346 1.9162501 5925992
-1.1283113 -0.40527633 1.9165001 6056806
-1.1242665 -0.4053292 1.9167501 5333083
-1.1202207 -0.40538204 1.9170001 2310
-1.1163194 -0.40548781 1.9175001 792343
-1.1122708 -0.40554067 1.9177501 791060
-1.1082212 -0.40559351 1.9180001 1185044
-1.1043143 -0.40569925 1.9185001 1119502
-1.0712706 -0.41236046 1.95 6583920
-1.0663221 -0.41209614 1.9487501 6714736
-1.054294 -0.40908274 1.9345001 7831158
-1.0493847 -0.40881839 1.9332501 7106667
-1.0451567 -0.40881839 1.9332501 7765365
-1.0410634 -0.40887126 1.9335001 9082508
-1.0368348 -0.40887126 1.9335001 7436662
-1.0331403 -0.40908274 1.9345001 7699325
-1.0328987 -0.41066873 1.9420002 7304313
-1.037921 -0.4143694 1.9595001 10395037
-1.0338994 -0.41447511 1.96 13356482
-1.0258496 -0.41468659 1.9610001 9803408
-0.68279117 -0.36435747 1.723 1118481
-0.67724961 -0.36340588 1.7185001 1185044
-0.67260945 -0.36293006 1.7162501 1317402
-0.66875863 -0.36287722 1.7160001 1777701
-0.66490889 -0.36282435 1.7157501 721163
-0.66115654 -0.36282435 1.7157501 1575697
-0.7093854 -0.41024578 1.9400001 201233
-0.66269368 -0.38788316 1.8342501 0
-0.63893157 -0.37625247 1.77925 256
-0.63066822 -0.37366202 1.7670001 592390
-0.62680382 -0.37366202 1.7670001 723723
-0.6230275 -0.37371489 1.7672501 66565
-0.62170267 -0.37524804 1.7745001 1119253
-0.62408888 -0.37905443 1.7925001 657932
-0.62570429 -0.38243788 1.8085001 591891
-0.63240671 -0.38899335 1.8395001 8553343
-0.65537059 -0.40569925 1.9185001 12240045
-0.69351739 -0.43207976 2.0432501 10924192
-0.69351715 -0.43488172 2.0565002 7763050
-0.68893582 -0.43482882 2.0562501 10722702
-0.68435562 -0.43477592 2.056 9998979
-0.67961121 -0.43461737 2.0552502 9276026
-0.67478782 -0.43440586 2.05425 10198411
-0.66972423 -0.43403581 2.0525 10068370
-0.66474926 -0.43371862 2.0510001 10003344
-0.66002232 -0.43356001 2.0502501 10331024
-0.65537858 -0.43345428 2.0497501 10396049
-0.65089583 -0.43345428 2.0497501 10199440
-0.64649194 -0.43350717 2.0500002 10265233
-0.6420086 -0.43350717 2.0500002 10067600
-0.63304192 -0.43350717 2.0500002 9542030
-0.26503822 -0.23906334 1.1305001 4342083
-0.26250777 -0.23901048 1.1302501 4342081
-0.25397491 -0.23567986 1.1145 5660243
-0.2488766 -0.23546839 1.1135 5857881
-0.23247707 -0.23367092 1.105 3685431
-0.22516777 -0.22870146 1.0815001 3488569
-0.2156436 -0.22135298 1.0467501 3685948
-0.21345629 -0.22145872 1.04725 3554362
-0.20912497 -0.22172305 1.0485001 3356466
-0.20757163 -0.22251604 1.05225 3488052
-0.20600191 -0.22330904 1.056 3224627
-0.20653759 -0.22642818 1.07075 3290420
-0.2051971 -0.22753839 1.0760001 3422008
-0.20557736 -0.23060465 1.0905 3159608
-0.20596354 -0.23652571 1.1185 3356213
-0.20102629 -0.23647286 1.11825 3223853
-0.19800356 -0.23578559 1.115 3355439
0.34131595 -0.40844831 1.9315001 8289133
0.34545067 -0.4083426 1.9310001 1181966
0.34894937 -0.40749672 1.927 1646628
0.35009393 -0.40395465 1.9102501 1384741
0.35283431 -0.40231577 1.9025 1253157
0.35624447 -0.40146992 1.8985001 1449769
0.36011171 -0.4011527 1.8970001 1383460
0.36397243 -0.40083551 1.8955001 922396
0.36768091 -0.40035972 1.8932501 1053980
0.37142861 -0.3999368 1.8912501 593427
0.37323141 -0.39745203 1.8795 462608
0.37724149 -0.39734632 1.8790001 396813
0.37820506 -0.39406857 1.8635001 791571
0.38233179 -0.39412144 1.8637501 725267
0.38656327 -0.39428005 1.8645 526348
0.39095521 -0.39459723 1.8660001 921876
0.3954595 -0.39502016 1.868 791573
0.39970523 -0.39517877 1.8687501 528917
0.40390018 -0.3952845 1.8692501 1055774
0.40815195 -0.39544311 1.8700001 1384739
0.41251716 -0.39570743 1.87125 1055774
0.41699919 -0.39607751 1.8730001 1251870
0.42148885 -0.3964476 1.8747501 1053980
0.42581591 -0.39665905 1.8757501 725528
0.30981779 -0.26095018 1.2340001 1645595
0.31245321 -0.26089731 1.2337501 1514009
0.31483209 -0.26063296 1.2325001 527114
0.31617501 -0.25952277 1.2272501 725263
0.31905383 -0.25968134 1.228 1251860
0.32173944 -0.25968134 1.228 2238755
0.32482135 -0.25999856 1.2295001 1712158
0.34168029 -0.26903877 1.2722501 658953
0.34439498 -0.2689859 1.2720001 857102
0.35428494 -0.26190177 1.2385001 1315086
0.39953718 -0.26496801 1.253 1185048
0.46188116 -0.26147881 1.2365 1644570
0.89713073 -0.2993314 1.4155 10062183
0.88643205 -0.28976253 1.3702501 10520169
0.88650781 -0.28881094 1.3657501 10914412
0.88672662 -0.28791219 1.3615 10586214
0.88120908 -0.2851631 1.3485 10521191
0.88284689 -0.28474018 1.3465 10521189
0.88546282 -0.28463444 1.3460001 10258532
0.88047904 -0.27569997 1.30375 9731934
0.88023412 -0.27384964 1.2950001 10192739
0.88323671 -0.27390251 1.2952501 10127462
0.88624042 -0.27395537 1.2955 10784363
0.88924515 -0.27400824 1.29575 11439724
-1.1920534 -0.3985768 1.9045001 4081472
-1.1761934 -0.39465275 1.8857501 4806990
-1.1712924 -0.39439118 1.8845001 5333588
-1.1659323 -0.39397258 1.8825001 5137238
-1.1567237 -0.39224601 1.8742501 5005654
-1.1526247 -0.39224601 1.8742501 2703929
-1.1485258 -0.39224601 1.8742501 990235
-1.1675545 -0.40161139 1.9190001 1578525
-1.1633577 -0.40161139 1.9190001 5398362
-1.1588588 -0.40150672 1.9185001 6188131
-1.1543622 -0.40140209 1.9180001 6252641
-1.1497178 -0.40124512 1.91725 5858402
-1.1452261 -0.40114048 1.9167501 3358268
-1.1407366 -0.40103585 1.9162501 8094845
-1.1365458 -0.40103585 1.9162501 5991785
-1.1325027 -0.40108818 1.9165001 5597288
-1.1284584 -0.40114048 1.9167501 5597288
-1.1244131 -0.40119278 1.9170001 6647916
-1.1203668 -0.40124512 1.91725 3095599
-1.1163194 -0.40129745 1.9175001 594960
-1.1124158 -0.40140209 1.9180001 528399
-1.1083657 -0.40145442 1.9182501 1317653
-1.1043143 -0.40150672 1.9185001 1053709
-1.0667324 -0.40799445 1.9495001 7042925
-1.0549752 -0.40511686 1.9357501 7371122
-1.0503347 -0.40495986 1.9350001 7569784
-1.0458325 -0.40485522 1.9345001 6056294
-1.0416018 -0.40485522 1.9345001 8621706
-1.037371 -0.40485522 1.9345001 8490633
-1.0335408 -0.40501219 1.93525 6781301
-1.031303 -0.405797 1.9390001 6978680
-1.0384507 -0.41029656 1.9605001 7239287
-1.0342951 -0.41034886 1.9607501 11973550
-1.0301381 -0.4104012 1.9610001 13354940
-1.0261111 -0.41050583 1.9615 12894904
-1.0219516 -0.41055816 1.9617501 8618883
-0.88144726 -0.43886349 2.0970001 1251609
-0.67636287 -0.35917953 1.7162501 1054481
-0.67113984 -0.35839471 1.7125001 528401
-0.66768688 -0.35855168 1.71325 1382945
-0.66077119 -0.35886559 1.7147501 11382944
-0.70664299 -0.40443668 1.9325001 4213575
-0.69605577 -0.40077424 1.9150001 5264980
-0.66775167 -0.38680467 1.84825 5528405
-0.64395905 -0.37529421 1.7932501 5199438
-0.63209581 -0.37063769 1.771 3290671
-0.62733591 -0.37011451 1.7685001 1579285
-0.62382078 -0.37032378 1.7695001 0
-0.62152743 -0.37126553 1.774 527114
-0.62443703 -0.37534651 1.7935001 658700
-0.6256178 -0.37843344 1.8082501 724495
-0.62896878 -0.38288066 1.8295001 4274488
-0.63854653 -0.39119959 1.8692501 11645089
-0.66407275 -0.40945941 1.9565001 12040869
-0.68913317 -0.42766693 2.0435002 10396817
-0.68893582 -0.43033525 2.0562501 9606274
-0.68435562 -0.43028292 2.056 8615270
-0.67961121 -0.43012601 2.0552502 10065542
-0.67486995 -0.42996901 2.0545001 10396049
-0.66988742 -0.42965513 2.0530002 10001807
-0.66483027 -0.42928883 2.05125 10264981
-0.66010284 -0.4291319 2.0505002 9936784
-0.65545857 -0.42902729 2.0500002 10068624
-0.65097523 -0.42902729 2.0500002 9871506
-0.64649194 -0.42902729 2.0500002 9805715
-0.64208686 -0.42907956 2.0502501 9805200
-0.63760293 -0.42907956 2.0502501 9410190
-0.26503822 -0.23659284 1.1305001 5329227
-0.25658488 -0.2334013 1.1152501 6119000
-0.25386101 -0.23313969 1.1140001 5725784
-0.25136825 -0.23308738 1.1137501 5397849
-0.23153035 -0.2303144 1.1005001 3882557
-0.22527187 -0.22644266 1.082 3750971
-0.21806425 -0.22152457 1.0585001 3685431
-0.21340533 -0.21911782 1.0470001 3160370
-0.21116596 -0.21917014 1.04725 3226163
-0.21131894 -0.22173385 1.0595001 3291703
-0.20900181 -0.22173385 1.0595001 3356213
-0.20892809 -0.22414058 1.0710001 3487799
-0.20769495 -0.22534394 1.07675 3422006
-0.20805764 -0.22832622 1.0910001 3421238
-0.21090296 -0.23413378 1.1187501 3028018
-0.20845628 -0.23413378 1.1187501 3029301
-0.2060096 -0.23413378 1.1187501 3158836
-0.19862509 -0.23408145 1.1185 3421232
-0.19569664 -0.23350593 1.1157501 3158317
-0.19031195 -0.22994813 1.09875 3289650
0.34109506 -0.40396577 1.93025 8815475
0.34522703 -0.40386114 1.9297501 1444360
0.34935683 -0.4037565 1.9292501 1383197
0.35036886 -0.40009406 1.9117501 1712675
0.35362253 -0.39904767 1.9067501 1581607
0.35615066 -0.39721647 1.8980001 1910574
0.36006427 -0.39695486 1.8967501 1184796
0.36402044 -0.39674556 1.89575 922394
0.36782655 -0.39637932 1.8940001 857116
0.37162501 -0.39601308 1.8922501 791573
0.3754158 -0.39564684 1.8905001 856849
0.37744227 -0.3934494 1.8800001 791060
0.38119864 -0.39308316 1.8782501 790806
0.38243437 -0.3901532 1.8642501 461841
0.38671878 -0.3903625 1.8652501 593427
0.39121711 -0.39078104 1.8672501 527888
0.3954595 -0.39093798 1.868 856081
0.39965177 -0.39104265 1.8685001 724495
0.40373814 -0.39104265 1.8685001 922642
0.40776998 -0.39099035 1.8682501 1053978
0.41185582 -0.39099035 1.8682501 1316382
0.41633126 -0.39135659 1.8700001 1447966
0.42126402 -0.39214137 1.8737501 1184796
0.42581591 -0.39255995 1.8757501 1251361
0.43020466 -0.39282155 1.8770001 594714
0.30981779 -0.25825348 1.2340001 1185297
0.31245321 -0.25820118 1.2337501 462091
0.31259698 -0.25610834 1.2237501 1778204
0.31546652 -0.25626531 1.2245001 1844508
0.31846926 -0.25652692 1.2257501 1778715
0.32134643 -0.25668386 1.2265 856849
0.3276614 -0.25956151 1.2402501 789259
0.34879729 -0.25914291 1.23825 1513235
0.35428494 -0.25919527 1.2385001 1775386
0.38149351 -0.26301464 1.2567501 791056
0.46580335 -0.26097414 1.2470001 1316630
0.8969723 -0.29618576 1.4152501 9601634
0.88166231 -0.28619257 1.3675001 10455146
0.88456053 -0.28519848 1.3627501 10193255
0.88037658 -0.28289637 1.35175 10324325
0.87957543 -0.28169301 1.3460001 10126942
0.87399548 -0.27897236 1.3330001 10323038
0.87707525 -0.27902466 1.33325 9929061
0.8801561 -0.27907699 1.3335 9732454
0.87989426 -0.27091503 1.2945001 10588015
0.88572741 -0.27096733 1.2947501 11439724
0.88855892 -0.27096733 1.2947501 12161903
-1.1803175 -0.39053181 1.8857501 3622467
-1.1757256 -0.39037651 1.8850001 4475977
-1.171137 -0.39022118 1.88425 5201236
-1.1667064 -0.39011765 1.8837501 5531998
-1.1622783 -0.39001408 1.8832501 4875098
-1.1524709 -0.38809845 1.8740001 3559754
-1.154807 -0.39027297 1.8845001 1122335
-1.1609132 -0.39374182 1.9012501 1776158
-1.1663376 -0.39700359 1.9170001 2763302
-1.1622968 -0.39705536 1.91725 4936781
-1.1581037 -0.39705536 1.91725 5660504
-1.1537603 -0.39700359 1.9170001 6251105
-1.149268 -0.39690003 1.9165001 6186082
-1.1449274 -0.39684826 1.9162501 4607567
-1.1407366 -0.39684826 1.9162501 5660251
-1.1365458 -0.39684826 1.9162501 7635838
-1.1325027 -0.39690003 1.9165001 6451564
-1.1286056 -0.39700359 1.9170001 5991533
-1.1245598 -0.39705536 1.91725 6582636
-1.1205128 -0.39710715 1.9175001 6713960
-1.1166105 -0.39721069 1.9180001 397581
-1.1125607 -0.39726245 1.9182501 727063
-1.1085101 -0.39731422 1.9185001 1185816
-1.1086315 -0.39886746 1.9260001 1315860
-1.0552477 -0.40099019 1.9362501 6650479
-1.0508775 -0.40093842 1.9360001 6650479
-1.0465083 -0.40088665 1.9357501 7044724
-1.0421402 -0.40083489 1.9355001 6122089
-1.0380414 -0.40088665 1.9357501 9412502
-1.0340749 -0.40099019 1.9362501 7702654
-1.0322338 -0.40192214 1.9407501 7372917
-1.0388479 -0.4061676 1.9612501 7175289
-1.0346906 -0.40621936 1.9615 7895934
-1.0304008 -0.40621936 1.9615 12632761
-1.0263727 -0.40632293 1.9620001 12831160
-1.0220817 -0.40632293 1.9620001 11910324
-0.88603348 -0.43428093 2.0970001 1186067
-0.67714417 -0.35387579 1.7087501 512
-0.67389977 -0.35413465 1.71 131329
-0.67045397 -0.35428998 1.7107501 1052690
-0.66048223 -0.35496303 1.7140001 10593423
-0.70609444 -0.39990294 1.9310001 393731
-0.69605577 -0.3965894 1.9150001 197124
-0.66370958 -0.38276571 1.84825 726029
-0.63985878 -0.37127188 1.7927501 2568233
-0.62848878 -0.36692286 1.7717501 4803910
-0.6249665 -0.36712995 1.7727501 5396047
-0.62862217 -0.37158254 1.7942501 3619636
-0.62469816 -0.37158254 1.7942501 395011
-0.62544483 -0.37437832 1.8077501 770
-0.62905473 -0.37893444 1.8297501 657673
-0.63273925 -0.3835941 1.8522501 10263182
-0.65142947 -0.39746955 1.9192501 10660509
-0.6823042 -0.41900757 2.0232501 9936784
-0.68893582 -0.42584175 2.0562501 9474947
-0.68435562 -0.42578995 2.056 10001034
-0.67969382 -0.42568642 2.0555 10132875
-0.67495215 -0.42553112 2.0547502 10132875
-0.66996896 -0.42522046 2.0532501 10066827
-0.66491133 -0.42485803 2.0515001 10198159
-0.66026378 -0.4247545 2.0510001 9870991
-0.65553844 -0.42459917 2.0502501 9739918
-0.65105456 -0.42459917 2.0502501 9608336
-0.64657074 -0.42459917 2.0502501 9477520
-0.26812634 -0.22040221 1.06425 4867657
-0.2658613 -0.22045401 1.0645001 4934220
-0.26246423 -0.22350869 1.0792501 4868429
-0.26016417 -0.22356045 1.0795001 5000013
-0.25526497 -0.22340511 1.07875 6250840
-0.25536743 -0.22557963 1.0892501 5855828
-0.25315943 -0.22573495 1.09 6184538
-0.22527187 -0.22407818 1.082 3685178
-0.21610601 -0.21957384 1.06025 3882040
-0.21378727 -0.21957384 1.06025 3291190
-0.21366249 -0.2218519 1.0712501 3093811
-0.2117635 -0.22231786 1.0735 3160119
-0.21024486 -0.22319803 1.0777501 3225912
-0.21044365 -0.22594206 1.0910001 3093813
-0.21315897 -0.23148188 1.11775 3355443
-0.21104434 -0.23184429 1.1195 3421489
-0.20854944 -0.23179252 1.1192501 3290422
-0.20610166 -0.23179252 1.1192501 3356215
-0.20116113 -0.23174076 1.1190001 3092271
-0.1961351 -0.23158541 1.11825 3093811
-0.19039857 -0.2276506 1.0992501 3027248
0.34096253 -0.39959228 1.9295001 9276278
0.34509286 -0.39948875 1.9290001 1707534
0.34931156 -0.39948875 1.9290001 1250069
0.353347 -0.39928165 1.9280001 1055513
0.35445708 -0.39581278 1.9112501 1450273
0.35610375 -0.39301699 1.8977501 1713191
0.36001682 -0.3927581 1.8965001 1711908
0.36402044 -0.39260277 1.89575 988187
0.36782655 -0.39224038 1.8940001 921622
0.37157589 -0.39182618 1.8920001 1053208
0.3754158 -0.39151552 1.8905001 921876
0.37914881 -0.39110133 1.8885001 1119255
0.38180751 -0.38959989 1.8812501 987415
0.38535762 -0.38903037 1.8785001 987669
0.38905123 -0.3886162 1.8765001 593681
0.39205515 -0.38752893 1.87125 725267
0.3954066 -0.38680407 1.86775 724497
0.39949134 -0.38680407 1.86775 855309
0.40346804 -0.38670054 1.8672501 1052688
0.40733343 -0.38649344 1.86625 921622
0.41113937 -0.38623458 1.8650001 922394
0.4150511 -0.38607925 1.8642501 1382945
0.42025229 -0.38711473 1.8692501 1447968
0.4253619 -0.38804668 1.8737501 988698
0.42991814 -0.38846084 1.8757501 857884
0.44156781 -0.39151552 1.8905001 988185
0.30962947 -0.25540149 1.23325 1710614
0.30985734 -0.2533823 1.2235 1776664
0.31240538 -0.25327876 1.223 1776664
0.31527331 -0.25343409 1.2237501 724746
0.31801459 -0.25348586 1.2240001 528137
0.32095343 -0.25369295 1.225 1185297
0.33334148 -0.26130375 1.2617501 2302498
0.33876467 -0.26337472 1.2717501 2434341
0.3443273 -0.26337472 1.2717501 725263
0.34872687 -0.25638521 1.238 1315860
0.35150534 -0.25643697 1.23825 1119251
0.35421339 -0.25643697 1.23825 1316630
0.35699353 -0.25648877 1.2385001 987665
0.87484252 -0.2929377 1.4145001 5456173
0.88118517 -0.29298949 1.4147501 6181431
0.8761481 -0.28827804 1.3920001 8088141
0.87610149 -0.28237581 1.3635001 10389864
0.87892222 -0.28232402 1.36325 10453861
0.88093323 -0.28201336 1.36175 10454376
0.88212639 -0.28144386 1.3590001 9994854
0.87760866 -0.27906224 1.3475001 9864038
0.87875861 -0.27849272 1.34475 10059366
0.87399548 -0.27605936 1.3330001 9993060
0.87707525 -0.27611113 1.33325 9731169
0.87999105 -0.27611113 1.33325 9731682
0.8832379 -0.27621466 1.33375 9140315
0.88648713 -0.27631822 1.3342501 9208159
0.87796438 -0.27010533 1.3042501 10324071
0.87955439 -0.2679826 1.294 11310968
0.88221383 -0.26793081 1.29375 11376500
0.88504326 -0.26793081 1.29375 11966320
-1.1847557 -0.38651332 1.8862501 4676174
-1.1803175 -0.38641086 1.8857501 4411981
-1.1760374 -0.38635963 1.8855001 4278338
-1.1716032 -0.3862572 1.8850001 5527635
-1.167171 -0.38615474 1.8845001 4871505
-1.1628953 -0.38610348 1.88425 5136474
-1.1586207 -0.38605228 1.8840001 5201748
-1.1549602 -0.38620597 1.8847501 4937803
-1.1694616 -0.39245573 1.9152501 1844510
-1.1655772 -0.39255822 1.9157501 2565670
-1.1613876 -0.39255822 1.9157501 4671556
-1.1573488 -0.39260945 1.9160001 5856600
-1.1530081 -0.39255822 1.9157501 6449507
-1.1488184 -0.39255822 1.9157501 6253411
-1.1446286 -0.39255822 1.9157501 6121055
-1.1405877 -0.39260945 1.9160001 3292475
-1.1365458 -0.39266065 1.9162501 7438198
-1.1326504 -0.39276311 1.9167501 7767163
-1.1287527 -0.39286554 1.91725 6254957
-1.1248531 -0.39296803 1.9177501 6517359
-1.1209512 -0.39307046 1.9182501 6779755
-1.1169015 -0.39312169 1.9185001 4477513
-1.1129959 -0.39322418 1.9190001 594962
-1.1125547 -0.39455608 1.9255 724497
-1.1087754 -0.39470977 1.9262501 593679
-1.0511489 -0.39681008 1.9365001 6650996
-1.0469137 -0.39681008 1.9365001 7240819
-1.0425441 -0.39675888 1.9362501 7240566
-1.0385776 -0.39686131 1.9367501 6318953
-1.034609 -0.3969638 1.9372501 9281684
-1.0343614 -0.39850062 1.9447501 7242363
-1.0391128 -0.40198413 1.9617501 7307645
-1.0348226 -0.40198413 1.9617501 7699836
-1.0306635 -0.40203533 1.9620001 8751241
-1.0265034 -0.40208656 1.9622501 12831678
-1.022212 -0.40208656 1.9622501 12503226
-0.79517305 -0.38764033 1.8917501 920075
-0.79072219 -0.38748664 1.891 1184274
-0.78637862 -0.38738418 1.8905001 1316630
-0.78183037 -0.38717929 1.8895001 986897
-0.67380124 -0.35034654 1.7097501 4278336
-0.67035604 -0.35050023 1.7105001 197379
-0.66690743 -0.35065389 1.7112501 592139
-0.70609444 -0.39568308 1.9310001 328710
-0.69605577 -0.39240453 1.9150001 2039583
-0.69186771 -0.39240453 1.9150001 2369569
-0.63272238 -0.36776397 1.7947501 328708
-0.62897247 -0.36786643 1.7952501 2434341
-0.62513334 -0.36791766 1.7955 4212292
-0.62527186 -0.37032536 1.8072501 3291703
-0.62905473 -0.37493584 1.8297501 592137
-0.63231224 -0.37929022 1.8510001 5657159
-0.65176886 -0.3934803 1.9202501 7698025
-0.68196696 -0.41438124 2.0222502 8486510
-0.68441272 -0.4185819 2.0427501 9671299
-0.68435562 -0.42129695 2.056 9079678
-0.67977655 -0.42124575 2.0557501 9671817
-0.67503422 -0.42109203 2.0550001 10132366
-0.67005056 -0.42078471 2.0535002 9869453
-0.66026378 -0.42027241 2.0510001 9476748
-0.65561843 -0.42016995 2.0505002 9148555
-0.27271727 -0.21802527 1.064 4803659
-0.26806334 -0.21802527 1.064 5064523
-0.26579884 -0.2180765 1.06425 4737098
-0.26353326 -0.21812774 1.0645001 4606282
-0.26292285 -0.21956211 1.0715001 5000268
-0.26070106 -0.21966456 1.072 6250588
-0.25841686 -0.21971579 1.07225 5988186
-0.25619131 -0.21981825 1.0727501 5594196
-0.25402269 -0.21997193 1.0735 5659989
-0.25185078 -0.22012563 1.0742501 5265233
-0.25060308 -0.22319928 1.0892501 4276547
-0.24827787 -0.22325051 1.0895001 4079166
-0.22625324 -0.22504348 1.09825 3750973
-0.2182233 -0.22176489 1.08225 3356213
-0.21560715 -0.22150877 1.0810001 3356985
-0.21289779 -0.22115017 1.0792501 2897717
-0.21278088 -0.22350666 1.0907501 3094326
-0.21459079 -0.22796346 1.1125001 2962488
-0.21373108 -0.22965398 1.1207501 2962742
-0.21118574 -0.22955152 1.1202501 3159608
-0.20868917 -0.22950028 1.12 3028281
-0.20619372 -0.22944906 1.11975 3093813
-0.19364621 -0.22909047 1.118 3027248
-0.18808003 -0.22535084 1.09975 3027250
0.33669913 -0.3953245 1.9292501 9867897
0.34087417 -0.39527327 1.9290001 9671038
0.34504813 -0.39522204 1.92875 3023908
0.34922102 -0.39517081 1.9285001 1447446
0.35339281 -0.39511958 1.9282501 1185814
0.35492072 -0.39214838 1.9137501 1383710
0.35610375 -0.38886982 1.8977501 1449249
0.35996935 -0.38856244 1.8962501 1712421
0.36397243 -0.38840875 1.8955001 1185818
0.367778 -0.38805014 1.8937501 1316380
0.37147772 -0.3875891 1.8915001 1251357
0.37531653 -0.38728175 1.8900001 1053212
0.37909862 -0.38692316 1.8882501 592659
0.38287303 -0.38656455 1.8865001 658704
0.3864859 -0.38605228 1.8840001 987667
0.38936222 -0.38482282 1.8780001 921874
0.39320752 -0.38456666 1.8767501 658450
0.39630634 -0.38359335 1.8720001 724243
0.39933094 -0.38256878 1.8670001 855311
0.40319794 -0.38236386 1.8660001 658700
0.40706062 -0.38215896 1.8650001 527116
0.41091889 -0.38195404 1.8640001 921622
0.41493979 -0.38190284 1.8637501 1316382
0.41907197 -0.38195404 1.8640001 1316380
0.42456737 -0.38323474 1.8702501 922909
0.42928788 -0.38379827 1.8730001 792093
0.4340204 -0.38436174 1.8757501 922394
0.43894011 -0.38507894 1.87925 1053978
0.30912733 -0.25229663 1.23125 1185297
0.30979401 -0.25065735 1.22325 1119504
0.31227767 -0.25050366 1.2225001 527114
0.31508008 -0.25060612 1.223 988439
0.31788465 -0.25070858 1.2235 1777953
0.32475248 -0.25398716 1.2395 1909537
0.33353961 -0.2587001 1.2625 725263
0.33856487 -0.26044184 1.271 527114
0.34141171 -0.26049307 1.27125 1119253
0.35157633 -0.25378224 1.2385001 1118734
0.35749796 -0.25414085 1.2402501 1908250
0.36522034 -0.25767556 1.2575001 1579802
0.37874499 -0.25752187 1.2567501 2039328
0.47068888 -0.25972465 1.2675 1184274
0.80193824 -0.28057435 1.3692501 3489335
0.80493271 -0.28057435 1.3692501 3752507
0.87051308 -0.28841218 1.4075 5454887
0.8709535 -0.28754133 1.4032501 5653036
0.87005955 -0.28523609 1.3920001 5984302
0.87425983 -0.28462133 1.3890001 7428668
0.87745541 -0.28467256 1.38925 8613705
0.87013757 -0.27939612 1.3635001 9470811
0.87295938 -0.27934489 1.36325 9668708
0.8754589 -0.2791912 1.3625001 9535841
0.87779397 -0.27898628 1.3615 9864292
0.87980109 -0.27867892 1.36 9731682
0.87417489 -0.27596384 1.34675 9600868
0.87484068 -0.27524665 1.34325 9468514
0.87761503 -0.27519545 1.3430001 9336926
0.87383157 -0.2730951 1.3327501 9206626
0.87674636 -0.2730951 1.3327501 9140833
0.87982607 -0.27314633 1.3330001 9534053
0.88648713 -0.27340248 1.3342501 9208670
0.87494415 -0.2672039 1.304 10653806
0.88453025 -0.26494989 1.2930001 12163186
0.88049519 -0.2629008 1.2830001 12752243
-1.1849127 -0.382442 1.8865001 4214853
-1.1806306 -0.3823913 1.8862501 3885376
-1.1763493 -0.38234061 1.886 4540738
-1.171914 -0.38223925 1.8855001 4803140
-1.1674807 -0.38213789 1.8850001 2960938
-1.163204 -0.38208723 1.8847501 5331537
-1.1589283 -0.38203654 1.8845001 5924957
-1.1646116 -0.38528013 1.9005001 5727319
-1.1694616 -0.38827035 1.9152501 3752507
-1.1651208 -0.38821965 1.9150001 2370090
-1.1609328 -0.38821965 1.9150001 1709595
-1.1565937 -0.38816899 1.9147501 2564900
-1.1524062 -0.38816899 1.9147501 6911341
-1.1443299 -0.38827035 1.9152501 6713962
-1.1404389 -0.38837171 1.9157501 6054498
-1.1366941 -0.38852376 1.9165001 4278087
-1.1327981 -0.38862512 1.9170001 7567737
-1.1290472 -0.38877717 1.9177501 7043440
-1.1251464 -0.38887852 1.9182501 6648943
-1.1213895 -0.38903058 1.9190001 6713962
-1.1174837 -0.38913193 1.9195001 7240817
-1.1156057 -0.38994282 1.9235001 1713954
-1.1122658 -0.39024693 1.9250001 1316632
-1.1083436 -0.39034829 1.9255 921874
-1.1044192 -0.39044964 1.9260001 1185046
-1.0512846 -0.39262894 1.9367501 7700085
-1.0470489 -0.39262894 1.9367501 7502706
-1.0428133 -0.39262894 1.9367501 7635064
-1.0387117 -0.39267963 1.937 6518131
-1.0380803 -0.39404804 1.9437501 7108982
-1.035957 -0.39485893 1.9477501 9346195
-1.0391128 -0.39769709 1.9617501 6782584
-1.0349544 -0.39774778 1.9620001 6978680
-1.0307949 -0.39779845 1.9622501 7305850
-1.0266342 -0.39784914 1.9625001 9870743
-1.0223422 -0.39784914 1.9625001 12765115
-1.0179205 -0.39779845 1.9622501 12632759
-0.79920471 -0.3834556 1.8915001 1776154
-0.79212564 -0.38203654 1.8845001 1513492
-0.79019952 -0.38310084 1.8897501 1250320
-0.78606671 -0.38310084 1.8897501 1513235
-0.7817269 -0.38299948 1.88925 2500130
-0.77738935 -0.38289812 1.8887501 2565674
-0.773054 -0.38279676 1.8882501 788241
-0.629498 -0.36424735 1.7967501 461323
-0.62492585 -0.36617324 1.8062501 1646367
-0.62914068 -0.37098798 1.83 3554364
-0.63786334 -0.3785395 1.8672501 4209978
-0.66237569 -0.39561915 1.9515001 9275004
-0.68213558 -0.41006336 2.0227501 9210233
-0.68424523 -0.41401652 2.0422502 8750713
-0.68435562 -0.41680396 2.056 8553084
-0.67977655 -0.41675332 2.0557501 9079685
-0.67511636 -0.41665196 2.0552502 9672592
-0.6701321 -0.41634783 2.05375 9739409
-0.27271727 -0.2157001 1.064 5130829
-0.27032676 -0.21564943 1.06375 5130827
-0.26800036 -0.21564943 1.06375 4735558
-0.26561153 -0.21559875 1.0635 5459281
-0.26180026 -0.2143824 1.0575 5986906
-0.26212537 -0.2165617 1.0682501 6184795
-0.26070106 -0.21732192 1.072 5923163
-0.25847715 -0.21742329 1.0725001 5659738
-0.25619131 -0.21747397 1.0727501 5528152
-0.25408182 -0.21767668 1.07375 4541257
-0.25185078 -0.21777807 1.0742501 4080708
-0.24996592 -0.21818352 1.0762501 4212292
-0.25048801 -0.22071756 1.08875 4343361
-0.24816394 -0.22076827 1.0890001 4211005
-0.24190432 -0.22157916 1.0930001 3883840
-0.21725261 -0.22081895 1.0892501 3487801
-0.21506768 -0.22102165 1.09025 3422006
-0.21687749 -0.22538026 1.11175 3225397
-0.2165197 -0.22755957 1.1225001 3094324
-0.21137425 -0.22730616 1.12125 3290424
-0.20882893 -0.2272048 1.1207501 3028022
0.3407858 -0.39095646 1.9285001 9868678
0.34495869 -0.39090577 1.9282501 3747378
0.34913048 -0.3908551 1.9280001 1447448
0.35325536 -0.39075375 1.9275001 989720
0.35538438 -0.38847306 1.9162501 1317404
0.35615066 -0.38477334 1.8980001 1579806
0.35996935 -0.38441858 1.8962501 1383197
0.36382842 -0.38411447 1.8947501 2040355
0.36763236 -0.38375971 1.8930001 1316634
0.37137949 -0.38335425 1.891 988187
0.37521723 -0.38305017 1.8895001 988187
0.37904844 -0.38274607 1.8880001 1185564
0.38287303 -0.382442 1.8865001 987669
0.38674232 -0.38218859 1.8852501 724497
0.3901397 -0.38147902 1.8817501 462608
0.393417 -0.38066813 1.87775 922646
0.39731193 -0.38046542 1.8767501 462095
0.39906356 -0.37823543 1.8657501 856083
0.40292788 -0.37803271 1.8647501 725265
0.40689692 -0.37793133 1.8642501 527888
0.41086379 -0.37782997 1.8637501 592657
0.41493979 -0.37782997 1.8637501 657680
0.41907197 -0.37788066 1.8640001 856349
0.4233188 -0.37803271 1.8647501 989218
0.42814186 -0.37869155 1.868 1120288
0.43303701 -0.37940112 1.8715001 1119003
0.43783066 -0.38000926 1.8745 725013
0.32612935 -0.26800334 1.322 855309
0.3090018 -0.24950463 1.2307501 986895
0.3115668 -0.24940325 1.23025 1185297
0.31240538 -0.24793349 1.223 1910050
0.31527331 -0.24808556 1.2237501 1450522
0.32145715 -0.25082234 1.2372501 397834
0.32665202 -0.25274825 1.2467501 593679
0.33565313 -0.25756297 1.2705001 856851
0.33849829 -0.25761366 1.27075 1646880
0.34267336 -0.25452209 1.2555001 1382425
0.34555668 -0.25462344 1.256 1382425
0.35871884 -0.25421798 1.2540001 1514260
0.86897564 -0.28584319 1.4100001 4601114
0.86757529 -0.28437343 1.40275 4209172
0.86490196 -0.28249824 1.3935001 4867102
0.8648352 -0.2814846 1.3885001 5392426
0.86677808 -0.28112984 1.3867501 6311722
0.86981082 -0.28112984 1.3867501 7494972
0.87284368 -0.28112984 1.3867501 8021053
0.86433208 -0.27646714 1.3637501 8613955
0.85888785 -0.27378103 1.3505001 8615502
0.85498112 -0.27160171 1.3397501 8746573
0.86207342 -0.27291945 1.3462501 8943956
0.86341131 -0.27241263 1.3437501 8943963
0.8669948 -0.27261534 1.34475 8616022
0.86880362 -0.27226058 1.3430001 8944985
0.87141627 -0.27215922 1.3425001 9141342
0.87418944 -0.27210855 1.3422501 9075551
0.87304074 -0.27084151 1.3360001 9206622
0.87366772 -0.27013198 1.3325001 9271901
0.87658191 -0.27013198 1.3325001 9140831
0.87982607 -0.27023333 1.3330001 9404266
0.88290685 -0.270284 1.33325 9404768
0.88632101 -0.27043605 1.3340001 9668710
0.87192518 -0.26430359 1.30375 11309935
0.87494415 -0.26435426 1.304 11572594
0.88470125 -0.26217499 1.2932501 12229229
0.88529915 -0.26151612 1.2900001 12491116
-1.2572242 -0.38022453 1.8960001 4409924
-1.2530776 -0.38022453 1.8960001 3753275
-1.2395443 -0.37736681 1.8817501 3751222
-1.2349366 -0.3772164 1.881 3685429
-1.2157729 -0.37260398 1.858 3422257
-1.1852267 -0.37841967 1.8870001 4873555
-1.1809435 -0.37836951 1.8867501 1386277
-1.1768172 -0.37836951 1.8867501 2896432
-1.1725355 -0.37831938 1.8865001 4934726
-1.1681 -0.3782191 1.886 4409406
-1.1639754 -0.3782191 1.886 5594709
-1.1678455 -0.38082615 1.899 6253663
-1.1736503 -0.38408491 1.9152501 5794139
-1.169309 -0.38403478 1.9150001 3427139
-1.1648166 -0.38393453 1.9145001 1451816
-1.1603266 -0.38383424 1.914 1514529
-1.1559896 -0.38378412 1.9137501 1314324
-1.1518043 -0.38378412 1.9137501 5000013
-1.1441805 -0.38403478 1.9150001 6844778
-1.1405877 -0.38423532 1.9160001 6844778
-1.1332413 -0.38458627 1.9177501 5001810
-1.1294887 -0.38473669 1.9185001 8094592
-1.1255863 -0.38483697 1.9190001 6714989
-1.1219738 -0.38503748 1.9200001 6583920
-1.1185025 -0.38528818 1.9212501 7108467
-1.1156057 -0.38573939 1.9235001 5398102
-1.1121213 -0.38599005 1.9247501 725778
-1.1081997 -0.38609031 1.9252501 1579806
-1.1041325 -0.38614044 1.9255 1052690
-1.0428133 -0.38839653 1.9367501 7370869
-1.0387117 -0.38844666 1.937 7634043
-1.0406171 -0.39075288 1.9485 6319214
-1.0366218 -0.39085317 1.9490001 7965575
-1.0326241 -0.39095342 1.9495001 8690062
-1.0349544 -0.39346018 1.9620001 6979444
-1.0307949 -0.39351031 1.9622501 7569018
-1.0265034 -0.39351031 1.9622501 7436151
-1.022212 -0.39351031 1.9622501 10856868
-1.0179205 -0.39351031 1.9622501 12436922
-1.0135001 -0.39346018 1.9620001 12175033
-0.79328936 -0.37651452 1.8775001 1512982
-0.78266799 -0.37340614 1.8620001 1776411
-0.78559989 -0.37676519 1.8787501 2106399
-0.78346688 -0.37771776 1.8835001 3092524
-0.78141659 -0.37872046 1.8885001 3355443
-0.77687484 -0.37851992 1.8875 3290424
-0.773054 -0.37867033 1.8882501 4672073
-0.67324084 -0.34838873 1.7372501 527884
-0.66963416 -0.34848902 1.7377501 593679
-0.68579561 -0.40519181 2.0205002 3288110
-0.68871158 -0.40955356 2.0422502 6579803
-0.68901962 -0.41241127 2.0565002 8949889
-0.68443888 -0.41236112 2.0562501 8555646
-0.28855088 -0.22385317 1.11625 5131597
-0.27912509 -0.21838847 1.0890001 5000013
-0.27019972 -0.21322455 1.0632501 5066831
-0.26787442 -0.21322455 1.0632501 5724761
-0.26398814 -0.21197116 1.057 6842725
-0.26161462 -0.21192102 1.0567501 6447710
-0.25924218 -0.21187089 1.0565001 6052952
-0.26070106 -0.21497926 1.072 5857117
-0.25847715 -0.21507955 1.0725001 5132624
-0.25625101 -0.21517982 1.0730001 4407874
-0.25420016 -0.21543048 1.0742501 4605255
-0.25231966 -0.21583156 1.0762501 4737098
-0.25281104 -0.21828817 1.0885 4408133
-0.25043052 -0.21828817 1.0885 4473924
-0.24810694 -0.21833831 1.08875 4408901
-0.2457823 -0.21838847 1.0890001 4211522
-0.24351242 -0.21848872 1.0895001 3948603
-0.24129568 -0.21863912 1.09025 3948603
-0.24017136 -0.21979223 1.0960001 4145729
-0.23521465 -0.23142357 1.154 3815994
-0.21666434 -0.22525695 1.12325 3488571
-0.21165702 -0.22515668 1.12275 3421236
-0.20920159 -0.22515668 1.12275 3618617
-0.20802082 -0.22926778 1.1432501 3093815
-0.1981083 -0.22651033 1.1295 3290422
-0.17645456 -0.22104561 1.1022501 3027248
0.34074163 -0.38669193 1.9282501 9474947
0.34491396 -0.3866418 1.9280001 5460045
0.34903994 -0.38654155 1.9275001 1118224
0.35311791 -0.38639113 1.9267501 923159
0.35617256 -0.38513774 1.9205 1316634
0.35690123 -0.38142776 1.9020001 1513241
0.35996935 -0.38027465 1.8962501 1710363
0.3637324 -0.37987357 1.89425 1644829
0.36758381 -0.37957278 1.8927501 1447966
0.37137949 -0.3792218 1.891 1184796
0.37521723 -0.37892103 1.8895001 1185566
0.37904844 -0.37862021 1.8880001 856853
0.38292375 -0.37836951 1.8867501 988439
0.38679361 -0.37811884 1.8855001 1053208
0.39029518 -0.37751722 1.8825001 725013
0.39346939 -0.37661481 1.8780001 527888
0.39741778 -0.3764644 1.8772501 658450
0.39954481 -0.37460938 1.868 724243
0.40281981 -0.37385735 1.8642501 725267
0.40684235 -0.37380722 1.8640001 396302
0.41086379 -0.37375709 1.8637501 658450
0.41493979 -0.37375709 1.8637501 462095
0.41912818 -0.37385735 1.8642501 462354
0.42337558 -0.37400779 1.8650001 856601
0.42774075 -0.37425843 1.86625 1053208
0.43211147 -0.37450913 1.8675001 1513243
0.32612935 -0.26511434 1.322 1052433
0.3175098 -0.25583935 1.27575 1118481
0.30906457 -0.24686518 1.2310001 1119504
0.31175676 -0.24686518 1.2310001 1449239
0.31438509 -0.24681506 1.2307501 528397
0.31784961 -0.24741668 1.2337501 725265
0.3217819 -0.24836925 1.2385001 1250067
0.335455 -0.25463614 1.2697501 1974043
0.33837077 -0.25062531 1.24975 1513239
0.3406263 -0.25027436 1.248 1250069
0.34823421 -0.25182855 1.2557501 527367
0.36247018 -0.2521795 1.2575001 658953
0.36522034 -0.2521795 1.2575001 1186067
0.85295206 -0.28256136 1.409 1711371
0.8626554 -0.28271177 1.4097501 3748381
0.86543143 -0.28261149 1.40925 3878937
0.86789715 -0.28241098 1.4082501 4470293
0.86154509 -0.27935269 1.393 5323794
0.8622641 -0.27860069 1.38925 6243611
0.86327803 -0.27794895 1.386 6967334
0.866153 -0.27789879 1.3857501 7692855
0.86934036 -0.27794895 1.386 8153404
0.8638745 -0.27524164 1.3725001 8284990
0.86119169 -0.27343678 1.3635001 8284992
0.84848726 -0.26847339 1.33875 7955262
0.85141504 -0.26847339 1.33875 8219715
0.85434294 -0.26847339 1.33875 7825725
0.85727078 -0.26847339 1.33875 8153922
0.86051989 -0.26857367 1.3392501 8285774
0.8637712 -0.26867396 1.3397501 8089426
0.86734807 -0.2688745 1.3407501 8747104
0.87060487 -0.26897475 1.3412501 9140319
0.86930478 -0.26767123 1.3347501 9336924
0.86977339 -0.26691923 1.3310001 9730399
0.87317592 -0.26706961 1.33175 9797216
0.87625289 -0.26711974 1.332 9928802
0.87207067 -0.26496395 1.3212501 10192233
0.87496018 -0.26496395 1.3212501 10455657
0.86489379 -0.26105341 1.3017501 11768439
0.87175798 -0.26140437 1.3035001 11638898
0.87494415 -0.26150462 1.304 11836279
0.87796438 -0.26155478 1.3042501 11704178
0.88383847 -0.26160491 1.3045001 11836277
0.88954431 -0.26160491 1.3045001 12491379
0.88770109 -0.25939897 1.2935001 12621934
-1.2489355 -0.37360176 1.8835001 4543306
-1.2443206 -0.37345296 1.88275 4279881
-1.2395443 -0.37325463 1.8817501 4147012
-1.2198364 -0.36854368 1.858 4015426
-1.2157729 -0.36854368 1.858 3227707
-1.2117095 -0.36854368 1.858 2570547
-1.1774409 -0.37444478 1.8877501 4937811
-1.1733124 -0.37444478 1.8877501 4806227
-1.169029 -0.37439516 1.8875 4280397
-1.1672156 -0.375139 1.8912501 5464408
-1.1683067 -0.37682503 1.8997501 6188383
-1.1741099 -0.3800483 1.9160001 5860702
-1.1711408 -0.380445 1.9180001 5334104
-1.1655772 -0.37999871 1.9157501 1976615
-1.1597204 -0.37945324 1.9130001 1185816
-1.1552346 -0.37935406 1.9125001 2105121
-1.1372871 -0.38034582 1.9175001 7239534
-1.1336845 -0.38054419 1.9185001 3688258
-1.1299303 -0.38069296 1.9192501 6387056
-1.1263194 -0.38089129 1.9202501 7242103
-1.1227043 -0.38108966 1.9212501 6255721
-1.1192303 -0.38133761 1.9225001 6517610
-1.1156057 -0.38153595 1.9235001 6715759
-1.1119769 -0.38173431 1.9245001 2174505
-1.1080558 -0.38183349 1.9250001 1252122
-1.1037024 -0.3817839 1.9247501 1119253
-1.0989219 -0.38158554 1.92375 1185046
-1.0844649 -0.38094088 1.9205 134411
-1.0757846 -0.3808417 1.9200001 856079
-1.0385776 -0.38416415 1.9367501 7371122
-1.0411512 -0.38669318 1.9495001 7437947
-1.0372866 -0.38684195 1.9502501 6450541
-1.0332862 -0.38694113 1.9507501 9082510
-1.0304707 -0.38748661 1.9535002 8359300
-1.0304008 -0.38907343 1.9615 7306612
-1.0263727 -0.38917264 1.9620001 7634813
-1.022212 -0.3892222 1.9622501 7896702
-1.0179205 -0.3892222 1.9622501 11778740
-1.0135001 -0.38917264 1.9620001 12305595
-1.0089519 -0.38907343 1.9615 12371388
-0.99947989 -0.38872632 1.9597501 8949390
-3.6062064 -1.5709721 7.9200006 11645087
-3.5888855 -1.5709721 7.9200006 11710882
-0.786529 -0.36923796 1.8615001 2631465
-0.7779392 -0.36710563 1.8507501 3027250
-0.77399617 -0.36715522 1.8510001 3158836
-0.77483565 -0.36948588 1.8627501 1053978
-0.7732445 -0.37067601 1.8687501 3094328
-0.77708071 -0.37449434 1.8880001 3158066
-0.67996305 -0.34608001 1.7447501 1514262
-0.67011583 -0.34493944 1.7390001 856079
-0.66707891 -0.34533614 1.7410001 1316632
-0.66422385 -0.34583205 1.7435001 1184527
-0.72972167 -0.39348686 1.9837501 7436650
-0.28606999 -0.20559503 1.0365001 5396566
-0.28642556 -0.20916542 1.0545001 5396049
-0.29125279 -0.2216122 1.1172501 5066831
-0.28848627 -0.22136424 1.1160001 4868427
-0.28604555 -0.22136424 1.1160001 5263183
-0.27451986 -0.21427305 1.08025 6119002
-0.26755947 -0.21065307 1.062 6383714
-0.26405057 -0.20971088 1.05725 5725531
-0.26167649 -0.20966129 1.057 5725531
-0.25936484 -0.20966129 1.057 4935247
-0.26076186 -0.2126862 1.07225 4803661
