0.471308 0.188227 0.153729
0.456313 0.189442 0.145177
0.45486 0.18735 0.144645
0.42311 0.34751 0.151712
0.600522 0.180577 0.158496
0.597088 0.176149 0.158115
0.591909 0.174756 0.157733
0.586853 0.173857 0.157118
0.579867 0.172831 0.15716
0.573985 0.172578 0.157242
0.612137 0.140293 0.0796306
0.562692 0.173026 0.157736
0.557933 0.173071 0.15762
0.681309 0.138572 0.046801
0.616536 0.261427 0.348379
0.621798 0.141724 0.0788717
0.491161 0.192347 0.238353
0.54356 0.172481 0.155401
0.53976 0.172248 0.155006
0.491288 0.187589 0.237218
0.473931 0.1832 0.154597
0.647273 0.139575 0.0763705
0.454407 0.18331 0.144254
0.598548 0.18025 0.154728
0.643008 0.287512 0.0875013
0.679376 0.140043 0.0502631
0.572175 0.345399 0.149736
0.577626 0.345413 0.149812
0.59502 0.175085 0.159243
0.582752 0.345599 0.149643
0.587905 0.345886 0.149639
0.583033 0.167771 0.237766
0.57295 0.166592 0.236689
0.568965 0.172669 0.159437
0.567843 0.166115 0.237492
0.633086 0.287327 0.0896499
0.544309 0.166896 0.237984
0.538224 0.167046 0.235205
0.47495 0.17806 0.152833
0.471626 0.179617 0.149662
0.603825 0.171985 0.149204
0.601559 0.171159 0.153084
0.602747 0.268344 0.346512
0.607902 0.267235 0.347336
0.611148 0.265592 0.348425
0.366849 0.361259 0.042259
0.522507 0.366355 0.0433554
0.38596 0.363944 0.0429895
0.532646 0.166292 0.237452
0.527657 0.166026 0.23742
0.522537 0.165783 0.237328
0.501456 0.166077 0.237303
0.686633 0.35088 0.0422549
0.668739 0.359268 0.0433901
0.647614 0.132972 0.0324176
0.48603 0.168238 0.158484
0.481041 0.171454 0.158442
0.696221 0.139314 0.0767069
0.652502 0.133345 0.0325498
0.472142 0.174339 0.149003
0.599231 0.175571 0.154532
0.649694 0.359449 0.0449218
0.591238 0.175215 0.15483
0.581375 0.169557 0.236504
0.397742 0.135632 0.00891541
0.60203 0.269154 0.348189
0.606403 0.268674 0.349103
0.642825 0.282513 0.0871252
0.520112 0.166099 0.239761
0.397935 0.282493 0.0838569
0.606772 0.12752 0.00635694
0.596936 0.128334 0.00580904
0.492751 0.167118 0.157027
0.460689 0.141877 0.0823279
0.526519 0.218834 0.349574
0.538343 0.217119 0.348749
0.586853 0.31864 0.231478
0.605508 0.169149 0.146315
0.580228 0.320001 0.230734
0.593851 0.175811 0.155943
0.553916 0.322039 0.234275
0.581635 0.17378 0.154887
0.578139 0.173501 0.154395
0.573214 0.173581 0.154702
0.541601 0.323205 0.233102
0.56226 0.174042 0.154376
0.536253 0.130492 0.00714772
0.562843 0.217624 0.352331
0.567714 0.217434 0.35221
0.572729 0.217169 0.352485
0.484036 0.167934 0.154106
0.58251 0.216179 0.352834
0.512664 0.222634 0.352305
0.472361 0.165197 0.148162
0.466424 0.163576 0.145682
0.462694 0.162129 0.144748
0.495599 0.166993 0.154938
0.490411 0.166108 0.152535
0.522072 0.221401 0.35362
0.637907 0.272291 0.0878578
0.479595 0.164744 0.14972
0.542647 0.323193 0.232343
0.557271 0.139792 0.0819617
0.562608 0.140057 0.0824009
0.461904 0.16048 0.144448
0.496059 0.163989 0.151545
0.491503 0.16368 0.150621
0.486645 0.163631 0.150408
0.483351 0.163172 0.14904
0.522707 0.12764 0.00597458
0.521754 0.223089 0.356342
0.527222 0.223122 0.35643
0.465067 0.158978 0.14526
0.461735 0.157738 0.144609
0.497677 0.161393 0.147793
0.494945 0.160291 0.147182
0.489463 0.160399 0.148132
0.476314 0.159737 0.146895
0.472956 0.158475 0.146849
0.532224 0.223442 0.356279
0.512678 0.126986 0.00573283
0.63827 0.267417 0.0881311
0.463479 0.154335 0.146647
0.535367 0.36161 0.147237
0.531366 0.362216 0.147688
0.583147 0.320717 0.232347
0.567376 0.140133 0.08202
0.572515 0.139852 0.0820058
0.392563 0.137101 0.0327358
0.496381 0.239167 0.349233
0.498362 0.237661 0.351867
0.499928 0.236373 0.354199
0.569201 0.235261 0.365319
0.493411 0.31996 0.22776
0.369736 0.272204 0.042573
0.62565 0.356648 0.146661
0.566843 0.249987 0.359176
0.371265 0.257754 0.0412773
0.569736 0.252392 0.358384
0.682339 0.262953 0.0794804
0.558746 0.254964 0.356227
0.572139 0.255614 0.356243
0.575099 0.257261 0.355608
0.512975 0.169102 0.160157
0.516685 0.169744 0.160301
0.595843 0.29846 0.232528
0.657203 0.140507 0.0770934
0.475295 0.184014 0.164486
0.600534 0.197938 0.161049
0.602533 0.202245 0.162787
0.473653 0.206774 0.157717
0.601319 0.207533 0.161056
0.692288 0.25825 0.07957
0.681724 0.258043 0.0794479
0.601762 0.257558 0.162918
0.537043 0.361681 0.148567
0.602555 0.282125 0.163735
0.493428 0.282618 0.231826
0.63837 0.257491 0.0878873
0.602497 0.287561 0.163611
0.500777 0.361637 0.148844
0.447352 0.141194 0.0826711
0.492 0.360201 0.149188
0.467568 0.141267 0.0825419
0.471085 0.298123 0.164768
0.472016 0.300626 0.167458
0.682226 0.253253 0.0785758
0.470958 0.305047 0.166969
0.601805 0.303966 0.163809
0.601232 0.308873 0.163567
0.370605 0.187196 0.04153
0.511234 0.374044 0.00294749
0.63779 0.252497 0.087409
0.432369 0.361203 0.148625
0.429105 0.362124 0.148733
0.370653 0.182307 0.0417044
0.681894 0.248084 0.0781178
0.472736 0.132329 0.033358
0.670551 0.2498 0.0823192
0.368442 0.178025 0.0424042
0.486232 0.32187 0.164139
0.491066 0.322773 0.164494
0.501477 0.32365 0.164577
0.506915 0.324188 0.164051
0.596751 0.268763 0.35274
0.368035 0.172446 0.042754
0.612073 0.267488 0.352104
0.637342 0.24755 0.0867237
0.367863 0.165988 0.0424307
0.418059 0.366973 0.00893199
0.692223 0.242701 0.0773394
0.370311 0.162524 0.0411749
0.6024 0.270143 0.352572
0.371987 0.358412 0.0487006
0.370637 0.15702 0.0410253
0.406867 0.366317 0.0497905
0.415831 0.365885 0.0514141
0.463256 0.364801 0.0470027
0.467833 0.364577 0.0477539
0.554748 0.364827 0.0501427
0.558386 0.364521 0.0496602
0.656705 0.242467 0.082417
0.566077 0.363989 0.0497776
0.642406 0.242585 0.0853096
0.557574 0.139633 0.0828953
0.592976 0.362087 0.04824
0.597827 0.361632 0.0481325
0.512751 0.359157 0.149998
0.502141 0.359368 0.150007
0.497533 0.359455 0.149991
0.492477 0.359654 0.14983
0.487653 0.359821 0.149821
0.56258 0.139893 0.0831174
0.485256 0.13475 0.0417637
0.567436 0.139988 0.0831134
0.572345 0.139742 0.0829582
0.477224 0.134455 0.0440537
0.577255 0.139336 0.0832713
0.582225 0.13882 0.0832481
0.587345 0.138004 0.0836605
0.411719 0.135489 0.0427855
0.406733 0.135908 0.0425038
0.371633 0.14132 0.0412829
0.592725 0.137209 0.0838791
0.598101 0.137321 0.0841868
0.60304 0.138239 0.0839343
0.602434 0.133259 0.0428252
0.597337 0.133869 0.0425398
0.592636 0.134525 0.0428497
0.479426 0.163725 0.156305
0.59718 0.215604 0.357479
0.601958 0.215913 0.357681
0.409076 0.366386 0.0481427
0.518784 0.222022 0.3537
0.480227 0.165489 0.157766
0.514495 0.168077 0.168617
0.52377 0.169781 0.167161
0.667485 0.236194 0.0820197
0.511909 0.132532 0.0434077
0.47261 0.364762 0.047813
0.477694 0.365002 0.0481661
0.482516 0.365353 0.0481781
0.517595 0.168705 0.167024
0.49269 0.134505 0.0432691
0.661471 0.236521 0.0822667
0.618111 0.141157 0.0837886
0.583021 0.355315 0.149861
0.577284 0.355325 0.149906
0.490479 0.186385 0.232634
0.603052 0.133409 0.0404648
0.475903 0.184171 0.168935
0.467379 0.189763 0.158097
0.600915 0.197899 0.166814
0.547478 0.356221 0.149667
0.542212 0.356657 0.150146
0.603048 0.201883 0.167416
0.603172 0.207296 0.167358
0.601229 0.226737 0.166103
0.602406 0.252787 0.167407
0.572848 0.363695 0.048168
0.476195 0.255342 0.169466
0.583155 0.167818 0.232258
0.52231 0.358091 0.150368
0.522819 0.223451 0.356574
0.527659 0.223416 0.356603
0.602847 0.361126 0.0477853
0.517854 0.357337 0.150383
0.612966 0.360572 0.047936
0.602753 0.282365 0.16791
0.601914 0.287336 0.166856
0.483132 0.357799 0.150477
0.477892 0.35808 0.15002
0.467399 0.35701 0.150144
0.473284 0.292539 0.169083
0.602278 0.292815 0.168274
0.571728 0.221244 0.358678
0.473473 0.302476 0.16455
0.437003 0.355711 0.148046
0.472024 0.306186 0.170596
0.586475 0.218239 0.358702
0.69168 0.145231 0.0771749
0.507807 0.22819 0.35704
0.532552 0.226064 0.359137
0.491272 0.321676 0.169032
0.506909 0.323491 0.168807
0.512594 0.323651 0.16811
0.517841 0.323798 0.168179
0.377647 0.358609 0.0468145
0.607448 0.350562 0.148738
0.583677 0.324307 0.1685
0.597514 0.351482 0.149909
0.566367 0.223572 0.360167
0.589339 0.32457 0.168712
0.597853 0.316023 0.165967
0.585099 0.170718 0.232283
0.470553 0.324294 0.16219
0.47897 0.317004 0.16471
0.465464 0.31758 0.160374
0.572625 0.322498 0.166283
0.57709 0.322207 0.165995
0.503268 0.232944 0.356718
0.521531 0.228172 0.362486
0.527361 0.228332 0.362358
0.457803 0.365383 0.0478143
0.533005 0.229378 0.361843
0.538088 0.230842 0.361408
0.369029 0.149124 0.0704423
0.59836 0.134547 0.0413699
0.489413 0.169473 0.170698
0.487105 0.36551 0.047531
0.494183 0.168424 0.169902
0.513958 0.168108 0.170962
0.552004 0.322192 0.226496
0.540795 0.323022 0.227882
0.552304 0.364651 0.0479556
0.527788 0.169423 0.170932
0.542036 0.170325 0.173385
0.503952 0.317348 0.22794
0.492616 0.168478 0.172222
0.681722 0.228808 0.0777048
0.67184 0.226716 0.0813371
0.619042 0.337943 0.149058
0.592436 0.36163 0.0476105
0.667621 0.226291 0.0819906
0.501196 0.242208 0.358535
0.522185 0.168957 0.172739
0.60019 0.169186 0.171841
0.662584 0.22647 0.0820972
0.496692 0.166995 0.172786
0.542772 0.169938 0.171995
0.479052 0.180738 0.169331
0.657311 0.22657 0.0821949
0.608233 0.33262 0.154286
0.633258 0.227385 0.0869088
0.562372 0.332623 0.152621
0.557482 0.332488 0.152801
0.542422 0.332124 0.152641
0.500858 0.247371 0.359305
0.412923 0.136455 0.0408394
0.439932 0.334608 0.143882
0.623588 0.329315 0.145276
0.477136 0.182228 0.171713
0.619133 0.32835 0.148178
0.427279 0.133833 0.0331963
0.35646 0.365831 0.0489782
0.478158 0.180019 0.173273
0.59813 0.18236 0.172481
0.583991 0.321455 0.227614
0.475967 0.186631 0.172374
0.603639 0.207327 0.172138
0.49656 0.134528 0.0393079
0.542593 0.323278 0.227145
0.462109 0.141802 0.0846792
0.582614 0.328319 0.154914
0.602583 0.227682 0.172384
0.45177 0.366512 0.036796
0.477762 0.25237 0.173261
0.467271 0.14182 0.0844882
0.544639 0.255504 0.36113
0.603114 0.252306 0.172502
0.478696 0.258722 0.169953
0.477402 0.257072 0.173242
0.548506 0.254226 0.359945
0.477086 0.264096 0.173444
0.477098 0.262233 0.173297
0.492418 0.311829 0.229282
0.492484 0.308575 0.227901
0.476043 0.272552 0.171132
0.602901 0.277676 0.172469
0.602833 0.282235 0.172556
0.602276 0.293101 0.172488
0.474423 0.297735 0.168586
0.475258 0.297473 0.171564
0.576263 0.254143 0.358827
0.475819 0.303255 0.171161
0.47377 0.303821 0.174198
0.624528 0.253059 0.356381
0.475703 0.307909 0.17126
0.624974 0.252112 0.358063
0.436973 0.367799 0.0365898
0.477973 0.318492 0.174333
0.432736 0.367429 0.0367854
0.633167 0.222363 0.0865563
0.507494 0.141601 0.0843586
0.487083 0.327741 0.154253
0.552227 0.257218 0.356399
0.557399 0.255513 0.355734
0.512377 0.322984 0.172682
0.517434 0.322842 0.17301
0.588743 0.324012 0.17293
0.595885 0.324681 0.173001
0.623641 0.324781 0.144322
0.621827 0.323749 0.145488
0.618727 0.323412 0.147215
0.655668 0.218406 0.0822806
0.501976 0.377618 0.00218837
0.479047 0.315124 0.169612
0.539214 0.264912 0.3607
0.507741 0.322589 0.172356
0.593327 0.323736 0.172746
0.566705 0.258411 0.352699
0.687556 0.212305 0.0781992
0.582316 0.321752 0.171401
0.68168 0.212441 0.0782058
0.651606 0.212952 0.0821441
0.413768 0.365276 0.0107926
0.606244 0.173518 0.175728
0.68766 0.207939 0.077926
0.682896 0.207497 0.0780114
0.489569 0.169615 0.176487
0.496448 0.168858 0.175808
0.543288 0.169929 0.176304
0.53244 0.325333 0.154754
0.527793 0.325578 0.155284
0.522386 0.326253 0.155759
0.517701 0.326516 0.15578
0.512562 0.326229 0.155625
0.507439 0.326112 0.155122
0.360773 0.36508 0.0362874
0.599125 0.269674 0.356758
0.493028 0.168561 0.177911
0.633121 0.151978 0.0827296
0.6877 0.201941 0.0782516
0.502333 0.326155 0.155331
0.496584 0.325905 0.155603
0.677439 0.202884 0.0791047
0.597574 0.214699 0.361828
0.601868 0.215454 0.363121
0.567338 0.171205 0.177723
0.573271 0.222952 0.358304
0.68783 0.154039 0.076794
0.480488 0.181038 0.175667
0.479004 0.184231 0.176252
0.602159 0.180307 0.176901
0.493029 0.212684 0.227305
0.598762 0.182011 0.177587
0.573543 0.223899 0.36045
0.476828 0.201941 0.176444
0.478177 0.206737 0.175967
0.479275 0.211728 0.175533
0.478814 0.212663 0.178011
0.450111 0.32243 0.14735
0.604081 0.212486 0.177574
0.565764 0.135317 0.0523512
0.442055 0.323399 0.143252
0.623249 0.318081 0.143107
0.479439 0.242373 0.178657
0.618429 0.318875 0.145985
0.522618 0.227999 0.36204
0.594613 0.320281 0.160782
0.492326 0.197216 0.227934
0.492449 0.198744 0.227071
0.476338 0.29724 0.176206
0.53249 0.228677 0.361069
0.601321 0.297381 0.177127
0.567111 0.226626 0.363675
0.650348 0.199658 0.0819903
0.602787 0.303881 0.177393
0.507927 0.233246 0.361569
0.473967 0.310644 0.180562
0.600859 0.308324 0.177541
0.599136 0.306964 0.177436
0.369917 0.167302 0.0308119
0.537611 0.232204 0.362661
0.599493 0.313201 0.17749
0.597456 0.311914 0.17729
0.583823 0.167756 0.227072
0.573604 0.166853 0.226721
0.562266 0.13535 0.0511456
0.47851 0.312546 0.176584
0.547561 0.168453 0.227176
0.688523 0.191808 0.0785883
0.506471 0.237442 0.362997
0.370124 0.172069 0.0311422
0.517034 0.322774 0.177695
0.572948 0.323123 0.177651
0.677076 0.192114 0.0790718
0.370229 0.177416 0.0314777
0.458822 0.317805 0.151007
0.583091 0.323349 0.177542
0.577062 0.168766 0.227656
0.623044 0.313064 0.142956
0.594093 0.324401 0.178056
0.600636 0.319963 0.177592
0.596034 0.316695 0.177451
0.533368 0.236332 0.365897
0.547431 0.168501 0.227393
0.62401 0.23717 0.362528
0.624396 0.238581 0.36231
0.501326 0.24403 0.358473
0.459574 0.313902 0.149883
0.683407 0.136575 0.0526425
0.446995 0.313826 0.144281
0.4419 0.314714 0.142085
0.438675 0.31396 0.140206
0.623734 0.308988 0.141863
0.370523 0.182463 0.0314324
0.604727 0.308085 0.154843
0.506542 0.242457 0.364451
0.402763 0.137804 0.052151
0.582172 0.170572 0.228376
0.596686 0.325294 0.17842
0.530078 0.239144 0.368438
0.533916 0.240986 0.367483
0.623483 0.304647 0.141891
0.568517 0.242078 0.361088
0.618038 0.303302 0.145259
0.547963 0.168654 0.22773
0.501064 0.248016 0.358911
0.469212 0.301781 0.155253
0.507812 0.168409 0.228745
0.441061 0.302603 0.140926
0.620752 0.298005 0.143243
0.617805 0.297696 0.145378
0.469001 0.298382 0.157078
0.567248 0.321608 0.17634
0.37046 0.187089 0.0313307
0.440287 0.298194 0.141106
0.620528 0.293111 0.142974
0.568518 0.246262 0.360037
0.577371 0.321427 0.176482
0.625241 0.248553 0.363802
0.50308 0.251816 0.361622
0.527433 0.134717 0.0523404
0.441903 0.292717 0.140978
0.619801 0.288539 0.143004
0.534791 0.254723 0.367116
0.53759 0.253283 0.365483
0.542753 0.253547 0.362344
0.562607 0.135237 0.0539278
0.599587 0.317231 0.22216
0.468881 0.286912 0.156045
0.592947 0.319725 0.176161
0.587385 0.318469 0.22208
0.582023 0.319706 0.224003
0.44074 0.289158 0.14046
0.437238 0.287239 0.139488
0.619513 0.283508 0.142875
0.576979 0.321259 0.222302
0.624604 0.253178 0.362804
0.624941 0.252154 0.362381
0.60379 0.282227 0.156231
0.469896 0.281469 0.155882
0.470295 0.280135 0.154756
0.534608 0.258572 0.366406
0.499583 0.315117 0.224421
0.688374 0.182828 0.0782122
0.645241 0.184579 0.0825706
0.618845 0.278561 0.142791
0.629831 0.183986 0.0846736
0.37039 0.192314 0.0313434
0.586674 0.319299 0.222288
0.493628 0.169558 0.183409
0.374723 0.144615 0.0520274
0.557281 0.322546 0.222244
0.465456 0.277714 0.14981
0.460736 0.277574 0.147901
0.618793 0.27352 0.142134
0.507943 0.166692 0.182437
0.522175 0.323711 0.222462
0.605063 0.272262 0.154054
0.537325 0.26288 0.362572
0.687437 0.16213 0.0770572
0.584103 0.322076 0.222784
0.465592 0.272719 0.14928
0.461091 0.272225 0.147701
0.490056 0.167646 0.18347
0.498836 0.316631 0.222418
0.446994 0.272718 0.143525
0.527793 0.134309 0.0532551
0.443304 0.271646 0.142343
0.438198 0.273395 0.141345
0.610932 0.372001 0.00308781
0.370509 0.197004 0.0314411
0.606692 0.267479 0.151559
0.542615 0.168699 0.182491
0.599496 0.18227 0.182342
0.602863 0.186303 0.182715
0.598549 0.212918 0.367655
0.480253 0.218053 0.18205
0.370595 0.201684 0.0317092
0.47992 0.222384 0.183091
0.469278 0.267736 0.150901
0.466178 0.268233 0.149242
0.460193 0.267606 0.147551
0.480655 0.227511 0.18022
0.442602 0.26748 0.141961
0.480024 0.227489 0.183196
0.480679 0.232537 0.180548
0.606322 0.262621 0.151585
0.61394 0.22182 0.366537
0.480579 0.237714 0.180749
0.479964 0.237452 0.183048
0.61369 0.221151 0.367601
0.469274 0.263242 0.150432
0.370663 0.207465 0.03207
0.606382 0.257632 0.15117
0.604444 0.257394 0.153499
0.366796 0.361526 0.0391079
0.478038 0.268009 0.180631
0.477997 0.268608 0.183045
0.475703 0.282331 0.184629
0.477221 0.293033 0.184732
0.477556 0.297259 0.181356
0.46391 0.255995 0.148025
0.456051 0.258148 0.146707
0.604318 0.252469 0.153488
0.472255 0.143834 0.0893944
0.46728 0.143903 0.0893929
0.619668 0.228567 0.367053
0.402985 0.136653 0.056358
0.461784 0.143364 0.0897102
0.467142 0.252514 0.149445
0.464617 0.252827 0.148251
0.47975 0.311887 0.181671
0.527148 0.23317 0.365728
0.370882 0.211756 0.0304648
0.606904 0.247505 0.149988
0.370881 0.216828 0.0308812
0.572296 0.323015 0.182279
0.370964 0.222396 0.0307203
0.675446 0.151314 0.0773872
0.473139 0.247342 0.15721
0.577824 0.323377 0.182652
0.58365 0.323646 0.182571
0.588437 0.323246 0.182561
0.465186 0.247449 0.148365
0.370942 0.22787 0.030917
0.457015 0.247875 0.146322
0.606006 0.242797 0.151127
0.576452 0.237687 0.36793
0.371125 0.232517 0.0311493
0.511215 0.241982 0.368486
0.516576 0.241279 0.370367
0.472078 0.241872 0.153753
0.465184 0.242632 0.148093
0.461227 0.243101 0.147011
0.599403 0.13902 0.0901763
0.452153 0.244778 0.145308
0.604413 0.237464 0.153134
0.577122 0.140644 0.0886853
0.625069 0.243129 0.366602
0.511166 0.247021 0.369305
0.370959 0.242515 0.032006
0.624804 0.247378 0.368082
0.625144 0.247806 0.366694
0.469858 0.238131 0.150546
0.502627 0.322021 0.180745
0.456305 0.237798 0.145301
0.587893 0.320068 0.182274
0.511801 0.252806 0.369274
0.454844 0.235923 0.144928
0.607563 0.232244 0.148752
0.605478 0.232775 0.1509
0.536867 0.252318 0.365663
0.624382 0.252808 0.367886
0.598361 0.138647 0.0883695
0.684976 0.353845 0.0369921
0.587691 0.138881 0.0879176
0.531987 0.257821 0.367883
0.577085 0.251439 0.361023
0.681207 0.139055 0.0526051
0.466314 0.232984 0.147889
0.567954 0.17031 0.187515
0.452655 0.232473 0.144463
0.606346 0.227056 0.149211
0.605133 0.227328 0.15109
0.582218 0.139699 0.087337
0.577039 0.140129 0.0863743
0.495789 0.167136 0.188688
0.629257 0.177157 0.0849145
0.518065 0.14169 0.0874104
0.491835 0.192687 0.221922
0.46885 0.226466 0.148985
0.479606 0.185454 0.18898
0.457181 0.227857 0.144534
0.512339 0.142376 0.0875796
0.448804 0.228437 0.142459
0.491686 0.180829 0.222839
0.604671 0.222598 0.151243
0.592851 0.261829 0.36725
0.596356 0.264807 0.368245
0.60096 0.267802 0.368802
0.368409 0.358593 0.0372664
0.686629 0.351253 0.0373845
0.544449 0.169479 0.220185
0.49405 0.179109 0.221312
0.591118 0.261756 0.363963
0.45713 0.222978 0.144113
0.45333 0.22326 0.143445
0.44898 0.222736 0.141616
0.604977 0.21808 0.150095
0.594884 0.26337 0.366319
0.573684 0.167191 0.221883
0.479904 0.252447 0.187196
0.532242 0.168449 0.22205
0.504518 0.142729 0.0842838
0.479959 0.25803 0.18744
0.469962 0.217712 0.15036
0.467541 0.217533 0.147909
0.462417 0.217523 0.145358
0.458022 0.217333 0.143899
0.454212 0.217255 0.143232
0.448938 0.217251 0.141354
0.606516 0.214665 0.147882
0.677226 0.178168 0.0777143
0.47767 0.28759 0.187592
0.41687 0.374449 0.0103149
0.584969 0.181798 0.37843
0.532635 0.16847 0.222555
0.527622 0.168292 0.223267
0.591597 0.214579 0.372248
0.468824 0.213054 0.149595
0.576005 0.230765 0.37312
0.462684 0.212052 0.145742
0.604439 0.207842 0.149631
0.603231 0.207491 0.152633
0.470873 0.207541 0.154193
0.468794 0.207394 0.150429
0.466941 0.207254 0.148766
0.604273 0.202977 0.149331
0.581461 0.225232 0.374258
0.677603 0.1813 0.0777913
0.466024 0.202103 0.148803
0.461945 0.201896 0.146627
0.457475 0.201735 0.144988
0.453626 0.201259 0.143905
0.686644 0.182773 0.0765443
0.576427 0.225335 0.372275
0.478159 0.311573 0.187411
0.470941 0.196904 0.155475
0.540411 0.169166 0.223847
0.524782 0.323154 0.187367
0.572676 0.323421 0.187413
0.461628 0.197201 0.146965
0.620376 0.231957 0.373243
0.487441 0.36224 0.0822965
0.449384 0.196925 0.142032
0.581463 0.320536 0.214913
0.466879 0.320928 0.187413
0.579048 0.236867 0.37178
0.563944 0.322464 0.219035
0.55682 0.32257 0.216289
0.488001 0.314261 0.187006
0.536569 0.323269 0.21736
0.46604 0.193052 0.149
0.462187 0.192587 0.147147
0.629506 0.187417 0.0857153
0.453457 0.192286 0.144119
0.58184 0.245376 0.375576
0.601998 0.185782 0.154909
0.624406 0.242637 0.372172
0.582626 0.322528 0.187722
0.587568 0.321556 0.187592
0.469143 0.187907 0.150251
0.466088 0.188261 0.148378
0.461816 0.187773 0.146644
0.58253 0.320565 0.217689
0.453076 0.187968 0.143977
0.507676 0.248475 0.365627
0.557679 0.322667 0.217663
0.547197 0.323007 0.217562
0.537687 0.323405 0.217438
0.58555 0.1737 0.154131
0.623287 0.245844 0.375556
0.622097 0.252254 0.375184
0.568121 0.172831 0.15401
0.623028 0.253643 0.373041
0.557736 0.173163 0.154043
0.35887 0.366581 0.0868551
0.548284 0.172959 0.153513
0.543409 0.172853 0.153289
0.538578 0.172478 0.152933
0.53314 0.172213 0.151921
0.476433 0.177802 0.154779
0.521884 0.323697 0.217701
0.469916 0.183951 0.149631
0.652253 0.20786 0.0822084
0.45699 0.181758 0.144573
0.364233 0.332848 0.010248
0.606213 0.174315 0.145466
0.603373 0.180059 0.150315
0.364574 0.327469 0.0104091
0.476517 0.323671 0.21376
0.477583 0.324047 0.211509
0.529563 0.16931 0.191404
0.364376 0.312999 0.0097578
0.4952 0.318111 0.219138
0.494804 0.169483 0.191492
0.498853 0.169672 0.191501
0.50631 0.169206 0.19268
0.653108 0.337512 0.0880446
0.517294 0.168584 0.193769
0.469608 0.178779 0.148339
0.452921 0.178211 0.143524
0.445511 0.177101 0.140588
0.595725 0.307088 0.217264
0.642767 0.212598 0.0841094
0.663449 0.330766 0.0879024
0.364077 0.302444 0.00985907
0.593907 0.201794 0.378356
0.595754 0.302394 0.217453
0.596985 0.299608 0.219057
0.371587 0.292448 0.0320544
0.512473 0.168146 0.192844
0.532454 0.169163 0.192964
0.602884 0.217433 0.377345
0.57735 0.169436 0.192483
0.582492 0.16979 0.192582
0.616819 0.227956 0.377754
0.371563 0.303153 0.0324626
0.618811 0.230217 0.375989
0.686645 0.212627 0.0771687
0.497063 0.166826 0.152463
0.580251 0.232137 0.376064
0.580441 0.232996 0.378197
0.480537 0.17088 0.154329
0.580435 0.236606 0.375072
0.444878 0.173076 0.140118
0.519998 0.24422 0.371953
0.57301 0.168901 0.192636
0.371565 0.307892 0.0313675
0.369823 0.297404 0.0378084
0.587114 0.172313 0.149575
0.371266 0.312332 0.0316995
0.369828 0.292507 0.0376569
0.623579 0.247708 0.378101
0.369747 0.287315 0.0376438
0.377312 0.357923 0.0522194
0.515266 0.255945 0.37038
0.375111 0.360563 0.0539433
0.408183 0.365746 0.0540033
0.592774 0.257152 0.376993
0.416994 0.365221 0.0561702
0.468988 0.36425 0.0522367
0.472461 0.363995 0.0539725
0.553477 0.364316 0.0536785
0.482078 0.183967 0.190877
0.562875 0.36366 0.0533007
0.567889 0.36353 0.0535398
0.572997 0.363246 0.0537441
0.578051 0.36301 0.0535048
0.582894 0.362657 0.0532139
0.587973 0.3622 0.0534026
0.593066 0.361767 0.0528805
0.597691 0.361328 0.0533598
0.596313 0.259395 0.378884
0.640209 0.318891 0.0887286
0.612788 0.360158 0.0532035
0.480593 0.187014 0.193613
0.541741 0.172913 0.149142
0.480504 0.185209 0.19306
0.369634 0.282858 0.0376403
0.594959 0.259284 0.375393
0.682044 0.217327 0.078051
0.364674 0.267259 0.0093222
0.490506 0.252222 0.215634
0.365629 0.237588 0.0104251
0.444394 0.167883 0.139584
0.60624 0.164671 0.144851
0.604049 0.167801 0.14679
0.492206 0.242464 0.218731
0.480533 0.202355 0.193295
0.363043 0.22707 0.00965119
0.481096 0.207346 0.192963
0.491562 0.232513 0.215071
0.481432 0.212425 0.193038
0.371414 0.35849 0.0530286
0.481601 0.217543 0.192826
0.491248 0.227269 0.215608
0.517299 0.171851 0.149372
0.574276 0.219704 0.389805
0.399705 0.364839 0.0557449
0.408031 0.364958 0.0550822
0.556426 0.219692 0.381521
0.491729 0.222603 0.219164
0.421971 0.365289 0.0546586
0.369647 0.277977 0.0375904
0.454418 0.365641 0.0542799
0.458007 0.365038 0.0533313
0.481744 0.222691 0.191287
0.482006 0.164788 0.150461
0.369463 0.273005 0.0378403
0.481866 0.228107 0.191187
0.446921 0.163148 0.140879
0.44473 0.162968 0.139467
0.361194 0.197713 0.0102872
0.457309 0.160003 0.143458
0.453327 0.159218 0.142636
0.447387 0.158634 0.140898
0.445353 0.159077 0.139486
0.48106 0.242223 0.191782
0.481298 0.244289 0.194254
0.48091 0.252536 0.191468
0.480964 0.257861 0.19144
0.490747 0.202453 0.21566
0.54316 0.365278 0.0536631
0.548255 0.364797 0.0535514
0.480463 0.262754 0.191468
0.480106 0.26245 0.192946
0.48001 0.271194 0.196789
0.369087 0.358595 0.0314087
0.479074 0.287576 0.191923
0.361351 0.19304 0.01035
0.480971 0.294199 0.194783
0.480893 0.297923 0.191305
0.491218 0.186339 0.218746
0.491256 0.188307 0.216299
0.491886 0.183571 0.215789
0.60745 0.360363 0.0530789
0.610129 0.224817 0.385225
0.483868 0.308112 0.191796
0.61829 0.231994 0.382678
0.463923 0.156689 0.145202
0.580565 0.323292 0.194764
0.456749 0.154347 0.143438
0.452585 0.152923 0.142117
0.447026 0.151932 0.140067
0.445132 0.152661 0.138657
0.584284 0.24228 0.381987
0.459197 0.153591 0.144688
0.585164 0.243117 0.384199
0.379238 0.302777 0.0880882
0.589419 0.250075 0.384547
0.522232 0.3235 0.192501
0.59172 0.253315 0.383208
0.595269 0.255732 0.384446
0.355811 0.368455 0.0525698
0.593517 0.255789 0.38135
0.466048 0.320388 0.193052
0.625283 0.357222 0.144616
0.361556 0.160697 0.0135688
0.667316 0.227603 0.0824343
0.582014 0.170774 0.217704
0.686675 0.227547 0.0759992
0.557307 0.128491 0.00647532
0.576181 0.169579 0.387399
0.552443 0.12876 0.00638769
0.537324 0.169495 0.218521
0.638549 0.232612 0.0858433
0.471206 0.129062 0.00558161
0.553787 0.202465 0.394
0.508094 0.17016 0.217723
0.549207 0.208539 0.392972
0.557156 0.212905 0.39246
0.552771 0.217509 0.387296
0.371157 0.232124 0.037087
0.498972 0.170527 0.19701
0.575009 0.168987 0.216761
0.572575 0.219859 0.389645
0.370922 0.222521 0.0362053
0.587073 0.216088 0.382019
0.507885 0.171029 0.21774
0.497987 0.169276 0.197481
0.506989 0.169382 0.197281
0.512403 0.168838 0.197499
0.537597 0.169884 0.197472
0.54295 0.169951 0.197252
0.577596 0.169666 0.1971
0.657614 0.232674 0.0823173
0.370865 0.217044 0.0360084
0.566935 0.128155 0.00340901
0.608897 0.226057 0.387788
0.514069 0.321563 0.211922
0.532561 0.169228 0.197559
0.612214 0.227813 0.387244
0.596756 0.326688 0.210464
0.370654 0.202132 0.0369751
0.370517 0.196522 0.0370239
0.472675 0.19145 0.185036
0.592402 0.361275 0.0526803
0.36816 0.19285 0.0377176
0.481708 0.192357 0.197522
0.61411 0.230987 0.389086
0.370745 0.187339 0.036673
0.586325 0.237622 0.387082
0.475538 0.318601 0.212918
0.615141 0.235541 0.390794
0.37072 0.181515 0.0367032
0.481862 0.262468 0.196538
0.480863 0.267352 0.196656
0.451957 0.357883 0.144395
0.446798 0.357658 0.144053
0.441855 0.358162 0.144442
0.48402 0.26592 0.202575
0.62472 0.357094 0.14387
0.370684 0.176895 0.0363767
0.36787 0.172185 0.0376222
0.542526 0.323404 0.212658
0.370254 0.167222 0.0359463
0.591406 0.248392 0.388571
0.588514 0.249397 0.38261
0.684996 0.354118 0.0319952
0.357364 0.365545 0.0525539
0.370074 0.162403 0.0359948
0.358795 0.371113 0.0336284
0.480724 0.287607 0.196215
0.481043 0.287446 0.197851
0.484261 0.288592 0.202982
0.481856 0.292626 0.197807
0.483224 0.305152 0.203432
0.482163 0.30715 0.199756
0.492369 0.128747 0.00321832
0.518762 0.323805 0.199355
0.547493 0.323448 0.197145
0.471296 0.325385 0.208412
0.583514 0.323746 0.197554
0.58763 0.178868 0.393029
0.584014 0.181604 0.393815
0.587345 0.321891 0.197316
0.465617 0.321043 0.19755
0.47061 0.31887 0.198337
0.442532 0.369147 0.0336709
0.448239 0.368111 0.0338815
0.548954 0.211057 0.392232
0.611749 0.227149 0.387507
0.606914 0.228085 0.39076
0.501769 0.171635 0.203094
0.505999 0.170548 0.200308
0.502709 0.361665 0.148019
0.432224 0.13382 0.0382477
0.487331 0.361749 0.147031
0.651015 0.13361 0.0372457
0.487005 0.180069 0.204954
0.486146 0.185517 0.205039
0.47356 0.193161 0.187892
0.485909 0.21278 0.205083
0.485765 0.21757 0.204842
0.522969 0.131822 0.0385181
0.484202 0.262721 0.202065
0.512304 0.131772 0.0381761
0.497296 0.133092 0.0382347
0.482527 0.134308 0.0377935
0.667696 0.242679 0.0825692
0.472706 0.133192 0.038402
0.453133 0.132382 0.0379638
0.407971 0.136072 0.0378906
0.672136 0.24291 0.0821088
0.483915 0.292565 0.201874
0.587528 0.361352 0.052151
0.47268 0.323323 0.20033
0.493877 0.316066 0.202176
0.612226 0.242396 0.392086
0.502324 0.319864 0.203231
0.506573 0.321586 0.203538
0.511632 0.322708 0.202966
0.52212 0.323884 0.202465
0.542537 0.323692 0.202486
0.352589 0.366719 0.0523637
0.547656 0.323565 0.202372
0.562395 0.323498 0.203092
0.5675 0.323669 0.202699
0.584383 0.324052 0.203482
0.590654 0.246005 0.389552
0.493566 0.3149 0.201793
0.517495 0.323107 0.202457
0.527449 0.323502 0.202828
0.603198 0.247969 0.39308
0.562085 0.323047 0.20142
0.503058 0.172318 0.207276
0.43308 0.134394 0.0373945
0.552491 0.2013 0.393764
0.537659 0.170521 0.207831
0.543107 0.170956 0.207301
0.548384 0.170683 0.207694
0.552842 0.170222 0.207166
0.572366 0.130335 0.00413856
0.501687 0.169961 0.207783
0.552407 0.170002 0.20782
0.542803 0.170222 0.205606
0.547837 0.170323 0.206048
0.490722 0.227605 0.214415
0.490289 0.226939 0.213425
0.486808 0.188144 0.205265
0.576156 0.361465 0.0535955
0.487648 0.188077 0.207022
0.488134 0.185685 0.209407
0.452572 0.365358 0.0514336
0.487956 0.191572 0.208896
0.487601 0.201978 0.208736
0.489445 0.222288 0.211607
0.486351 0.207687 0.205755
0.487401 0.206846 0.207859
0.487828 0.212603 0.208736
0.546608 0.363316 0.0516201
0.487629 0.218084 0.208087
0.434305 0.134538 0.0368927
0.567743 0.131468 0.00438197
0.491291 0.318913 0.210956
0.493529 0.313145 0.206677
0.598735 0.216369 0.388621
0.510427 0.322308 0.207838
0.515992 0.323291 0.20791
0.521437 0.323702 0.207315
0.542658 0.323703 0.207958
0.56254 0.323458 0.2076
0.584801 0.323865 0.208183
0.480528 0.315318 0.208491
0.490105 0.195871 0.215033
0.489808 0.197342 0.213584
0.472799 0.358544 0.150292
0.583086 0.217853 0.385388
0.58832 0.21822 0.386206
0.507992 0.320128 0.207544
0.489985 0.191049 0.214179
0.522418 0.323391 0.207328
0.542266 0.323481 0.207181
0.490242 0.185292 0.214451
0.591535 0.220711 0.386149
0.523345 0.13491 0.0567746
0.525467 0.135289 0.0581129
0.360625 0.366214 0.0312583
0.562955 0.135355 0.0572947
0.568776 0.134993 0.0579547
0.667619 0.257263 0.0833348
0.585899 0.23116 0.387384
0.613873 0.242962 0.391089
0.503254 0.172154 0.212561
0.50801 0.171028 0.212389
0.578708 0.168725 0.212443
0.639184 0.255928 0.087695
0.557353 0.169177 0.212346
0.587263 0.35367 0.149929
0.552501 0.16985 0.212231
0.547689 0.17053 0.212385
0.465194 0.129206 0.00395084
0.562417 0.353666 0.149835
0.46289 0.129222 0.00373908
0.547643 0.355466 0.150065
0.507148 0.170167 0.212588
0.447438 0.351189 0.144183
0.442546 0.351342 0.144023
0.501867 0.170244 0.212462
0.632025 0.362329 0.0312053
0.586511 0.171975 0.212692
0.582103 0.170793 0.21277
0.627148 0.362448 0.0315393
0.572548 0.168821 0.212682
0.567408 0.168554 0.212423
0.562491 0.168919 0.212355
0.622026 0.362749 0.0312139
0.594341 0.167379 0.209614
0.617378 0.362936 0.0309989
0.495947 0.170316 0.21276
0.443939 0.342121 0.143467
0.607548 0.362981 0.0329115
0.603253 0.363161 0.0325386
0.499103 0.171392 0.212295
0.637205 0.361889 0.0316077
0.642116 0.361566 0.0314948
0.597839 0.363946 0.031154
0.444333 0.338136 0.144054
0.440236 0.338687 0.144607
0.647062 0.36121 0.0316004
0.578597 0.1705 0.211295
0.594513 0.364151 0.0300902
0.65251 0.360915 0.031532
0.656912 0.360588 0.0317058
0.492141 0.178223 0.20889
0.661805 0.360374 0.0316137
0.582247 0.363862 0.0327541
0.600271 0.320104 0.205785
0.444793 0.332946 0.145553
0.577218 0.36396 0.0323344
0.590904 0.319439 0.205307
0.576888 0.322074 0.207049
0.623784 0.328495 0.144606
0.572942 0.32266 0.208401
0.556268 0.322882 0.208221
0.527114 0.134998 0.0570086
0.552139 0.32284 0.208441
0.572167 0.364133 0.0322912
0.59364 0.178908 0.211388
0.475033 0.318293 0.207599
0.596441 0.326349 0.205376
0.490682 0.180533 0.213498
0.586664 0.320102 0.20771
0.582279 0.321148 0.207249
0.554308 0.322863 0.205927
0.529959 0.323246 0.209721
0.595416 0.18174 0.21286
0.479 0.315101 0.205593
0.372118 0.363061 0.0310264
0.377909 0.363207 0.0311491
0.383943 0.364372 0.0312186
0.56747 0.323332 0.207256
0.594187 0.183239 0.211394
0.595473 0.186891 0.212851
0.595532 0.192245 0.212903
0.488058 0.197678 0.208993
0.388312 0.365011 0.0312645
0.392904 0.36568 0.0313618
0.595548 0.197306 0.212938
0.402752 0.367206 0.0321629
0.417511 0.367866 0.0322606
0.422942 0.368419 0.0317627
0.590852 0.323956 0.208476
0.595993 0.201637 0.212226
0.445194 0.327741 0.145804
0.48968 0.207064 0.213458
0.374726 0.145396 0.0566
0.567186 0.364567 0.0318486
0.481165 0.320998 0.205851
0.478207 0.322185 0.205261
0.432551 0.368424 0.0321341
0.605853 0.322597 0.154787
0.437489 0.368408 0.0321962
0.562444 0.364928 0.0324683
0.452306 0.366702 0.0310647
0.58269 0.325547 0.156566
0.45753 0.366085 0.0311608
0.472587 0.366825 0.031021
0.485097 0.318307 0.206445
0.486982 0.367905 0.0311273
0.492148 0.367309 0.0314096
0.49718 0.367067 0.0309133
0.599484 0.30959 0.208701
0.587157 0.363297 0.0310861
0.601687 0.363571 0.0307777
0.599331 0.303712 0.208637
0.524132 0.134096 0.0561104
0.606973 0.363486 0.0302898
0.612204 0.363201 0.0307322
0.487171 0.303211 0.205876
0.599145 0.297585 0.205581
0.598661 0.297443 0.207468
0.599388 0.298416 0.208615
0.486789 0.29774 0.206175
0.495941 0.326187 0.155126
0.567599 0.134461 0.0573401
0.59919 0.293088 0.205682
0.598894 0.292327 0.20731
0.397475 0.366952 0.0293878
0.486512 0.292621 0.206181
0.59916 0.287276 0.205762
0.464854 0.322648 0.155265
0.598897 0.287633 0.207313
0.422938 0.36813 0.0302309
0.438099 0.368587 0.029474
0.485984 0.287677 0.206261
0.621764 0.318321 0.146016
0.598701 0.282394 0.207381
0.445195 0.134201 0.0372806
0.481587 0.282562 0.199845
0.446601 0.133913 0.0346348
0.598754 0.277437 0.206896
0.468026 0.133532 0.036822
0.572642 0.325378 0.154868
0.504345 0.132818 0.0349476
0.506306 0.133069 0.0368293
0.557045 0.325363 0.154769
0.52886 0.133155 0.0348978
0.669099 0.13476 0.0342847
0.673007 0.135157 0.0349759
0.598837 0.272414 0.207014
0.678095 0.135687 0.0353516
0.696533 0.13334 0.0362178
0.389262 0.138518 0.0365392
0.402625 0.137241 0.0376393
0.598958 0.267571 0.206834
0.374099 0.145312 0.0572438
0.418968 0.135624 0.036577
0.485957 0.26772 0.206037
0.599076 0.262385 0.206902
0.595552 0.212101 0.214693
0.445102 0.318216 0.143954
0.48649 0.262395 0.206122
0.59998 0.257069 0.20429
0.622462 0.314343 0.144746
0.599015 0.257447 0.208106
0.48675 0.257553 0.206243
0.600009 0.252549 0.204315
0.599012 0.252462 0.208189
0.489581 0.252877 0.210184
0.487195 0.252946 0.205895
0.599972 0.247961 0.203965
0.465649 0.312307 0.153811
0.598952 0.247516 0.208104
0.487478 0.247507 0.206099
0.449393 0.312781 0.145297
0.599839 0.242083 0.203882
0.598706 0.24251 0.208054
0.457633 0.132848 0.0362875
0.48734 0.242789 0.205677
0.59921 0.237603 0.205701
0.598559 0.237436 0.207905
0.489178 0.23726 0.208902
0.488801 0.232244 0.20877
0.462072 0.307843 0.150597
0.442046 0.308382 0.141671
0.487435 0.232621 0.205879
0.598681 0.227747 0.205405
0.597844 0.227201 0.208835
0.604621 0.304211 0.15588
0.464038 0.13302 0.036746
0.47123 0.304788 0.156544
0.487215 0.227722 0.205958
0.464928 0.30253 0.151292
0.598389 0.222599 0.205072
0.486829 0.222616 0.205918
0.598138 0.217737 0.20508
0.597483 0.217389 0.207367
0.595757 0.212529 0.211142
0.489833 0.217466 0.213836
0.466466 0.13313 0.0360649
0.504307 0.133077 0.0370156
0.464623 0.297911 0.151047
0.509205 0.132231 0.0359105
0.523187 0.132427 0.0357267
0.541617 0.135091 0.0355267
0.54727 0.135913 0.0369858
0.619007 0.292672 0.144643
0.552784 0.13595 0.0370958
0.464248 0.292269 0.150782
0.557658 0.135613 0.0361864
0.438548 0.291884 0.139689
0.623094 0.288449 0.139918
0.562367 0.135234 0.0371862
0.486614 0.202059 0.206191
0.566629 0.134724 0.036765
0.571978 0.134676 0.0367391
0.577316 0.134959 0.0369315
0.582416 0.135305 0.0364733
0.462265 0.287687 0.149664
0.486021 0.197516 0.205173
0.437549 0.289204 0.139308
0.587694 0.135472 0.0367595
0.621372 0.283435 0.141483
0.592222 0.135287 0.0366379
0.497441 0.366977 0.0324475
0.486483 0.193081 0.205448
0.5959 0.187796 0.206205
0.597805 0.13471 0.0365727
0.595297 0.183184 0.206098
0.462466 0.282693 0.149487
0.596416 0.178138 0.208836
0.490002 0.179545 0.211374
0.620758 0.278338 0.141135
0.608843 0.133417 0.0372893
0.470883 0.274598 0.153891
0.612064 0.133254 0.0363379
0.585324 0.169367 0.205939
0.580634 0.168532 0.205449
0.574226 0.168302 0.20545
0.617419 0.133383 0.037459
0.622001 0.272856 0.13879
0.620459 0.273049 0.140615
0.557482 0.169159 0.206046
0.537306 0.169867 0.205633
0.532982 0.169493 0.206051
0.515841 0.168736 0.206023
0.510928 0.169178 0.206546
0.622415 0.133186 0.0365225
0.627536 0.133155 0.037082
0.632307 0.133178 0.0365172
0.637257 0.133348 0.0372749
0.641787 0.133407 0.0364211
0.646087 0.133949 0.0370885
0.657529 0.13422 0.0371769
0.578235 0.169013 0.207264
0.44012 0.274643 0.141498
0.438129 0.275838 0.141184
0.622234 0.268052 0.138221
0.619771 0.268083 0.140737
0.57307 0.168818 0.20751
0.66244 0.134277 0.0363972
0.562506 0.168968 0.2074
0.45224 0.367069 0.0323784
0.49062 0.232587 0.212908
0.537562 0.170242 0.207502
0.53263 0.169895 0.207421
0.527557 0.169674 0.207576
0.522362 0.169417 0.207509
0.444842 0.268093 0.143244
0.517351 0.169317 0.207523
0.512272 0.169913 0.207592
0.621859 0.262655 0.138412
0.619376 0.262885 0.140882
0.507166 0.170176 0.207693
0.495944 0.169647 0.208117
0.667459 0.134811 0.0367241
0.673646 0.135825 0.0376572
0.464924 0.262066 0.149263
0.452981 0.262456 0.146621
0.621868 0.258198 0.138303
0.619642 0.257859 0.140471
0.596661 0.232501 0.212674
0.688504 0.134852 0.0372914
0.377889 0.143578 0.0374279
0.38393 0.141422 0.0370173
0.49155 0.238178 0.214682
0.522486 0.169657 0.206647
0.507934 0.170685 0.207017
0.49897 0.171029 0.20729
0.621639 0.252592 0.138156
0.619317 0.253055 0.140545
0.4382 0.134245 0.0373618
0.581694 0.171163 0.207453
0.442756 0.133942 0.0372891
0.490178 0.24228 0.211852
0.577128 0.322097 0.204252
0.475251 0.317931 0.202538
0.591703 0.320022 0.201113
0.622099 0.247877 0.137817
0.489967 0.247328 0.212125
0.58227 0.321476 0.20224
0.572088 0.323101 0.201293
0.490998 0.247444 0.214122
0.540339 0.323301 0.202017
0.486352 0.3139 0.199674
0.481196 0.314035 0.201447
0.39755 0.36718 0.0325743
0.489459 0.257674 0.21273
0.618856 0.2432 0.140189
0.616534 0.242809 0.142019
0.572679 0.323442 0.202905
0.489306 0.262367 0.212402
0.481357 0.313581 0.202224
0.471986 0.321621 0.202781
0.463093 0.242181 0.148162
0.48951 0.267313 0.212669
0.372749 0.361544 0.0321262
0.680067 0.357598 0.0318013
0.616322 0.237531 0.14176
0.541871 0.135416 0.038429
0.489129 0.278052 0.212156
0.491018 0.278133 0.215072
0.599755 0.314756 0.204732
0.597022 0.277302 0.215453
0.462695 0.237241 0.147692
0.594147 0.134314 0.0361464
0.476039 0.320467 0.199091
0.597591 0.133952 0.0375277
0.599984 0.308919 0.203447
0.485135 0.304003 0.206462
0.484706 0.303429 0.199215
0.600131 0.297331 0.201693
0.48556 0.299326 0.205372
0.48352 0.297883 0.198575
0.470063 0.231616 0.151247
0.600152 0.292646 0.202312
0.462313 0.232226 0.147335
0.458635 0.232423 0.146122
0.692744 0.134465 0.037671
0.48282 0.282227 0.202374
0.480416 0.282963 0.196703
0.491132 0.282082 0.215067
0.597029 0.280937 0.216046
0.387364 0.138331 0.0376229
0.397744 0.136997 0.0374444
0.478825 0.276913 0.196035
0.416126 0.135381 0.0372228
0.491453 0.287925 0.215087
0.492237 0.287131 0.217556
0.597161 0.287563 0.215741
0.60097 0.2569 0.201158
0.620301 0.223517 0.137994
0.601067 0.252517 0.20141
0.600849 0.247609 0.201453
0.485202 0.247577 0.201895
0.600839 0.242641 0.201185
0.485073 0.241712 0.202077
0.483405 0.241888 0.198554
0.469681 0.222919 0.150683
0.60046 0.237367 0.202027
0.456906 0.222304 0.145209
0.485465 0.237635 0.202814
0.60052 0.233137 0.200962
0.600074 0.232253 0.203239
0.607627 0.217582 0.147582
0.483798 0.232944 0.198702
0.600233 0.228045 0.200572
0.372627 0.357801 0.0595686
0.485462 0.227744 0.202825
0.484031 0.227831 0.198872
0.420658 0.364282 0.0620281
0.599533 0.222626 0.201962
0.549616 0.363889 0.0578966
0.485181 0.223199 0.202906
0.558246 0.363211 0.0577777
0.483868 0.22243 0.199215
0.567837 0.362965 0.0584069
0.573038 0.362795 0.0584032
0.57752 0.362547 0.0589561
0.582709 0.362302 0.0583453
0.587825 0.362024 0.0584395
0.599311 0.217528 0.201909
0.597867 0.361262 0.0578811
0.48463 0.218017 0.202126
0.608182 0.3605 0.0580191
0.613121 0.360096 0.0582851
0.483856 0.217149 0.199372
0.567123 0.134154 0.0375345
0.457607 0.217638 0.145288
0.484799 0.212618 0.202415
0.48389 0.212068 0.199443
0.599838 0.208015 0.199712
0.571831 0.134075 0.0374747
0.484787 0.207502 0.202553
0.483759 0.206994 0.199535
0.599405 0.202347 0.199519
0.485065 0.202168 0.203387
0.48405 0.201951 0.200507
0.598977 0.197472 0.199573
0.484569 0.196985 0.203114
0.48558 0.195785 0.204302
0.452728 0.214118 0.14283
0.483928 0.197966 0.200708
0.480017 0.195409 0.191415
0.377755 0.358155 0.0573236
0.618935 0.210176 0.13776
0.60738 0.207414 0.14654
0.598346 0.192788 0.199309
0.396636 0.364483 0.0588932
0.401622 0.364725 0.0583381
0.406264 0.364462 0.0593977
0.414702 0.364185 0.0596947
0.59732 0.186822 0.199171
0.422651 0.364555 0.0599033
0.484883 0.186881 0.202705
0.449422 0.365422 0.0604787
0.453115 0.365435 0.0584173
0.483744 0.187947 0.198946
0.597576 0.183024 0.198351
0.486492 0.183965 0.201399
0.484988 0.183793 0.19853
0.463638 0.207078 0.147521
0.607117 0.202539 0.146098
0.529903 0.169368 0.204431
0.520265 0.169012 0.203671
0.487047 0.179961 0.200505
0.597762 0.29263 0.214863
0.507455 0.364956 0.0579514
0.512411 0.365333 0.0579482
0.517572 0.365558 0.0581908
0.522751 0.365729 0.0582345
0.659549 0.133161 0.0357957
0.533081 0.365401 0.0584714
0.537988 0.365046 0.0582359
0.542858 0.364485 0.0585285
0.668789 0.133853 0.0365526
0.501175 0.169169 0.203067
0.557367 0.363059 0.0585542
0.598489 0.168701 0.198117
0.581995 0.170818 0.201684
0.546853 0.17051 0.202296
0.542183 0.170632 0.202525
0.498223 0.170124 0.202516
0.493733 0.169176 0.201167
0.594009 0.361564 0.0569919
0.58883 0.171947 0.199649
0.597822 0.296939 0.215517
0.472265 0.366756 0.033539
0.539008 0.323217 0.197039
0.606924 0.197799 0.145995
0.491157 0.305928 0.217115
0.57758 0.322314 0.197049
0.567731 0.322975 0.1974
0.557438 0.322905 0.198027
0.597617 0.303083 0.213693
0.532427 0.323454 0.197596
0.527387 0.323518 0.197333
0.522064 0.323509 0.197329
0.605522 0.192097 0.149063
0.597622 0.308341 0.213765
0.562064 0.134003 0.0381803
0.552349 0.323118 0.197387
0.597728 0.314165 0.213948
0.487632 0.312666 0.196302
0.51681 0.322995 0.212449
0.441733 0.190327 0.137703
0.597959 0.312105 0.196689
0.481444 0.318103 0.200847
0.527538 0.32371 0.212173
0.577235 0.134038 0.0381984
0.582385 0.134318 0.0380737
0.532633 0.323611 0.212028
0.537522 0.323715 0.211949
0.54767 0.323435 0.21211
0.600899 0.297083 0.197011
0.591557 0.134247 0.0381891
0.412499 0.364061 0.0579431
0.562461 0.323218 0.212471
0.567763 0.323518 0.212372
0.573609 0.323625 0.212718
0.583881 0.322622 0.21316
0.479107 0.282899 0.193651
0.682182 0.356604 0.0324406
0.480415 0.277472 0.198757
0.522313 0.323386 0.212975
0.60486 0.181266 0.150572
0.481509 0.272302 0.200103
0.572844 0.323238 0.212609
0.602124 0.26235 0.197292
0.484543 0.247324 0.20144
0.601942 0.232756 0.195942
0.601865 0.227595 0.196002
0.601548 0.212052 0.195751
0.601164 0.206267 0.195602
0.601239 0.207848 0.196253
0.600387 0.19766 0.196117
0.600552 0.197603 0.196371
0.482059 0.197953 0.196197
0.599887 0.192705 0.195316
0.599551 0.192428 0.196355
0.600254 0.190991 0.199517
0.481843 0.193205 0.196073
0.59864 0.18703 0.195384
0.599691 0.184909 0.201314
0.598586 0.183185 0.195594
0.572891 0.168541 0.199675
0.557242 0.169185 0.19867
0.517147 0.168595 0.199779
0.485051 0.178841 0.196444
0.642801 0.361787 0.0334607
0.370642 0.207537 0.0369613
0.527484 0.169234 0.197651
0.522543 0.16905 0.197702
0.370768 0.212421 0.0359505
0.485774 0.176741 0.193943
0.368794 0.212771 0.0377494
0.503147 0.170983 0.220793
0.542623 0.172679 0.149554
0.36893 0.217709 0.0377741
0.532738 0.172267 0.149045
0.52795 0.172197 0.148896
0.52348 0.171934 0.14831
0.50035 0.171771 0.219223
0.513298 0.171444 0.147327
0.503036 0.169722 0.197118
0.55474 0.169331 0.218703
0.558267 0.169029 0.218185
0.567317 0.168603 0.217792
0.606534 0.17944 0.147173
0.604904 0.178391 0.150011
0.573043 0.168655 0.218661
0.524464 0.169361 0.195568
0.587155 0.172771 0.218697
0.369334 0.232552 0.0379962
0.578444 0.17073 0.149702
0.572693 0.170412 0.148762
0.567344 0.171346 0.149663
0.503043 0.17033 0.217674
0.54767 0.170177 0.21759
0.562337 0.171621 0.14955
0.557675 0.171935 0.149447
0.552731 0.172068 0.149187
0.596258 0.325828 0.19231
0.37101 0.241749 0.0370975
0.592165 0.320149 0.191841
0.577685 0.32211 0.192401
0.572514 0.322702 0.192911
0.567853 0.322789 0.192844
0.562819 0.322762 0.192824
0.557618 0.322703 0.192857
0.552416 0.322729 0.192445
0.547431 0.322886 0.192743
0.537817 0.323129 0.192685
0.532305 0.323214 0.192728
0.457448 0.364397 0.0569414
0.527372 0.323311 0.192624
0.592912 0.322985 0.192558
0.482388 0.313466 0.192124
0.508029 0.170135 0.147817
0.493355 0.178798 0.215304
0.599664 0.318145 0.192541
0.444184 0.178422 0.139955
0.48891 0.315259 0.192582
0.618966 0.171787 0.136449
0.59825 0.312149 0.191782
0.48413 0.311478 0.189051
0.599723 0.307103 0.191678
0.522567 0.365117 0.0566304
0.498899 0.366777 0.0353995
0.390056 0.366923 0.0321822
0.60093 0.302284 0.191549
0.542387 0.363859 0.0567547
0.594875 0.181874 0.217572
0.593947 0.182799 0.217238
0.601598 0.297266 0.191598
0.593446 0.183001 0.216643
0.595667 0.186034 0.217816
0.593669 0.187793 0.216429
0.490805 0.192603 0.216104
0.582235 0.361509 0.0567759
0.587562 0.361124 0.0574003
0.370882 0.246605 0.0368614
0.370867 0.250424 0.0368711
0.477311 0.280786 0.189455
0.594045 0.192571 0.216564
0.477962 0.276716 0.189852
0.588241 0.169828 0.149633
0.582607 0.169437 0.147843
0.577134 0.170063 0.148375
0.371096 0.26278 0.0365253
0.490874 0.197216 0.216135
0.478872 0.272455 0.194041
0.572716 0.170654 0.149087
0.397353 0.363771 0.0561291
0.491259 0.197254 0.218579
0.602967 0.262356 0.192007
0.594863 0.19742 0.217634
0.603023 0.258749 0.19056
0.603238 0.257629 0.191848
0.567053 0.170231 0.14766
0.56269 0.170473 0.147617
0.491357 0.202359 0.218205
0.594599 0.202391 0.21779
0.603359 0.252684 0.191273
0.371135 0.267363 0.0364684
0.491348 0.207432 0.218646
0.594683 0.207267 0.217897
0.595005 0.212496 0.217778
0.490822 0.217689 0.216005
0.49133 0.217545 0.218334
0.595388 0.227533 0.21743
0.571892 0.361578 0.0568328
0.577029 0.361189 0.0569472
0.582064 0.360654 0.0579962
0.480067 0.197641 0.19387
0.479691 0.197695 0.191097
0.491071 0.257394 0.218448
0.480448 0.187979 0.191207
0.599759 0.183305 0.191468
0.491099 0.26255 0.218315
0.567051 0.169151 0.191789
0.491249 0.26748 0.218003
0.596289 0.267355 0.218614
0.518499 0.364121 0.0556842
0.483355 0.180281 0.189885
0.491521 0.27256 0.218488
0.537105 0.363928 0.054818
0.493029 0.27413 0.221511
0.491262 0.282365 0.217789
0.547091 0.169223 0.1921
0.596353 0.282432 0.218797
0.501777 0.168184 0.19306
0.596474 0.287079 0.218791
0.369759 0.297203 0.0326176
0.491554 0.29237 0.217495
0.369605 0.287733 0.0327687
0.369474 0.282841 0.0324864
0.597604 0.31111 0.220431
0.369357 0.277779 0.0325886
0.564882 0.170547 0.193597
0.527339 0.323781 0.217356
0.547806 0.323077 0.21769
0.448429 0.135497 0.0615222
0.56263 0.323166 0.217569
0.474842 0.171731 0.151484
0.443992 0.173052 0.139308
0.573615 0.323026 0.218022
0.6092 0.169894 0.143827
0.590307 0.322087 0.217839
0.36922 0.272377 0.03277
0.600403 0.320705 0.187387
0.559452 0.135637 0.0627878
0.592296 0.31967 0.187318
0.567298 0.135041 0.0619995
0.486521 0.313504 0.218186
0.369053 0.267148 0.0326252
0.578041 0.322037 0.187858
0.567325 0.322473 0.187823
0.562839 0.322422 0.187724
0.552491 0.322309 0.18765
0.547582 0.170329 0.145269
0.542408 0.16942 0.144276
0.54673 0.322545 0.187917
0.542346 0.32257 0.187811
0.532314 0.322834 0.187386
0.527373 0.322917 0.187713
0.516493 0.170328 0.145359
0.572167 0.32286 0.217786
0.593397 0.323602 0.187581
0.587246 0.320306 0.217617
0.557533 0.322588 0.187407
0.371044 0.266443 0.029481
0.587176 0.319156 0.216837
0.368968 0.262335 0.0326721
