0.557428 0.32918 0.153855
0.552842 0.329262 0.15376
0.547421 0.329517 0.153368
0.542536 0.329946 0.15328
0.537731 0.330396 0.153293
0.532491 0.330259 0.153409
0.527815 0.329827 0.154063
0.522465 0.329608 0.154269
0.517572 0.329524 0.154232
0.512613 0.329669 0.153447
0.507667 0.329857 0.153127
0.682796 0.138186 0.0560803
0.501958 0.329463 0.153278
0.496238 0.329529 0.153965
0.491343 0.329808 0.154169
0.465852 0.328372 0.155355
0.460605 0.328058 0.154267
0.445194 0.327741 0.145804
0.4419 0.328709 0.143553
0.374726 0.145396 0.0566
0.62178 0.323935 0.146424
0.622738 0.323498 0.144889
0.623405 0.323491 0.144127
0.621099 0.322909 0.145903
0.605853 0.322597 0.154787
0.600922 0.323594 0.156519
0.594576 0.324887 0.15762
0.588536 0.325709 0.157638
0.58269 0.325547 0.156566
0.57799 0.326091 0.154933
0.572665 0.32632 0.153928
0.567675 0.326485 0.154339
0.562512 0.326561 0.154152
0.557233 0.326482 0.153983
0.552331 0.326266 0.153611
0.547542 0.326294 0.153375
0.54236 0.326306 0.153289
0.537769 0.326332 0.153704
0.533213 0.326466 0.154191
0.524132 0.134096 0.0561104
0.528374 0.134553 0.0570985
0.527669 0.3268 0.15469
0.522783 0.327242 0.154277
0.517493 0.327315 0.154042
0.51263 0.327193 0.153577
0.507381 0.327096 0.153072
0.501672 0.326721 0.153765
0.495941 0.326187 0.155126
0.567599 0.134461 0.0573401
0.490927 0.325899 0.155913
0.485602 0.325131 0.156122
0.480904 0.324223 0.156582
0.476743 0.32457 0.156856
0.469884 0.323371 0.156467
0.464854 0.322648 0.155265
0.460057 0.322359 0.153498
0.448678 0.322526 0.14675
0.445137 0.322716 0.145258
0.442109 0.323353 0.143598
0.621764 0.318321 0.146016
0.622877 0.318604 0.144067
0.623017 0.318162 0.143563
0.620313 0.317837 0.145231
0.601491 0.319231 0.156611
0.584023 0.323745 0.157877
0.578632 0.324807 0.155875
0.572642 0.325378 0.154868
0.567672 0.325655 0.154909
0.561794 0.325902 0.154769
0.557045 0.325363 0.154769
0.55153 0.325279 0.154251
0.54706 0.324845 0.154147
0.543124 0.324898 0.154216
0.538099 0.324918 0.154385
0.533252 0.32556 0.154673
0.528598 0.325776 0.155299
0.500497 0.326979 0.154093
0.492909 0.324419 0.156459
0.488297 0.322587 0.157818
0.374099 0.145312 0.0572438
0.469218 0.317234 0.155992
0.464457 0.317669 0.15455
0.460432 0.318009 0.152481
0.448767 0.318135 0.145991
0.445102 0.318216 0.143954
0.442288 0.318178 0.14231
0.621741 0.315493 0.145833
0.622462 0.314343 0.144746
0.623074 0.313362 0.143117
0.619707 0.312948 0.145011
0.60247 0.313811 0.156719
0.542902 0.324658 0.154253
0.539528 0.32526 0.153673
0.483102 0.320491 0.15864
0.468627 0.313251 0.155682
0.465649 0.312307 0.153811
0.460932 0.312664 0.151407
0.45708 0.312323 0.149096
0.449393 0.312781 0.145297
0.445294 0.313025 0.143495
0.442148 0.313679 0.142269
0.623332 0.308966 0.143269
0.622903 0.308264 0.142864
0.619316 0.307716 0.145091
0.603288 0.310153 0.156541
0.468477 0.307494 0.154375
0.46532 0.307291 0.152325
0.462072 0.307843 0.150597
0.442046 0.308382 0.141671
0.623063 0.303313 0.143473
0.622561 0.303321 0.142637
0.619152 0.302867 0.145023
0.604621 0.304211 0.15588
0.567436 0.134382 0.0577478
0.47123 0.304788 0.156544
0.467889 0.302639 0.15364
0.464928 0.30253 0.151292
0.462179 0.303045 0.149656
0.441859 0.303963 0.141305
0.623636 0.298477 0.141795
0.62254 0.297917 0.142354
0.619014 0.297668 0.14491
0.469175 0.298017 0.154454
0.375315 0.144792 0.0583897
0.467656 0.298462 0.153319
0.464623 0.297911 0.151047
0.441628 0.298191 0.141954
0.623422 0.292711 0.142321
0.623463 0.293117 0.140425
0.621964 0.29282 0.14192
0.619007 0.292672 0.144643
0.467751 0.292452 0.153256
0.464248 0.292269 0.150782
0.44077 0.292768 0.140874
0.438548 0.291884 0.139689
0.623094 0.288449 0.139918
0.621772 0.288166 0.1416
0.608273 0.287415 0.152908
0.606255 0.286965 0.154487
0.468239 0.287073 0.15293
0.468135 0.285724 0.152742
0.465311 0.287492 0.151104
0.462265 0.287687 0.149664
0.440352 0.290145 0.14041
0.437549 0.289204 0.139308
0.623206 0.283486 0.139395
0.621372 0.283435 0.141483
0.617983 0.282895 0.14442
0.608321 0.282249 0.152592
0.606149 0.281961 0.154305
0.469252 0.281771 0.152912
0.468205 0.282512 0.152245
0.465803 0.282725 0.150722
0.462466 0.282693 0.149487
0.436635 0.286873 0.142178
0.622534 0.278273 0.139443
0.620758 0.278338 0.141135
0.617809 0.277924 0.143947
0.470883 0.274598 0.153891
0.469637 0.277119 0.152554
0.468435 0.277554 0.151469
0.465944 0.27782 0.150204
0.462274 0.277484 0.149018
0.457902 0.277029 0.147666
0.622001 0.272856 0.13879
0.620459 0.273049 0.140615
0.61754 0.273003 0.143437
0.605799 0.271842 0.153254
0.472013 0.269759 0.152963
0.470602 0.272048 0.152192
0.470189 0.271657 0.152554
0.469665 0.273886 0.15171
0.46525 0.272792 0.149712
0.462269 0.272291 0.14877
0.457591 0.272105 0.147554
0.452813 0.272445 0.146195
0.448239 0.272869 0.144254
0.444827 0.272753 0.143274
0.441697 0.273564 0.141995
0.44012 0.274643 0.141498
0.438129 0.275838 0.141184
0.622234 0.268052 0.138221
0.619771 0.268083 0.140737
0.617309 0.267719 0.14303
0.606864 0.267141 0.151822
0.605071 0.266868 0.153388
0.471897 0.267822 0.151247
0.470496 0.266615 0.152188
0.464978 0.267482 0.149379
0.462284 0.267574 0.148813
0.457095 0.267338 0.147568
0.45293 0.267555 0.146416
0.444842 0.268093 0.143244
0.441666 0.269053 0.14169
0.440784 0.269053 0.141225
0.621859 0.262655 0.138412
0.619376 0.262885 0.140882
0.606731 0.262319 0.151558
0.605155 0.26184 0.152743
0.603143 0.26129 0.154638
0.470504 0.262178 0.152554
0.464924 0.262066 0.149263
0.452981 0.262456 0.146621
0.621868 0.258198 0.138303
0.619642 0.257859 0.140471
0.606902 0.257141 0.151212
0.60502 0.256857 0.15285
0.603486 0.258218 0.154311
0.471076 0.256487 0.153692
0.47036 0.258034 0.152439
0.46532 0.257489 0.149549
0.458089 0.257148 0.147756
0.453167 0.257505 0.146543
0.621639 0.252592 0.138156
0.619317 0.253055 0.140545
0.605061 0.252147 0.152856
0.471459 0.252436 0.15396
0.470613 0.252924 0.152581
0.46506 0.252687 0.149232
0.457807 0.252243 0.147367
0.452775 0.252586 0.1463
0.623356 0.249057 0.13684
0.622099 0.247877 0.137817
0.619104 0.248093 0.140346
0.607044 0.247294 0.150998
0.605109 0.247259 0.152898
0.471536 0.247194 0.153626
0.470662 0.246962 0.152482
0.465568 0.249167 0.149007
0.463708 0.246956 0.148514
0.457817 0.247388 0.147043
0.621605 0.243787 0.137747
0.618856 0.2432 0.140189
0.616534 0.242809 0.142019
0.607226 0.2422 0.150824
0.605283 0.242204 0.152681
0.471921 0.242692 0.153763
0.470967 0.24265 0.152502
0.463093 0.242181 0.148162
0.457882 0.24251 0.146733
0.452573 0.242786 0.145475
0.618034 0.237867 0.140526
0.616322 0.237531 0.14176
0.605342 0.237283 0.152317
0.471804 0.237223 0.153438
0.470577 0.238146 0.151765
0.470513 0.235433 0.151817
0.466868 0.235112 0.148621
0.462695 0.237241 0.147692
0.459182 0.237283 0.146485
0.454474 0.237311 0.14525
0.618014 0.233667 0.140235
0.61668 0.232904 0.141307
0.607065 0.232158 0.150115
0.605148 0.232334 0.151985
0.604099 0.231404 0.153234
0.47189 0.232437 0.153853
0.470921 0.231192 0.152421
0.470063 0.231616 0.151247
0.467097 0.232427 0.148799
0.462313 0.232226 0.147335
0.458635 0.232423 0.146122
0.454039 0.233544 0.144725
0.608479 0.227405 0.147976
0.606765 0.227317 0.149967
0.605028 0.22685 0.151647
0.60388 0.227757 0.153175
0.471958 0.227694 0.154001
0.470799 0.227527 0.152169
0.46958 0.227515 0.150371
0.46611 0.227646 0.148208
0.457627 0.227349 0.145748
0.453437 0.227792 0.144234
0.449538 0.228201 0.142494
0.446388 0.227796 0.140608
0.620301 0.223517 0.137994
0.608055 0.222463 0.147855
0.606334 0.222284 0.149793
0.604743 0.222018 0.151389
0.603801 0.224411 0.153029
0.471608 0.222919 0.153629
0.47047 0.224722 0.151827
0.469681 0.222919 0.150683
0.466048 0.223219 0.148093
0.456906 0.222304 0.145209
0.452906 0.222746 0.143714
0.449351 0.22319 0.14185
0.446373 0.22309 0.14019
0.607627 0.217582 0.147582
0.605976 0.217423 0.149525
0.377581 0.358628 0.0562145
0.372627 0.357801 0.0595686
0.374485 0.359864 0.0583031
0.604768 0.217 0.150793
0.420658 0.364282 0.0620281
0.603532 0.21681 0.152247
0.549616 0.363889 0.0578966
0.552124 0.363612 0.0579825
0.558246 0.363211 0.0577777
0.56286 0.363003 0.0586286
0.567837 0.362965 0.0584069
0.573038 0.362795 0.0584032
0.57752 0.362547 0.0589561
0.582709 0.362302 0.0583453
0.587825 0.362024 0.0584395
0.47076 0.218166 0.152556
0.597867 0.361262 0.0578811
0.46989 0.217399 0.151232
0.608182 0.3605 0.0580191
0.613121 0.360096 0.0582851
0.466601 0.217688 0.148297
0.46272 0.217152 0.146896
0.457607 0.217638 0.145288
0.453697 0.218261 0.143766
0.450075 0.217595 0.141989
0.446331 0.217741 0.139747
0.608361 0.212244 0.14667
0.605926 0.212337 0.149009
0.604444 0.212103 0.150895
0.603471 0.211968 0.151806
0.471107 0.212858 0.153613
0.470472 0.213085 0.152233
0.469672 0.212727 0.151142
0.46605 0.212539 0.148096
0.462106 0.211873 0.146659
0.452728 0.214118 0.14283
0.450964 0.213527 0.141708
0.3719 0.358106 0.0576295
0.377755 0.358155 0.0573236
0.618935 0.210176 0.13776
0.60738 0.207414 0.14654
0.606034 0.207461 0.148741
0.396636 0.364483 0.0588932
0.401622 0.364725 0.0583381
0.406264 0.364462 0.0593977
0.414702 0.364185 0.0596947
0.417221 0.364267 0.058985
0.422651 0.364555 0.0599033
0.6042 0.206977 0.150982
0.449422 0.365422 0.0604787
0.453115 0.365435 0.0584173
0.603847 0.206952 0.15171
0.47024 0.207187 0.152502
0.46942 0.207681 0.151436
0.466043 0.20778 0.148419
0.463638 0.207078 0.147521
0.607117 0.202539 0.146098
0.60585 0.202225 0.148788
0.470322 0.201325 0.152762
0.469149 0.202637 0.151384
0.465781 0.203165 0.148862
0.507455 0.364956 0.0579514
0.512411 0.365333 0.0579482
0.517572 0.365558 0.0581908
0.522751 0.365729 0.0582345
0.463196 0.202808 0.147661
0.533081 0.365401 0.0584714
0.537988 0.365046 0.0582359
0.542858 0.364485 0.0585285
0.547536 0.36402 0.0583049
0.552762 0.363347 0.0587778
0.557367 0.363059 0.0585542
0.562778 0.362947 0.0581827
0.567699 0.362889 0.0582574
0.572716 0.362761 0.0580877
0.577877 0.362444 0.0579356
0.582454 0.362134 0.058223
0.587073 0.361858 0.0580578
0.594009 0.361564 0.0569919
0.598032 0.361191 0.0577331
0.458669 0.202041 0.145906
0.60802 0.36035 0.0578398
0.612673 0.359884 0.0578584
0.606924 0.197799 0.145995
0.605676 0.197204 0.148927
0.603311 0.194253 0.153816
0.471782 0.194369 0.15415
0.470442 0.196632 0.152856
0.469141 0.197478 0.151241
0.46557 0.197061 0.148923
0.464268 0.198918 0.148309
0.458933 0.199051 0.1462
0.605522 0.192097 0.149063
0.603855 0.189964 0.152403
0.60253 0.189847 0.154569
0.472615 0.190715 0.153397
0.47179 0.191098 0.152615
0.469938 0.191836 0.151039
0.46518 0.192806 0.148637
0.441733 0.190327 0.137703
0.440563 0.190004 0.137777
0.603419 0.185279 0.152694
0.371924 0.35843 0.0569548
0.377581 0.358215 0.0566124
0.600974 0.182638 0.154861
0.473925 0.187276 0.153671
0.472959 0.185384 0.15224
0.397312 0.364003 0.0574154
0.402413 0.364333 0.0576692
0.407441 0.364251 0.0579665
0.412499 0.364061 0.0579431
0.417562 0.364104 0.0579772
0.422449 0.364325 0.0580142
0.470637 0.186959 0.150659
0.4648 0.187175 0.148249
0.452506 0.186422 0.144148
0.441271 0.189354 0.137513
0.439598 0.188045 0.137839
0.452503 0.365476 0.0580076
0.60486 0.181266 0.150572
0.602339 0.179147 0.152866
0.59687 0.175546 0.154695
0.590776 0.174183 0.15434
0.585618 0.17307 0.151638
0.580212 0.172448 0.15123
0.574057 0.172176 0.150971
0.567902 0.172183 0.150617
0.562695 0.17238 0.1505
0.557742 0.172514 0.150454
0.50765 0.364525 0.0574686
0.51273 0.364826 0.0577888
0.517803 0.36515 0.0575761
0.522654 0.365204 0.0581811
0.553122 0.172502 0.150398
0.532458 0.36511 0.0577898
0.537845 0.364567 0.057708
0.542852 0.36406 0.0574858
0.547674 0.363402 0.0576289
0.552899 0.363055 0.0575276
0.557521 0.362907 0.0577988
0.562456 0.362762 0.0572574
0.567757 0.362695 0.0572714
0.572994 0.362414 0.057427
0.577645 0.36222 0.0567518
0.582097 0.361904 0.0563886
0.587585 0.361634 0.056612
0.592696 0.361158 0.0576258
0.59746 0.360705 0.0572394
0.547545 0.172653 0.150264
0.607002 0.360041 0.0573919
0.6118 0.359645 0.0563947
0.542623 0.172679 0.149554
0.537832 0.172517 0.149161
0.532738 0.172267 0.149045
0.52795 0.172197 0.148896
0.52348 0.171934 0.14831
0.518322 0.171824 0.147548
0.513298 0.171444 0.147327
0.476718 0.178905 0.154478
0.473953 0.180541 0.1524
0.470388 0.182653 0.150369
0.465602 0.182674 0.147969
0.606534 0.17944 0.147173
0.604904 0.178391 0.150011
0.601353 0.175214 0.152349
0.594973 0.171852 0.152622
0.589025 0.171495 0.152042
0.583822 0.171111 0.150902
0.578444 0.17073 0.149702
0.572693 0.170412 0.148762
0.567344 0.171346 0.149663
0.371166 0.359828 0.0566675
0.377417 0.359407 0.0563491
0.562337 0.171621 0.14955
0.557675 0.171935 0.149447
0.552731 0.172068 0.149187
0.397703 0.363781 0.0568701
0.402915 0.364118 0.0568971
0.40763 0.363923 0.0570358
0.412281 0.363908 0.0569952
0.417607 0.363992 0.0571319
0.422933 0.364062 0.0571905
0.547665 0.172319 0.148856
0.542616 0.172515 0.148797
0.537512 0.17259 0.148767
0.532468 0.172399 0.148384
0.527709 0.172278 0.148278
0.452469 0.365159 0.0568775
0.457448 0.364397 0.0569414
0.522786 0.172174 0.148448
0.517845 0.171897 0.147853
0.513138 0.171214 0.147836
0.508029 0.170135 0.147817
0.478391 0.174257 0.154545
0.47436 0.175693 0.151921
0.444184 0.178422 0.139955
0.444587 0.176958 0.140189
0.618966 0.171787 0.136449
0.507604 0.364093 0.0571077
0.512397 0.364572 0.0575366
0.517535 0.364808 0.0571802
0.522567 0.365117 0.0566304
0.617716 0.172996 0.137073
0.606804 0.174111 0.146775
0.537429 0.364381 0.0574245
0.542387 0.363859 0.0567547
0.547402 0.363279 0.0569204
0.552504 0.362952 0.0572673
0.557483 0.362727 0.0572557
0.562172 0.362561 0.0570607
0.567365 0.362463 0.0569064
0.572315 0.362178 0.0572834
0.577368 0.361808 0.0571856
0.582235 0.361509 0.0567759
0.587562 0.361124 0.0574003
0.604281 0.172569 0.149593
0.597265 0.360314 0.0570153
0.599538 0.170846 0.151273
0.607037 0.359657 0.0570497
0.611479 0.359213 0.0572379
0.588241 0.169828 0.149633
0.582607 0.169437 0.147843
0.577134 0.170063 0.148375
0.354963 0.366308 0.0549921
0.372962 0.360115 0.0563819
0.376289 0.359678 0.0557347
0.572716 0.170654 0.149087
0.397353 0.363771 0.0561291
0.402104 0.363965 0.0565784
0.40738 0.364033 0.0559898
0.414139 0.364161 0.0550518
0.417961 0.363823 0.0564505
0.422402 0.364095 0.0560515
0.567053 0.170231 0.14766
0.56269 0.170473 0.147617
0.558015 0.170305 0.146756
0.45433 0.364281 0.0574883
0.454756 0.364501 0.0553504
0.514767 0.363909 0.0585565
0.524065 0.364317 0.0573117
0.536321 0.363707 0.057254
0.542316 0.363198 0.0561567
0.546328 0.362941 0.0558423
0.550338 0.362656 0.0554421
0.557314 0.36222 0.0552741
0.571892 0.361578 0.0568328
0.577029 0.361189 0.0569472
0.582064 0.360654 0.0579962
0.585514 0.360428 0.058415
0.552024 0.17078 0.146407
0.407394 0.363972 0.0553569
0.41051 0.363597 0.0571745
0.449287 0.365319 0.0571912
0.451962 0.364917 0.0557085
0.546928 0.171446 0.146694
0.542018 0.171438 0.146444
0.511468 0.363745 0.0579478
0.518499 0.364121 0.0556842
0.521719 0.364344 0.0560702
0.537923 0.171548 0.146179
0.537105 0.363928 0.054818
0.541209 0.36363 0.0538453
0.551768 0.362762 0.0539031
0.554737 0.362574 0.0538447
0.586669 0.360234 0.0567171
0.533028 0.171579 0.146071
0.568523 0.135185 0.0611493
0.571685 0.135324 0.0617688
0.527571 0.171535 0.145732
0.522067 0.172008 0.147135
0.517476 0.171843 0.147523
0.512752 0.170848 0.147198
0.507798 0.169413 0.14737
0.497223 0.166493 0.149261
0.491609 0.166437 0.152164
0.486139 0.167765 0.153567
0.448429 0.135497 0.0615222
0.479671 0.17026 0.153585
0.474842 0.171731 0.151484
0.443992 0.173052 0.139308
0.443664 0.172715 0.139484
0.6092 0.169894 0.143827
0.606482 0.170177 0.146972
0.602294 0.167247 0.147319
0.578136 0.167522 0.145972
0.559452 0.135637 0.0627878
0.56342 0.135305 0.0618994
0.567298 0.135041 0.0619995
0.57313 0.135038 0.0605613
0.572006 0.169112 0.1464
0.56754 0.169835 0.146748
0.56254 0.170029 0.146447
0.557348 0.17085 0.146842
0.552095 0.171105 0.146357
0.547582 0.170329 0.145269
0.542408 0.16942 0.144276
0.537595 0.170045 0.144444
0.532286 0.171202 0.145529
0.527367 0.171993 0.146921
0.522653 0.17161 0.145878
0.516493 0.170328 0.145359
0.511408 0.168989 0.145658
0.506839 0.167267 0.14656
0.497843 0.164619 0.148619
0.492316 0.163625 0.149931
0.487186 0.164059 0.150809
0.482038 0.166229 0.15237
0.476978 0.166158 0.150634
0.375376 0.145195 0.0618708
0.376954 0.14396 0.061429
0.444151 0.167718 0.139026
0.443896 0.168245 0.139321
0.618913 0.160979 0.137799
0.404101 0.138435 0.0613433
0.609525 0.16501 0.143435
0.606073 0.164637 0.145083
0.604209 0.164109 0.145467
0.522124 0.168472 0.143063
0.516969 0.168995 0.144104
0.447424 0.135433 0.0625881
0.498205 0.163597 0.147628
0.493146 0.16366 0.148585
0.488631 0.162433 0.148541
0.480999 0.161819 0.149516
0.478168 0.161759 0.149308
0.471542 0.16283 0.148004
0.444081 0.164061 0.138844
0.444067 0.163144 0.139047
0.620628 0.157543 0.136819
0.619573 0.15899 0.137175
0.444403 0.158746 0.138538
0.623562 0.15552 0.13574
0.444019 0.155216 0.138
0.444404 0.151668 0.13746
0.444025 0.150192 0.137462
0.443591 0.149935 0.138254
0.625282 0.357052 0.141556
0.626198 0.355128 0.141995
0.623107 0.355158 0.14226
0.620966 0.354514 0.141263
0.561609 0.135285 0.0625961
0.572669 0.135069 0.0627072
0.616052 0.354124 0.142048
0.572311 0.35772 0.140809
0.451502 0.356323 0.141336
0.446631 0.355138 0.141211
0.624474 0.357052 0.142328
0.623546 0.356589 0.142106
0.62194 0.354259 0.141434
0.620953 0.353941 0.14142
0.617811 0.354137 0.140704
0.587682 0.35802 0.141817
0.572039 0.358533 0.141904
0.447416 0.35512 0.141185
0.623105 0.354917 0.142422
0.622774 0.353971 0.141799
0.622211 0.353543 0.140705
0.616767 0.354185 0.141852
0.374466 0.146041 0.0611413
0.378219 0.145268 0.0611292
0.592772 0.358817 0.143822
0.587537 0.358934 0.143868
0.582469 0.358894 0.143907
0.577692 0.358938 0.143694
0.57269 0.359184 0.143292
0.407302 0.137573 0.0619731
0.567524 0.35907 0.142818
0.562575 0.359485 0.143199
0.557761 0.359911 0.143122
0.55271 0.360786 0.143662
0.537732 0.363131 0.145723
0.532661 0.363705 0.145973
0.447523 0.135182 0.0630369
0.498909 0.36236 0.1455
0.448541 0.35565 0.141522
0.624395 0.353835 0.143998
0.624006 0.352395 0.143886
0.622078 0.351364 0.142397
0.622303 0.351145 0.141766
0.622868 0.352101 0.142461
0.619296 0.354665 0.144365
0.61315 0.355644 0.144285
0.608423 0.356912 0.144785
0.604021 0.357233 0.146464
0.562056 0.134808 0.0627925
0.567196 0.134644 0.0631281
0.572073 0.134663 0.0626644
0.59816 0.356558 0.148269
0.592796 0.35669 0.14842
0.587173 0.357747 0.1475
0.582426 0.35836 0.146432
0.577272 0.358719 0.145341
0.572409 0.358602 0.145835
0.567543 0.358696 0.146082
0.562847 0.358735 0.146413
0.558343 0.358631 0.146861
0.553445 0.359219 0.147207
0.550609 0.358958 0.147974
0.491961 0.359856 0.149181
0.489262 0.35711 0.151303
0.448429 0.354479 0.147032
0.447748 0.353637 0.1439
0.444054 0.35414 0.144665
0.621207 0.34761 0.142497
0.621295 0.348087 0.142116
0.620509 0.346747 0.141775
0.620888 0.348022 0.14616
0.603097 0.353265 0.149544
0.598543 0.353482 0.150034
0.44667 0.352147 0.147774
0.444867 0.348204 0.145799
0.621119 0.343213 0.142657
0.621229 0.3426 0.141949
0.621486 0.343339 0.146315
0.444133 0.344399 0.145471
0.373457 0.141898 0.0618789
0.373764 0.14539 0.0614465
0.624182 0.33733 0.142706
0.623288 0.338349 0.14641
0.440252 0.337445 0.144905
0.621981 0.333871 0.141645
0.621898 0.332497 0.142121
0.62439 0.332276 0.142942
0.622882 0.332522 0.146925
0.615854 0.331645 0.151289
0.606849 0.333984 0.15386
0.558194 0.333843 0.153395
0.542663 0.333873 0.15345
0.441845 0.330587 0.145564
0.441283 0.332792 0.145345
0.440264 0.332858 0.141209
0.621992 0.328185 0.1417
0.622469 0.328194 0.141459
0.624132 0.327317 0.143121
0.622028 0.32685 0.146724
0.615061 0.329754 0.151556
0.612424 0.32941 0.152465
0.605485 0.331004 0.154631
0.601644 0.328741 0.155528
0.579229 0.329749 0.154097
0.572627 0.33073 0.153498
0.561916 0.330823 0.153868
0.557117 0.330666 0.153738
0.552551 0.33035 0.153694
0.547602 0.330752 0.153515
0.542274 0.330853 0.153545
0.538337 0.329595 0.153721
0.533191 0.328617 0.154119
0.527378 0.329901 0.154591
0.517432 0.330115 0.154722
0.562268 0.134782 0.0631988
0.567241 0.134572 0.0631651
0.572142 0.134632 0.0632159
0.513727 0.329636 0.154265
0.504832 0.329806 0.153603
0.501877 0.329276 0.154165
0.495637 0.328864 0.155116
0.492516 0.328402 0.155472
0.471806 0.326093 0.15489
0.46325 0.326637 0.15451
0.372963 0.146731 0.0616826
0.371341 0.147648 0.0629732
0.376558 0.145266 0.0633672
0.443441 0.328155 0.146083
0.442104 0.327561 0.145244
0.43992 0.328119 0.141692
0.622163 0.323011 0.141461
0.622677 0.323075 0.141254
0.623501 0.322405 0.143248
0.620716 0.321196 0.146553
0.600954 0.325525 0.156174
0.595265 0.325023 0.156683
0.58823 0.323591 0.156895
0.582832 0.325869 0.155959
0.577128 0.327189 0.154626
0.572706 0.327205 0.153748
0.567879 0.327186 0.15396
0.563042 0.327565 0.154393
0.556204 0.328266 0.15397
0.552613 0.327783 0.153825
0.547801 0.327566 0.153639
0.543886 0.327752 0.153628
0.53762 0.328091 0.153831
0.5328 0.327654 0.154081
0.528791 0.327537 0.154697
0.50057 0.326685 0.154697
0.487508 0.323649 0.156372
0.470048 0.322172 0.154838
0.44264 0.321469 0.144347
0.442786 0.322467 0.144662
0.439969 0.322844 0.141401
0.622592 0.319691 0.142384
0.622456 0.317784 0.141371
0.623122 0.317404 0.14322
0.619763 0.316884 0.146337
0.592688 0.32217 0.157692
0.59095 0.321895 0.157777
0.544492 0.324995 0.153892
0.503295 0.326386 0.1539
0.494644 0.323332 0.156754
0.488732 0.321087 0.157447
0.46896 0.318297 0.154708
0.464666 0.316878 0.15332
0.458572 0.315491 0.151075
0.445177 0.316865 0.145027
0.443551 0.3175 0.14367
0.439918 0.317459 0.140252
0.622943 0.312952 0.141189
0.622696 0.312479 0.143342
0.621485 0.311656 0.144849
0.540368 0.325429 0.153379
0.469867 0.312258 0.153427
0.462805 0.312065 0.151998
0.458617 0.31171 0.150204
0.446496 0.311644 0.145125
0.44388 0.312447 0.143234
0.440174 0.312934 0.139875
0.623651 0.307972 0.141001
0.622509 0.307124 0.143517
0.621343 0.307097 0.144751
0.470205 0.308813 0.153036
0.462188 0.306718 0.150776
0.443788 0.307403 0.142858
0.439957 0.308676 0.139453
0.621787 0.302618 0.144184
0.62204 0.301437 0.143873
0.623767 0.30307 0.141086
0.622442 0.302537 0.143558
0.621082 0.302233 0.144792
0.439662 0.302891 0.139718
0.438931 0.301745 0.140671
0.439254 0.302052 0.139286
0.621622 0.296488 0.142916
0.622082 0.298174 0.142884
0.623724 0.297877 0.140795
0.62239 0.297383 0.142879
0.621164 0.297429 0.144381
0.469289 0.297232 0.15354
0.439225 0.297064 0.13921
0.439014 0.295122 0.137974
0.438722 0.301039 0.141293
0.622264 0.29335 0.141165
0.623407 0.292952 0.140728
0.621863 0.292417 0.142514
0.620713 0.292287 0.144295
0.466967 0.291588 0.15123
0.439053 0.29249 0.138696
0.622688 0.289057 0.140842
0.62297 0.28797 0.140837
0.621683 0.287562 0.142397
0.620387 0.287421 0.144128
0.467667 0.286559 0.150978
0.463117 0.28582 0.150247
0.439733 0.287209 0.140441
0.438959 0.289792 0.138023
0.623106 0.282604 0.139568
0.622645 0.283224 0.140637
0.621051 0.28252 0.142488
0.619785 0.282577 0.143829
0.468067 0.281658 0.150653
0.467711 0.281039 0.150385
0.464122 0.282042 0.150094
0.439886 0.282695 0.1404
0.622658 0.277591 0.139693
0.621885 0.278319 0.140192
0.620681 0.277708 0.14202
0.6193 0.277414 0.143323
0.468896 0.276254 0.1503
0.468723 0.275774 0.150409
0.464439 0.277175 0.149852
0.43994 0.278257 0.140244
0.439513 0.277228 0.137455
0.622496 0.272351 0.138768
0.621198 0.272655 0.139673
0.620091 0.272534 0.141702
0.618707 0.272334 0.143215
0.47029 0.269454 0.150747
0.469092 0.272349 0.149933
0.468488 0.272319 0.149914
0.463397 0.273245 0.14951
0.461483 0.270764 0.149363
0.45505 0.27349 0.147831
0.450263 0.272927 0.146119
0.442926 0.272887 0.142594
0.440845 0.273019 0.141086
0.439529 0.273682 0.138205
0.622332 0.267382 0.138161
0.620769 0.267063 0.139685
0.619662 0.267347 0.141479
0.618554 0.267731 0.142913
0.471098 0.266994 0.150721
0.470815 0.267604 0.15025
0.469199 0.26629 0.150348
0.468554 0.267905 0.149854
0.454997 0.269387 0.148045
0.443223 0.267685 0.142517
0.441212 0.267129 0.140825
0.43991 0.268936 0.137994
0.62226 0.263502 0.13771
0.620494 0.263935 0.139831
0.619209 0.262464 0.14147
0.469114 0.262095 0.15037
0.468173 0.260905 0.14978
0.469367 0.257037 0.150624
0.468407 0.258981 0.149847
0.463383 0.256929 0.149535
0.454659 0.258036 0.14792
0.622174 0.252327 0.137334
0.618681 0.252838 0.141482
0.470141 0.25121 0.15144
0.469257 0.252595 0.150443
0.467967 0.251257 0.149993
0.46358 0.252931 0.149408
0.461198 0.252026 0.149084
0.454471 0.2545 0.147848
0.623081 0.247396 0.136825
0.622105 0.248131 0.136998
0.618348 0.248281 0.141396
0.470707 0.24823 0.151434
0.46931 0.246879 0.150412
0.468541 0.246348 0.149964
0.463778 0.245427 0.149092
0.460239 0.247094 0.148435
0.44298 0.247421 0.139739
0.441306 0.248596 0.13733
0.377546 0.359117 0.0607434
0.623394 0.244986 0.136085
0.621911 0.243567 0.137035
0.620733 0.241446 0.138489
0.617913 0.242405 0.141124
0.617409 0.242631 0.142048
0.56285 0.362436 0.0632627
0.567863 0.362417 0.0636072
0.572894 0.362386 0.0633124
0.577795 0.362213 0.063038
0.582675 0.362065 0.0631016
0.606973 0.241975 0.15096
0.471039 0.243212 0.151587
0.469541 0.242476 0.150047
0.467617 0.243015 0.149308
0.465253 0.243492 0.149259
0.459158 0.242404 0.147753
0.455988 0.241078 0.147117
0.620449 0.2379 0.138644
0.61823 0.237751 0.140529
0.617051 0.237672 0.142105
0.469581 0.236851 0.149993
0.466871 0.235017 0.149182
0.455983 0.236775 0.146476
0.620509 0.233122 0.138253
0.618166 0.233086 0.140456
0.61674 0.232575 0.14201
0.60895 0.230176 0.148541
0.606441 0.231181 0.15077
0.469617 0.233082 0.150114
0.469004 0.231846 0.14973
0.456132 0.23224 0.146044
0.620302 0.228096 0.137884
0.608637 0.226819 0.14844
0.606975 0.226926 0.149603
0.469798 0.227642 0.150356
0.468467 0.227536 0.149166
0.454597 0.227352 0.145264
0.451321 0.226821 0.143714
0.447479 0.227961 0.141627
0.444982 0.227664 0.13962
0.443871 0.227173 0.138712
0.418289 0.363286 0.0616174
0.620141 0.223238 0.137807
0.608189 0.222198 0.148305
0.606855 0.222598 0.149268
0.469651 0.223224 0.150261
0.468366 0.22178 0.149224
0.465546 0.221347 0.148079
0.452647 0.364765 0.0635333
0.461131 0.221522 0.146833
0.456728 0.222225 0.145628
0.450785 0.22369 0.14344
0.445883 0.223447 0.140095
0.445057 0.222621 0.139181
0.443587 0.22206 0.137984
0.60804 0.216974 0.147827
0.605742 0.218651 0.149773
0.469402 0.217738 0.150253
0.467833 0.218021 0.1489
0.464059 0.218358 0.147764
0.512592 0.364884 0.0629497
0.517452 0.365009 0.0632069
0.522509 0.365039 0.0634712
0.460605 0.217096 0.146708
0.45724 0.21672 0.145365
0.538112 0.364108 0.0634327
0.543032 0.363687 0.0631353
0.452947 0.216014 0.143444
0.448233 0.21771 0.140942
0.607931 0.212131 0.147548
0.562893 0.362249 0.0633872
0.56777 0.362408 0.063096
0.572468 0.362349 0.0617025
0.57745 0.361927 0.0624138
0.58261 0.361701 0.0626373
0.605635 0.211583 0.149171
0.60448 0.21315 0.150652
0.469849 0.211075 0.151093
0.468862 0.212412 0.149537
0.607601 0.360581 0.0623025
0.468049 0.212165 0.148944
0.461771 0.212109 0.146897
0.453295 0.212569 0.143548
0.440726 0.212326 0.135424
0.620777 0.206784 0.13561
0.619492 0.208279 0.136785
0.616564 0.20806 0.13889
0.607428 0.206847 0.147346
0.606132 0.206752 0.148494
0.604559 0.208184 0.150363
0.46889 0.206797 0.149673
0.467988 0.206885 0.149165
0.440407 0.207105 0.135281
0.62058 0.203105 0.1348
0.618869 0.202958 0.135858
0.609224 0.202275 0.145085
0.607266 0.202335 0.147129
0.606151 0.201257 0.148754
0.469615 0.201748 0.150264
0.468068 0.202187 0.14939
0.463387 0.201616 0.148021
0.460856 0.202226 0.147045
0.455734 0.201911 0.145333
0.451922 0.201993 0.143718
0.439895 0.201968 0.135334
0.392813 0.361892 0.0618558
0.620113 0.200029 0.134454
0.61843 0.198196 0.135362
0.607034 0.196711 0.147555
0.605935 0.195389 0.14941
0.417431 0.362609 0.0624772
0.470364 0.195653 0.150842
0.46848 0.196451 0.14965
0.464383 0.197504 0.148541
0.460783 0.196914 0.147422
0.45632 0.197926 0.145954
0.452023 0.198077 0.144118
0.452132 0.364765 0.0620795
0.439129 0.196359 0.135509
0.438425 0.194506 0.13472
0.471258 0.190853 0.15099
0.46927 0.191448 0.149704
0.464685 0.191788 0.14852
0.461071 0.19276 0.147432
0.456072 0.192067 0.145982
0.452587 0.192529 0.144542
0.442229 0.191583 0.138163
0.438591 0.191937 0.136019
0.438033 0.191859 0.13511
0.512495 0.364488 0.0625334
0.517502 0.364699 0.0630868
0.522288 0.364747 0.0630354
0.618926 0.18485 0.134819
0.617961 0.186872 0.135369
0.537656 0.36379 0.0627359
0.542556 0.363425 0.0623401
0.547747 0.362855 0.062308
0.604764 0.184703 0.150972
0.472193 0.185516 0.151319
0.5625 0.361895 0.0625679
0.567739 0.361956 0.0626566
0.572334 0.36203 0.062628
0.576515 0.361573 0.062864
0.580935 0.361267 0.0637735
0.468879 0.18699 0.149448
0.597416 0.360901 0.0614088
0.465244 0.18714 0.148361
0.608008 0.359991 0.0623587
0.461233 0.18746 0.147416
0.456152 0.186964 0.145707
0.452217 0.186924 0.144293
0.441429 0.187207 0.138016
0.439696 0.186727 0.137372
0.437793 0.189244 0.135417
0.617955 0.18194 0.1354
0.607166 0.181109 0.148305
0.604133 0.179865 0.151187
0.596897 0.175367 0.15359
0.590153 0.173835 0.153781
0.585145 0.172409 0.151385
0.579886 0.171611 0.150276
0.573624 0.171546 0.149847
0.56767 0.171497 0.149078
0.562735 0.171659 0.149005
0.557659 0.171622 0.148684
0.552979 0.171593 0.148427
0.547775 0.171992 0.147979
0.543281 0.172043 0.147589
0.537756 0.172151 0.147599
0.532709 0.17186 0.147273
0.377434 0.358479 0.061343
0.527879 0.171889 0.147188
0.523002 0.171837 0.146774
0.392697 0.361632 0.0619889
0.51775 0.171918 0.146323
0.513163 0.171822 0.146264
0.478071 0.177909 0.154628
0.473037 0.179749 0.151026
0.417562 0.362532 0.0616853
0.422722 0.362599 0.0616393
0.469488 0.181099 0.149415
0.465762 0.181784 0.148125
0.456613 0.182104 0.145563
0.452337 0.182483 0.144023
0.441075 0.182131 0.138308
0.452324 0.364551 0.0619162
0.439318 0.182526 0.137658
0.438024 0.180378 0.137051
0.618398 0.176931 0.135335
0.616292 0.176692 0.137357
0.606523 0.175716 0.148368
0.602255 0.173625 0.15076
0.596058 0.172071 0.151761
0.589706 0.17118 0.151367
0.584102 0.170847 0.150641
0.578591 0.170354 0.149214
0.573439 0.170396 0.148808
0.512246 0.364192 0.0622527
0.517447 0.364528 0.0627833
0.522156 0.364604 0.0627123
0.567589 0.170279 0.147808
0.5623 0.170371 0.147637
0.537447 0.363624 0.0622375
0.542104 0.363332 0.0620154
0.547001 0.362643 0.0618567
0.557456 0.170567 0.147401
0.557331 0.362384 0.0601158
0.563871 0.362045 0.0605342
0.567154 0.362137 0.0601227
0.570137 0.362108 0.0601858
0.578133 0.361616 0.0605047
0.582386 0.361234 0.0616729
0.552567 0.170672 0.14723
0.547437 0.170806 0.14694
0.542531 0.17109 0.146561
0.537522 0.171045 0.146138
0.606614 0.359944 0.0618767
0.532797 0.17112 0.145671
0.527731 0.171395 0.145552
0.522785 0.171415 0.145032
0.373623 0.359378 0.0598733
0.392735 0.362288 0.0603036
0.397129 0.363085 0.0598579
0.401743 0.363422 0.0598711
0.417631 0.363089 0.060052
0.422177 0.363046 0.0597846
0.517708 0.171263 0.144523
0.51314 0.17095 0.144517
0.453278 0.364221 0.0604796
0.513451 0.363663 0.0620383
0.517801 0.364021 0.0621389
0.523093 0.364138 0.0615913
0.536209 0.363184 0.0607017
0.541218 0.362874 0.0604401
0.478566 0.174339 0.153584
0.567809 0.361243 0.0621504
0.571475 0.361243 0.0611678
0.577021 0.360913 0.0615729
0.58121 0.360778 0.0613264
0.586169 0.360382 0.0613785
0.407641 0.363106 0.0600518
0.449429 0.364957 0.0585915
0.451083 0.364547 0.0605755
0.509624 0.363437 0.0599206
0.511856 0.363676 0.0602058
0.518571 0.364101 0.0598053
0.521374 0.364199 0.0597477
0.474335 0.175907 0.151921
0.469857 0.176805 0.149614
0.567356 0.135569 0.0650421
0.571693 0.135683 0.066314
0.443426 0.177507 0.139661
0.407862 0.138288 0.0638436
0.441082 0.176877 0.138015
0.438604 0.177398 0.136688
0.437605 0.176417 0.136356
0.620238 0.170016 0.135418
0.618163 0.171539 0.136119
0.616626 0.171873 0.137524
0.609709 0.172451 0.145104
0.605807 0.170441 0.147816
0.600618 0.169259 0.149774
0.58314 0.168246 0.148169
0.577816 0.168393 0.146865
0.572571 0.168472 0.146203
0.567559 0.168543 0.145915
0.56254 0.168636 0.145538
0.557595 0.168784 0.145301
0.552532 0.168848 0.145041
0.542656 0.169314 0.144556
0.563038 0.135866 0.0658603
0.566342 0.135701 0.0667576
0.537488 0.169486 0.144213
0.532507 0.169628 0.143868
0.527543 0.169826 0.143672
0.522668 0.170094 0.143409
0.517731 0.169812 0.143252
0.5129 0.169687 0.143398
0.497407 0.166279 0.150732
0.491573 0.167793 0.15294
0.485699 0.16927 0.153036
0.47974 0.169316 0.152261
0.4745 0.170618 0.150989
0.444127 0.172781 0.140136
0.441472 0.171908 0.137758
0.438505 0.172876 0.136027
0.437733 0.173331 0.135978
0.620575 0.16522 0.136314
0.618747 0.166388 0.13661
0.375498 0.144335 0.0653585
0.376381 0.14401 0.0646851
0.617478 0.167156 0.137654
0.609382 0.167833 0.144594
0.604388 0.165879 0.14632
0.497753 0.162768 0.147889
0.491996 0.162757 0.149692
0.486171 0.163257 0.150392
0.48064 0.163973 0.150684
0.475433 0.16471 0.14969
0.470806 0.165824 0.148892
0.444068 0.168155 0.139481
0.437117 0.136795 0.0675544
0.441201 0.167322 0.137063
0.439123 0.167725 0.135971
0.622402 0.160685 0.134838
0.621453 0.161618 0.135666
0.619845 0.162027 0.136258
0.617949 0.162462 0.137694
0.615636 0.163004 0.139456
0.497979 0.159102 0.146038
0.493025 0.158688 0.146909
0.481115 0.158936 0.1479
0.475999 0.159835 0.147751
0.471125 0.160831 0.147483
0.466817 0.161704 0.146855
0.461566 0.162431 0.146028
0.456474 0.161411 0.144427
0.443846 0.16351 0.138738
0.441821 0.163437 0.137306
0.438951 0.163572 0.135215
0.622447 0.157016 0.135375
0.621998 0.157939 0.134816
0.620466 0.15791 0.135919
0.61856 0.158982 0.136972
0.615788 0.158515 0.138263
0.561702 0.13599 0.0673947
0.56807 0.135519 0.0668514
0.573567 0.13541 0.06674
0.466965 0.156318 0.144573
0.46139 0.156843 0.144585
0.456067 0.155947 0.143162
0.451677 0.156948 0.142069
0.447888 0.158177 0.140464
0.443697 0.159215 0.138234
0.442684 0.158735 0.136997
0.438964 0.159142 0.134469
0.439009 0.157866 0.134332
0.684635 0.138511 0.0683668
0.688063 0.138 0.0673239
0.622921 0.153865 0.134657
0.621809 0.154319 0.134326
0.619959 0.15362 0.134656
0.615192 0.155138 0.13606
0.577771 0.155109 0.139168
0.457849 0.153623 0.142283
0.374652 0.144999 0.0645951
0.377838 0.144639 0.0645082
0.451434 0.153473 0.140404
0.447944 0.154496 0.139566
0.444537 0.155251 0.137473
0.443219 0.155038 0.13661
0.439854 0.154813 0.134801
0.439064 0.154745 0.133632
0.625184 0.151753 0.132858
0.622333 0.151461 0.133094
0.619183 0.151315 0.133764
0.615447 0.151635 0.134293
0.443055 0.151856 0.135388
0.439932 0.151488 0.134029
0.439159 0.150842 0.133044
0.626218 0.148313 0.132466
0.623215 0.148139 0.132736
0.619999 0.148823 0.13314
0.615761 0.148792 0.133632
0.442669 0.151171 0.135543
0.438134 0.148623 0.132504
0.482705 0.136286 0.0690496
0.627614 0.146366 0.13262
0.62717 0.146844 0.132066
0.622906 0.14621 0.13225
0.562597 0.13545 0.0675781
0.567394 0.135304 0.0678559
0.572231 0.13531 0.0682289
0.619703 0.146239 0.132623
0.617399 0.146466 0.132942
0.610572 0.146355 0.13323
0.441542 0.150018 0.135331
0.623625 0.142118 0.131759
0.536603 0.361673 0.137102
0.625089 0.357387 0.138333
0.626096 0.354656 0.138892
0.623715 0.354792 0.137871
0.620705 0.354228 0.137958
0.602405 0.357001 0.137281
0.624176 0.356389 0.138502
0.622645 0.354332 0.137572
0.621037 0.353822 0.137552
0.602201 0.357293 0.13587
0.577173 0.35874 0.137313
0.622914 0.355184 0.138995
0.622447 0.354272 0.138064
0.622113 0.354502 0.137436
0.602437 0.357754 0.137811
0.577282 0.359352 0.138414
0.682619 0.13871 0.0665915
0.687149 0.138514 0.0673527
0.572134 0.359226 0.13823
0.62216 0.351458 0.139271
0.620825 0.351251 0.138053
0.621544 0.351693 0.137609
0.373081 0.142049 0.0642813
0.374005 0.145606 0.0654607
0.380126 0.145873 0.0686012
0.383147 0.145245 0.0685561
0.387347 0.144256 0.0689067
0.392041 0.14256 0.0695694
0.396597 0.141513 0.0699273
0.619492 0.355049 0.137851
0.57269 0.359681 0.139745
0.487599 0.361151 0.14789
0.44808 0.358177 0.144779
0.421549 0.138893 0.0705026
0.621517 0.347311 0.139428
0.623842 0.350019 0.139639
0.436658 0.136769 0.0698232
0.482952 0.358206 0.150573
0.443703 0.351297 0.143855
0.443473 0.335396 0.145293
0.440604 0.332265 0.142023
0.624937 0.32789 0.141445
0.443137 0.325454 0.144907
0.441294 0.328038 0.142903
0.622195 0.323056 0.138775
0.624184 0.321392 0.141484
0.467668 0.322194 0.153713
0.461977 0.319405 0.152867
0.445445 0.321625 0.146331
0.441566 0.320396 0.142624
0.623823 0.316877 0.14191
0.461912 0.318119 0.151857
0.457627 0.313953 0.15014
0.448062 0.316948 0.146802
0.444856 0.317073 0.144521
0.442452 0.317166 0.142669
0.440642 0.317219 0.14069
0.623943 0.311819 0.14122
0.46107 0.312181 0.150119
0.444882 0.311257 0.143212
0.442751 0.312424 0.142385
0.562289 0.135604 0.0682527
0.567174 0.135423 0.0683831
0.57238 0.135271 0.068333
0.440942 0.312853 0.141201
0.624576 0.307066 0.140089
0.467572 0.30745 0.151829
0.46269 0.308719 0.150462
0.685188 0.139977 0.0688145
0.442615 0.307805 0.142388
0.372905 0.147263 0.06356
0.372955 0.146002 0.0650853
0.372935 0.147887 0.0674479
0.376919 0.146052 0.0675663
0.381513 0.144993 0.0670499
0.386621 0.143396 0.0673445
0.441178 0.307819 0.141124
0.624458 0.30228 0.139702
0.682559 0.142202 0.0715102
0.469024 0.303711 0.152388
0.442115 0.302667 0.142115
0.441086 0.302719 0.14128
0.438828 0.30277 0.136656
0.62404 0.297388 0.138367
0.371836 0.157302 0.0679129
0.623874 0.297386 0.139709
0.463925 0.297949 0.150228
0.442134 0.297376 0.142067
0.371969 0.162493 0.0680064
0.373397 0.162207 0.0709343
0.408043 0.160496 0.0812616
0.440544 0.297399 0.140923
0.439148 0.298357 0.137304
0.620719 0.292874 0.139633
0.623655 0.292328 0.138307
0.373222 0.167256 0.0707846
0.408057 0.165826 0.0811186
0.623265 0.292268 0.139668
0.47 0.292334 0.152233
0.44054 0.291652 0.140313
0.440681 0.292546 0.141218
0.373604 0.172297 0.0711381
0.403017 0.169642 0.0814571
0.407065 0.170067 0.0809596
0.409461 0.174371 0.0808057
0.439123 0.292336 0.135828
0.62355 0.287261 0.138572
0.623081 0.287319 0.139907
0.373878 0.177509 0.070801
0.409107 0.179609 0.0806433
0.410699 0.177946 0.0806881
0.468952 0.286719 0.151463
0.441134 0.287964 0.1411
0.440971 0.287466 0.141546
0.373683 0.182257 0.0706139
0.408275 0.182337 0.0805822
0.410275 0.180499 0.0805735
0.438868 0.286746 0.138077
0.438797 0.287715 0.135809
0.623314 0.282404 0.138726
0.373735 0.187268 0.0712035
0.407543 0.188772 0.0809049
0.622729 0.282266 0.139942
0.468365 0.282038 0.149887
0.467528 0.281649 0.150577
0.373403 0.192821 0.07088
0.407943 0.191935 0.0810029
0.412781 0.194381 0.0810645
0.440803 0.282651 0.140466
0.441048 0.281932 0.140993
0.438918 0.283471 0.137397
0.622887 0.277397 0.138473
0.40985 0.199943 0.0806751
0.412008 0.197706 0.0807554
0.622171 0.277282 0.13987
0.469046 0.275547 0.149962
0.46782 0.277419 0.150213
0.461565 0.275584 0.149361
0.410185 0.204188 0.0807893
0.412324 0.203133 0.080633
0.458319 0.276998 0.148986
0.440282 0.276126 0.139763
0.440251 0.276882 0.139929
0.439244 0.279019 0.137675
0.62169 0.271047 0.136592
0.413777 0.208319 0.080651
0.414699 0.207025 0.0808674
0.622505 0.27226 0.138399
0.621722 0.272359 0.139981
0.468442 0.272928 0.148822
0.468099 0.272135 0.149794
0.459606 0.272642 0.149059
0.413379 0.212563 0.0806899
0.452634 0.271574 0.147168
0.442255 0.271505 0.141576
0.44031 0.272006 0.139802
0.622264 0.267237 0.13561
0.622312 0.26757 0.138182
0.409907 0.216547 0.0811254
0.413727 0.217181 0.0808646
0.416042 0.21927 0.0812757
0.62154 0.267367 0.139834
0.469469 0.266998 0.149847
0.457124 0.268203 0.148618
0.455468 0.265825 0.148349
0.440512 0.267252 0.139293
0.413404 0.2211 0.0810115
0.415476 0.222893 0.0813684
0.622218 0.26264 0.138266
0.621122 0.26228 0.140176
0.468898 0.26124 0.149931
0.413822 0.227738 0.0817529
0.415176 0.22559 0.0819318
0.468608 0.262171 0.149569
0.468643 0.257859 0.149561
0.452017 0.256937 0.147227
0.409783 0.233855 0.0823448
0.412074 0.231024 0.08212
0.621627 0.252875 0.138612
0.620901 0.251877 0.139744
0.468909 0.253106 0.149741
0.469036 0.253183 0.149219
0.458049 0.251261 0.148718
0.403 0.23783 0.0829185
0.407254 0.236226 0.0827789
0.451396 0.252985 0.146745
0.449907 0.252019 0.145849
0.622946 0.248122 0.1343
0.62284 0.245504 0.133281
0.620456 0.249547 0.139493
0.401121 0.241208 0.0832868
0.620841 0.247152 0.138965
0.620936 0.246369 0.139552
0.46868 0.247415 0.149229
0.468891 0.248804 0.149104
0.461291 0.246851 0.149053
0.399538 0.245801 0.0834401
0.456853 0.248272 0.148051
0.456402 0.245313 0.147794
0.442635 0.247707 0.13941
0.414926 0.252067 0.0825309
0.415857 0.250828 0.082686
0.441939 0.247109 0.138257
0.620671 0.242337 0.138886
0.619199 0.241896 0.141394
0.4686 0.242646 0.148798
0.467761 0.243999 0.148546
0.462272 0.243038 0.148757
0.45575 0.243702 0.147555
0.620304 0.237532 0.139066
0.413788 0.259956 0.0831967
0.618779 0.237538 0.141232
0.468592 0.237766 0.148763
0.467766 0.235552 0.148382
0.464131 0.236951 0.148097
0.452306 0.236801 0.145606
0.418442 0.269067 0.0833866
0.419572 0.26761 0.0833605
0.620023 0.232545 0.13901
0.46861 0.232751 0.148895
0.467377 0.232504 0.148313
0.42141 0.271964 0.0835445
0.464154 0.23312 0.147747
0.467508 0.227597 0.148286
0.421883 0.279091 0.0833814
0.45695 0.224756 0.146455
0.451914 0.227621 0.144349
0.445367 0.226034 0.140282
0.439919 0.227689 0.133502
0.417116 0.283821 0.0827501
0.421142 0.282616 0.0830186
0.468511 0.220806 0.148659
0.467675 0.223134 0.148193
0.458104 0.222198 0.146539
0.415367 0.287848 0.0827332
0.417021 0.285881 0.0827471
0.453523 0.221611 0.144863
0.450376 0.22254 0.143199
0.446351 0.222912 0.140655
0.468595 0.218055 0.148628
0.41189 0.293591 0.0828046
0.413757 0.290843 0.0825956
0.467092 0.217312 0.147937
0.46228 0.215965 0.147291
0.459249 0.218367 0.146812
0.453476 0.217704 0.144643
0.45055 0.216704 0.143229
0.61884 0.212439 0.13817
0.468092 0.21175 0.148505
0.466499 0.212125 0.147541
0.462081 0.212847 0.146999
0.459387 0.21433 0.146554
0.440837 0.211769 0.134816
0.439541 0.212366 0.133236
0.621164 0.206438 0.133299
0.621296 0.208442 0.134198
0.618275 0.20728 0.137788
0.608726 0.204844 0.146029
0.468096 0.205508 0.148561
0.467079 0.207819 0.147849
0.440921 0.207406 0.135288
0.439244 0.207055 0.13315
0.620561 0.20312 0.133584
0.620351 0.202213 0.133805
0.419467 0.323484 0.0851009
0.617495 0.202356 0.137532
0.609374 0.202671 0.145793
0.46948 0.20173 0.149257
0.467179 0.20166 0.148661
0.464211 0.201096 0.148025
0.45785 0.20208 0.146354
0.453499 0.202657 0.144975
0.44056 0.202818 0.135229
0.438877 0.202101 0.133153
0.619977 0.199979 0.133655
0.619732 0.197696 0.133678
0.469875 0.197422 0.149397
0.467315 0.196704 0.148461
0.463643 0.19715 0.147866
0.458683 0.197377 0.146749
0.453942 0.197717 0.145208
0.449911 0.197596 0.143416
0.440169 0.197284 0.135469
0.43882 0.197672 0.134084
0.437987 0.195944 0.13306
0.470409 0.190992 0.149945
0.469053 0.191528 0.148978
0.46242 0.191952 0.147409
0.458762 0.192139 0.146982
0.454929 0.192851 0.1458
0.441808 0.192323 0.138194
0.37934 0.356918 0.0688953
0.439798 0.192282 0.135759
0.437395 0.191833 0.133529
0.619367 0.187335 0.133469
0.606937 0.183648 0.14868
0.471428 0.187639 0.150602
0.553776 0.361722 0.0696943
0.558149 0.361663 0.0687029
0.56271 0.361625 0.0685052
0.469787 0.186151 0.148746
0.459424 0.187 0.146946
0.455137 0.188805 0.145901
0.443414 0.189793 0.139601
0.441102 0.18763 0.138037
0.43959 0.187196 0.136152
0.437724 0.186436 0.135424
0.602868 0.361551 0.0678625
0.607774 0.361214 0.0679132
0.437041 0.187264 0.133861
0.619548 0.181388 0.133454
0.617042 0.182403 0.137061
0.472219 0.179697 0.149868
0.469335 0.18028 0.148885
0.465089 0.181807 0.14792
0.456237 0.182168 0.14589
0.441302 0.182042 0.138598
0.439478 0.182721 0.136442
0.437512 0.181952 0.135107
0.436726 0.181991 0.133191
0.619549 0.176373 0.133439
0.617201 0.177155 0.137114
0.607821 0.17505 0.147646
0.604688 0.171673 0.148588
0.586385 0.169655 0.149564
0.581641 0.170082 0.149
0.578494 0.16979 0.14819
0.57293 0.16932 0.146701
0.567538 0.168879 0.146207
0.561962 0.169281 0.14624
0.558139 0.169416 0.146216
0.536267 0.169606 0.144746
0.532515 0.169675 0.144514
0.527444 0.169862 0.143786
0.522663 0.170021 0.143823
0.518252 0.169957 0.143247
0.512759 0.169623 0.143106
0.473294 0.175311 0.150664
0.470258 0.176971 0.149356
0.453891 0.17852 0.14495
0.445366 0.177904 0.141592
0.44079 0.177406 0.138143
0.439367 0.17817 0.136497
0.437637 0.177607 0.135018
0.436737 0.177605 0.133074
0.619994 0.171398 0.133527
0.617563 0.172401 0.13722
0.606772 0.169565 0.146764
0.601944 0.168291 0.148052
0.58271 0.167206 0.147445
0.56281 0.167416 0.144789
0.557438 0.167565 0.144654
0.527539 0.167848 0.143775
0.522713 0.167717 0.143452
0.517887 0.167786 0.143713
0.513213 0.16754 0.143894
0.509366 0.167269 0.143718
0.477373 0.169398 0.151132
0.474434 0.169796 0.150139
0.445033 0.17329 0.141367
0.441261 0.172394 0.138056
0.557505 0.361677 0.0682137
0.562538 0.361581 0.0683751
0.439294 0.172692 0.136112
0.578698 0.361515 0.0678576
0.437673 0.172241 0.134184
0.436869 0.174467 0.133146
0.62037 0.166123 0.13425
0.617873 0.165625 0.137302
0.602935 0.360927 0.0672832
0.607942 0.360571 0.0670196
0.617628 0.167081 0.137871
0.605689 0.164569 0.145229
0.498324 0.161262 0.146437
0.492188 0.160455 0.147716
0.479745 0.161757 0.148763
0.475562 0.163215 0.14867
0.470073 0.163727 0.14805
0.465405 0.164203 0.146857
0.445112 0.167458 0.140957
0.44151 0.167624 0.137914
0.439427 0.168781 0.135802
0.438197 0.167874 0.134557
0.437324 0.168216 0.132736
0.62113 0.161063 0.133684
0.680888 0.353502 0.0671348
0.62091 0.161713 0.134985
0.618653 0.16204 0.137
0.617825 0.16243 0.138269
0.481402 0.156657 0.146465
0.47097 0.158536 0.146171
0.46564 0.159073 0.145646
0.460935 0.158544 0.144881
0.376827 0.356341 0.066864
0.455127 0.159802 0.144166
0.445319 0.16195 0.140289
0.441672 0.162991 0.137382
0.44011 0.162274 0.135326
0.438474 0.164048 0.134463
0.437918 0.16312 0.132992
0.623011 0.155263 0.134323
0.621933 0.156944 0.133771
0.620976 0.157437 0.135136
0.619423 0.157822 0.136298
0.617526 0.15781 0.137247
0.577385 0.155298 0.140919
0.465918 0.153463 0.142827
0.462122 0.153587 0.142837
0.45594 0.155886 0.143301
0.450383 0.155297 0.141334
0.446827 0.157561 0.140195
0.442002 0.157706 0.13669
0.440975 0.157202 0.135138
0.439105 0.160171 0.133223
0.438305 0.157623 0.132553
0.623043 0.15346 0.133757
0.622845 0.153728 0.133058
0.62191 0.154061 0.134062
0.619173 0.154369 0.134991
0.61645 0.153952 0.134933
0.448003 0.15239 0.13811
0.443051 0.153623 0.135652
0.441143 0.154302 0.13428
0.438577 0.153429 0.132549
0.623993 0.15166 0.131979
0.62336 0.150476 0.131759
0.61651 0.150801 0.133057
0.448358 0.15092 0.135594
0.444045 0.151383 0.134309
0.55737 0.361372 0.0675051
0.562269 0.361235 0.067603
0.441797 0.151963 0.134013
0.438881 0.149517 0.13168
0.577282 0.361435 0.0674571
0.581633 0.361019 0.0680284
0.626766 0.147267 0.131354
0.623214 0.148202 0.131315
0.620212 0.147582 0.131502
0.61605 0.147599 0.132207
0.611964 0.147374 0.132829
0.444626 0.150155 0.133022
0.442279 0.151187 0.133735
0.437852 0.148783 0.130894
0.628018 0.146388 0.130693
0.626032 0.146401 0.130512
0.623838 0.145678 0.130749
0.620317 0.145076 0.131243
0.616363 0.144967 0.131611
0.612133 0.145021 0.132406
0.607655 0.144689 0.132806
0.441438 0.149727 0.133258
0.62321 0.142677 0.131255
0.62134 0.142912 0.13078
0.615722 0.142214 0.131352
0.612924 0.143036 0.13112
0.608205 0.142698 0.131858
0.624312 0.358146 0.134885
0.625184 0.355516 0.136096
0.376624 0.357453 0.0662019
0.622562 0.354483 0.134381
0.618928 0.354678 0.133546
0.583172 0.358692 0.13263
0.561055 0.358521 0.132035
0.623383 0.358525 0.133904
0.623194 0.356628 0.13453
0.623254 0.353393 0.133565
0.621429 0.354037 0.133721
0.605846 0.357015 0.132225
0.622713 0.355334 0.134558
0.622698 0.354274 0.133264
0.622158 0.354226 0.132801
0.622378 0.351698 0.134387
0.621005 0.351354 0.133136
0.622092 0.352068 0.132594
0.619746 0.355594 0.13266
0.621874 0.347728 0.134247
0.620184 0.347021 0.133084
0.620635 0.347282 0.13267
0.622859 0.34958 0.13209
0.440399 0.312133 0.13792
0.439249 0.302319 0.137547
0.468609 0.297366 0.151496
0.4393 0.297095 0.138113
0.439771 0.293061 0.138476
0.437918 0.29205 0.13616
0.439549 0.287717 0.138844
0.438458 0.287397 0.135968
0.439368 0.281425 0.138258
0.439696 0.27912 0.138769
0.465874 0.269599 0.148998
0.462638 0.271183 0.148919
0.543117 0.362696 0.0654216
