# .PCD v0.7 - Point Cloud Data file format
VERSION 0.7
FIELDS x y z
SIZE 4 4 4
TYPE F F F
COUNT 1 1 1
WIDTH 1376
HEIGHT 1
VIEWPOINT 0 0 0 1 0 0 0
POINTS 1376
DATA ascii
0.14101088 -0.091414109 0.44375002
0.14295183 -0.091414109 0.44375002
0.14489278 -0.091414109 0.44375002
0.14679223 -0.09138836 0.44362503
0.14862794 -0.091323927 0.44331253
0.15101631 -0.091302492 0.44320834
0.15345396 -0.091311112 0.44325003
0.15543655 -0.09133672 0.44337502
0.15737587 -0.091336727 0.44337502
0.15922534 -0.091285221 0.44312501
0.16109529 -0.091246665 0.44293749
0.16289467 -0.091169283 0.44256249
0.16480722 -0.091156334 0.4425
0.1667898 -0.091182217 0.44262502
0.16882113 -0.091233723 0.44287503
0.17073408 -0.091220781 0.4428125
0.1728197 -0.091242835 0.44244999
0.17506287 -0.09100835 0.44225001
0.17670411 -0.091053605 0.44200003
0.14149611 -0.089959517 0.44375002
0.14505453 -0.089636266 0.44375002
0.14670348 -0.089163564 0.44365001
0.14864881 -0.08939904 0.44337502
0.15083663 -0.089470707 0.44325003
0.15283464 -0.088952042 0.44356254
0.1547156 -0.089287691 0.44362506
0.15727566 -0.088975303 0.44367859
0.159281 -0.08914341 0.44355002
0.1612317 -0.089386374 0.44331253
0.16312471 -0.089361168 0.44318753
0.16503999 -0.089348495 0.44312504
0.16697821 -0.089348495 0.44312504
0.16901173 -0.089398898 0.44337502
0.17095105 -0.089398898 0.44337502
0.17276841 -0.089335963 0.44306254
0.17496814 -0.08922261 0.4425
0.17670411 -0.089121796 0.44200003
0.19265381 -0.088638842 0.44200003
0.19469729 -0.089172065 0.44225001
0.078371018 -0.087970465 0.44350001
0.14703485 -0.087025672 0.44362503
0.14867683 -0.086993016 0.44345835
0.15063082 -0.087001093 0.44350001
0.15212849 -0.087510392 0.44362503
0.1579942 -0.086565465 0.44375002
0.159475 -0.08681725 0.44355002
0.16127715 -0.087473616 0.44343752
0.16323981 -0.087001272 0.44350001
0.16522627 -0.08702562 0.44362506
0.16718233 -0.087033801 0.4436667
0.16912292 -0.087033801 0.4436667
0.17104737 -0.08702562 0.44362506
0.172803 -0.087175384 0.4434
0.17491853 -0.087264001 0.44237503
0.19270843 -0.087214641 0.44212502
0.19486238 -0.087313272 0.44262502
0.071420111 -0.084871113 0.44250003
0.072346963 -0.085789621 0.44225001
0.14731897 -0.085110866 0.44375002
0.14877468 -0.084626004 0.44375002
0.15023039 -0.085110866 0.44375002
0.1579942 -0.084626004 0.44375002
0.15931505 -0.084554493 0.44337502
0.16120903 -0.085499279 0.44325003
0.16319394 -0.084554486 0.44337502
0.16527277 -0.084626004 0.44375002
0.16672848 -0.085110866 0.44375002
0.17109562 -0.084626004 0.44375002
0.17297743 -0.084840313 0.44335002
0.17448436 -0.085354611 0.4425
0.19285132 -0.085435323 0.44208336
0.19472474 -0.085318513 0.44231251
0.071460463 -0.083467744 0.44275001
0.15764104 -0.08250948 0.4436667
0.15927027 -0.082593374 0.44325003
0.16111809 -0.083030827 0.44300005
0.16319394 -0.082616664 0.44337502
0.16527277 -0.082686536 0.44375002
0.16721372 -0.082201675 0.44375002
0.16931641 -0.082524918 0.44375002
0.17102325 -0.082651667 0.44356251
0.17286591 -0.082605086 0.44331253
0.1744664 -0.083167776 0.4427
0.1945871 -0.083809316 0.44200003
0.071399935 -0.081463739 0.442375
0.15746446 -0.080724336 0.44362503
0.15929265 -0.080667399 0.44331253
0.16120903 -0.080656096 0.44325003
0.16321687 -0.080690145 0.44343752
0.16527277 -0.080747083 0.44375002
0.1671901 -0.080735773 0.44368753
0.16901173 -0.080678977 0.44337502
0.17090285 -0.080656096 0.44325003
0.17279272 -0.080633357 0.44312504
0.17499621 -0.08101581 0.44257146
0.061917111 -0.079292484 0.44375002
0.071339414 -0.079945691 0.44200003
0.1579942 -0.079292484 0.44375002
0.15940501 -0.078785285 0.44362503
0.1611685 -0.07893946 0.44358334
0.16333182 -0.079292484 0.44375002
0.16543452 -0.07896924 0.44375002
0.16716649 -0.078785419 0.44362503
0.16896409 -0.078718819 0.44325003
0.17085466 -0.078696489 0.44312501
0.17279285 -0.078696489 0.44312504
0.17516276 -0.078818046 0.4426429
0.17713085 -0.078804255 0.44210005
0.17912072 -0.078013875 0.44200003
0.18057069 -0.078013875 0.44200003
0.060877964 -0.077265866 0.44325003
0.16737546 -0.07702978 0.44375002
0.16910702 -0.076846361 0.443625
0.17095105 -0.076803058 0.44337502
0.17289035 -0.076803058 0.44337502
0.17478025 -0.076781407 0.44325003
0.1769871 -0.076687574 0.44270837
0.17932335 -0.07665135 0.4425
0.18115628 -0.076608181 0.44225001
0.19088161 -0.076404035 0.44200003
0.19270815 -0.076103583 0.44212502
0.1945871 -0.076082066 0.44200003
0.16963992 -0.075413562 0.44375002
0.17109562 -0.075413562 0.44375002
0.17287482 -0.075090319 0.44375002
0.1749281 -0.075392321 0.44362503
0.17698045 -0.075047828 0.44350004
0.17868301 -0.074854612 0.44331253
0.18101299 -0.074815944 0.44308338
0.19080162 -0.074664801 0.44218752
0.19295353 -0.074749082 0.44268751
0.19479267 -0.074612387 0.44283333
0.059874788 -0.072866425 0.44300002
0.1809281 -0.07313706 0.4436667
0.18230486 -0.07271833 0.44308338
0.19117002 -0.072971851 0.44266668
0.19325325 -0.072927281 0.44337505
0.19530249 -0.072968543 0.443625
0.1826278 -0.071104653 0.44308332
0.059756525 -0.068857104 0.44212502
0.071500815 -0.068509467 0.44300002
0.18310979 -0.068896487 0.44300002
0.05985789 -0.067038268 0.44287503
0.071520992 -0.067076117 0.44312501
0.18289895 -0.06705106 0.44295835
0.18479429 -0.066757493 0.44208336
0.18733723 -0.066423006 0.44200003
0.18898399 -0.066757493 0.44208336
0.19123352 -0.067085505 0.44318753
0.059908576 -0.065157905 0.44325003
0.071561337 -0.065176137 0.44337502
0.1828648 -0.065102734 0.44287503
0.1850775 -0.065029137 0.442375
0.18698609 -0.065019876 0.44231251
0.18916106 -0.065102495 0.44287503
0.19088279 -0.065194376 0.44350004
0.071541168 -0.06322062 0.44325003
0.18334943 -0.06365104 0.44287503
0.18493226 -0.063211225 0.44318751
0.18695022 -0.063238181 0.44337502
0.18851092 -0.063273966 0.44362503
0.19001991 -0.063776806 0.44375002
0.071440287 -0.061197072 0.44262502
0.07135959 -0.059195586 0.44212502
0.059925471 -0.057424851 0.44337502
0.059964895 -0.055038709 0.4436667
0.059976157 -0.053109769 0.44375002
0.071339414 -0.036962878 0.44200003
0.071379758 -0.03505088 0.44225001
0.07135959 -0.033108752 0.44212502
0.060843628 -0.031722002 0.44300002
0.065217309 -0.027142836 0.44200003
0.06650617 -0.027303819 0.44200003
0.06170781 -0.012339254 0.44225001
0.061847344 -0.010913925 0.44325
0.071339414 -0.0065368437 0.44200003
0.061882224 -0.0046206592 0.44350001
0.070856094 -0.0050879847 0.44200003
0.061707813 -0.003158231 0.44225001
0.071339414 -0.0031561728 0.44200003
0.06170781 -0.0012250536 0.44225001
0.062639579 -0.0012243611 0.44200003
0.061777577 0.00022487856 0.44275001
0.063131757 0.00070761889 0.44206253
0.063122898 0.0026392625 0.44200003
0.071339414 0.0031222152 0.44200003
0.063122906 0.0045710737 0.44200003
0.064572878 0.0050540268 0.44200003
0.069406122 0.0050540268 0.44200003
0.070856094 0.0045710737 0.44200003
0.063146703 0.0069886544 0.44216666
0.064966843 0.0071799196 0.44205004
0.066989496 0.0074687917 0.44200003
0.068935886 0.0069872472 0.44208336
0.070902891 0.0069905389 0.44229171
0.063194305 0.0094112381 0.44250003
0.065102123 0.0094073182 0.44231251
0.067008436 0.0094033983 0.44212502
0.068971589 0.0094073182 0.44231251
0.07093624 0.0094112381 0.44250003
0.063212022 0.011348439 0.44262502
0.065120526 0.011343701 0.4424375
0.067027383 0.011338824 0.44225001
0.068981409 0.01134203 0.442375
0.07093624 0.011345236 0.44250003
0.063230008 0.013286733 0.44275001
0.065129794 0.013279231 0.44250003
0.067036793 0.013273671 0.44231251
0.068991087 0.013277424 0.4424375
0.07093624 0.013279231 0.44250003
0.063238867 0.01522404 0.4428125
0.065157324 0.015219742 0.44268751
0.067065276 0.015213229 0.44250003
0.069000766 0.015213229 0.44250003
0.070966363 0.015219742 0.44268751
0.063265711 0.017166601 0.44300002
0.06517572 0.017159404 0.4428125
0.067093618 0.017154559 0.44268751
0.069030069 0.017154559 0.44268751
0.070986405 0.017159404 0.4428125
0.063283563 0.01910831 0.44312501
0.065203384 0.019102784 0.44300002
0.067122109 0.019097529 0.44287503
0.069059238 0.019097529 0.44287503
0.071016401 0.019102784 0.44300002
0.063336983 0.021062849 0.44350004
0.065240048 0.021050977 0.44325003
0.067141056 0.021038966 0.44300002
0.069078729 0.021038966 0.44300002
0.071016394 0.021038966 0.44300002
0.063858055 0.022529181 0.44375002
0.065276846 0.023001214 0.44350004
0.067159861 0.022981631 0.44312504
0.069078729 0.022975147 0.44300002
0.071016401 0.022975147 0.44300002
0.065463163 0.024787286 0.4436667
0.067188352 0.02492897 0.44331253
0.069078729 0.024911329 0.44300002
0.071016401 0.024911329 0.44300002
0.065799013 0.026892964 0.44375002
0.067216694 0.026877951 0.44350004
0.069107898 0.026858944 0.44318753
0.071036443 0.026855223 0.44312501
0.067254722 0.028347559 0.44375002
0.069176182 0.028824439 0.443625
0.071116589 0.028824439 0.44362503
-0.060967643 -0.13871901 0.44462502
-0.058976859 -0.1386673 0.44550002
-0.057183277 -0.13848518 0.44543752
-0.060976282 -0.13728091 0.44468755
-0.059249915 -0.13688061 0.44560003
-0.057742707 -0.1371987 0.44600001
-0.054662883 -0.13778611 0.44475001
-0.052776825 -0.136968 0.44525003
-0.060430847 -0.13568954 0.44425002
-0.059425816 -0.13464291 0.44400004
0.03348751 -0.13504215 0.44425002
0.035273615 -0.13522296 0.44431251
0.037222195 -0.13475662 0.44437504
0.039154999 -0.13471872 0.44425002
0.041098136 -0.13471872 0.44425002
0.043029029 -0.13468081 0.44412503
-0.04736764 -0.1324403 0.44475001
0.0076088542 -0.13232547 0.44600001
0.009218622 -0.13242674 0.44525003
0.010994938 -0.13247737 0.444875
0.01294081 -0.13247737 0.44487503
0.014879803 -0.13290082 0.44466671
0.016823048 -0.13288854 0.44462505
0.01874934 -0.13324355 0.44418752
0.020683538 -0.13270237 0.44400004
0.022189936 -0.13202877 0.44500002
0.026834091 -0.13247766 0.44455004
0.028998056 -0.13249606 0.44493753
0.031236973 -0.13290408 0.44514289
0.033419352 -0.13314995 0.44550005
0.035367955 -0.13314997 0.44550005
0.037299067 -0.13308759 0.44529167
0.039243136 -0.13307522 0.44525003
0.041182939 -0.1330505 0.44516671
0.043109771 -0.13298823 0.44495836
0.04476656 -0.13285139 0.44450003
-0.097569615 -0.13015695 0.44525003
-0.045277502 -0.13070726 0.4449167
0.0090692695 -0.13131401 0.44587502
0.011019653 -0.13082668 0.44587502
0.01280612 -0.13097686 0.44583336
0.014915962 -0.1312772 0.44575003
0.016860794 -0.1312404 0.44562501
0.018788978 -0.13157909 0.44512504
0.020575318 -0.13175334 0.44516668
0.023182664 -0.13165271 0.44537503
0.024636794 -0.13161591 0.44525
0.026621623 -0.13082668 0.44587502
0.028571866 -0.13082668 0.44587502
0.030770309 -0.13108875 0.44593751
0.039309237 -0.13135083 0.44600001
0.041414797 -0.1310014 0.44591668
0.043186463 -0.13079001 0.44575
0.045192957 -0.13096425 0.44535002
0.046997789 -0.13103096 0.4449167
0.04895306 -0.13056995 0.44500005
0.050856583 -0.13045979 0.44462502
0.052241769 -0.13076182 0.44400004
-0.095675781 -0.12925646 0.44550002
-0.091112524 -0.1290026 0.44462502
-0.089653537 -0.12851608 0.44462502
-0.072759107 -0.1282469 0.44537503
-0.070811048 -0.12873341 0.44537503
-0.068920977 -0.1288418 0.44575003
-0.066915207 -0.12922019 0.44537503
-0.064839929 -0.12945147 0.44450003
-0.063309908 -0.12979154 0.44400004
-0.043440741 -0.12990116 0.44437504
-0.04101466 -0.12991333 0.44441667
-0.038581528 -0.12990116 0.44437504
-0.036637571 -0.12941548 0.44437504
-0.034703784 -0.12896633 0.44450003
-0.032741122 -0.12889379 0.44425002
-0.031266168 -0.12882125 0.44400004
-0.024579229 -0.12842688 0.44600001
-0.023116134 -0.12842688 0.44600001
-0.021653039 -0.12842688 0.44600001
-0.0040844237 -0.12903886 0.44475001
0.043373391 -0.12907664 0.44600001
0.045148961 -0.12887794 0.44587502
0.047079332 -0.12882382 0.4456875
0.049001254 -0.12875155 0.44543752
0.050913915 -0.12866116 0.44512504
0.052801367 -0.12900223 0.44462499
0.054464839 -0.12891153 0.44431251
0.05661137 -0.12882125 0.44400004
-0.088556498 -0.12785098 0.44400004
-0.087278225 -0.12722795 0.44408336
-0.085157916 -0.12688071 0.44400004
-0.083163083 -0.12737101 0.44458333
-0.081527732 -0.12767062 0.4445
-0.074074477 -0.12799495 0.44450003
0.045161616 -0.12745224 0.44600001
0.047105737 -0.12694706 0.44593751
0.049035564 -0.12689361 0.44575
0.050963886 -0.12684017 0.44556251
0.052883077 -0.12676901 0.44531253
0.054889668 -0.12697154 0.44500002
0.056712266 -0.12710649 0.44479167
0.058630254 -0.12704676 0.44458339
0.049063198 -0.12550294 0.44600001
0.051013991 -0.12550294 0.44600001
0.052949809 -0.12546778 0.44587502
0.054892424 -0.12496285 0.44581252
0.05681856 -0.12491037 0.44562501
0.058734745 -0.12484029 0.44537503
0.092851356 -0.12457995 0.44410005
0.095006853 -0.12426479 0.44418752
0.05701822 -0.12320568 0.44591668
0.058800679 -0.1230317 0.44587502
0.088816948 -0.12235276 0.44400004
0.090631254 -0.1230455 0.44416669
0.092643544 -0.12265228 0.4445
0.094614238 -0.12268677 0.44462502
0.096970931 -0.12280114 0.44428572
0.099336356 -0.12202933 0.44400004
0.059304863 -0.12160435 0.44600001
0.085256539 -0.12008876 0.44400004
0.086725347 -0.12059081 0.44406253
0.08870516 -0.12064166 0.44425002
0.090711996 -0.12072659 0.44456249
0.092708617 -0.12079448 0.44481251
0.094667435 -0.12081138 0.444875
0.097045034 -0.12074358 0.44462499
0.099378236 -0.12062475 0.44418752
0.1012926 -0.12059081 0.44406253
0.10322045 -0.12057391 0.44400004
0.10516249 -0.12008876 0.44400004
0.10661903 -0.12008876 0.44400004
0.082990818 -0.11847164 0.44400004
0.084806882 -0.11868338 0.44418752
0.086786307 -0.11873342 0.44437501
0.088779904 -0.11880021 0.44462502
0.090788513 -0.11888378 0.44493753
0.092773676 -0.11893381 0.44512504
0.094694041 -0.11890054 0.44500002
0.097054124 -0.11881148 0.44466671
0.099420115 -0.11873356 0.44437501
0.10133543 -0.11870015 0.44425002
0.10326397 -0.11868338 0.44418752
0.1051921 -0.11866662 0.44412503
0.10713469 -0.11866662 0.44412503
0.10907727 -0.11866662 0.44412503
0.11082679 -0.11847164 0.44400004
0.059304863 -0.11673111 0.44600001
0.082875609 -0.1167585 0.44425002
0.084866621 -0.11682407 0.4445
0.086871818 -0.11690627 0.44481251
0.088867337 -0.11697197 0.44506255
0.090852216 -0.11702132 0.44525003
0.092799731 -0.11702132 0.44525003
0.094720498 -0.11698847 0.44512504
0.096877739 -0.11698699 0.44475001
0.099167608 -0.11674015 0.44455004
0.10139246 -0.11682421 0.44450003
0.10330763 -0.11679122 0.44437501
0.10526619 -0.11680771 0.4444375
0.10722515 -0.11682421 0.44450003
0.10915397 -0.11680771 0.4444375
0.11101974 -0.11672565 0.44412503
0.059171893 -0.11501151 0.44500002
0.082910791 -0.11486526 0.44443753
0.084914356 -0.11494596 0.44475001
0.086908355 -0.11501071 0.44500002
0.088904701 -0.11507532 0.44525003
0.090890542 -0.1151237 0.44543752
0.092838734 -0.1151237 0.44543752
0.094733872 -0.11505909 0.44518754
0.096613176 -0.1149784 0.44487503
0.099017821 -0.11494609 0.44475004
0.10140665 -0.11489756 0.44456255
0.10333669 -0.11488148 0.44450003
0.1053254 -0.11492987 0.44468755
0.10728545 -0.11494609 0.44475001
0.10919994 -0.11491378 0.44462502
0.11101974 -0.11478455 0.44412503
0.083478674 -0.11303387 0.444875
0.084961951 -0.11306577 0.44500002
0.086945049 -0.11311334 0.44518754
0.088904701 -0.1131293 0.44525003
0.090903223 -0.11319281 0.44550002
0.092851833 -0.11319281 0.44550002
0.094747245 -0.1131293 0.44525003
0.096626818 -0.11304982 0.44493753
0.099017821 -0.11300224 0.44475004
0.10144948 -0.11300224 0.44475001
0.10339481 -0.11300224 0.44475001
0.10534013 -0.11300224 0.44475001
0.10728545 -0.11300224 0.44475001
0.10919994 -0.11297049 0.44462502
0.11103543 -0.11285926 0.44418752
0.11244517 -0.11232655 0.44400004
0.059038926 -0.11038601 0.44400004
0.083525583 -0.11115193 0.44512504
0.084997818 -0.11116761 0.44518754
0.086957186 -0.11118329 0.44525003
0.088929802 -0.1112145 0.44537503
0.090903223 -0.11124571 0.44550002
0.092851833 -0.11124571 0.44550002
0.094747245 -0.11118329 0.44525003
0.09664046 -0.11112085 0.44500002
0.099017821 -0.11105842 0.44475004
0.10144948 -0.11105843 0.44475001
0.10339481 -0.11105843 0.44475001
0.10534013 -0.11105843 0.44475001
0.10728545 -0.11105843 0.44475001
0.10919994 -0.11102722 0.44462502
0.11108223 -0.11096479 0.44437501
0.11296248 -0.11090223 0.44412503
0.11487272 -0.11038601 0.44400004
0.059138652 -0.10911405 0.44475001
0.083572499 -0.10926779 0.44537503
0.085033536 -0.10926779 0.44537503
0.086993873 -0.10928319 0.44543752
0.088954628 -0.10929859 0.44550002
0.090903223 -0.10929859 0.44550002
0.092851825 -0.10929859 0.44550002
0.094787069 -0.10928319 0.44543752
0.096667469 -0.10920659 0.44512504
0.098856464 -0.10924853 0.44489998
0.10116892 -0.10902961 0.44480005
0.10339481 -0.10911459 0.44475001
0.10534013 -0.10911459 0.44475001
0.10728545 -0.10911459 0.44475001
0.10921536 -0.10909919 0.44468755
0.11111361 -0.10905325 0.44450003
0.11304188 -0.10903785 0.4444375
0.11496973 -0.10902245 0.44437504
0.11683114 -0.10894585 0.44406253
0.11827129 -0.10844545 0.44400004
0.083642863 -0.10692432 0.44575
0.085105143 -0.10692432 0.44575003
0.087054841 -0.10692432 0.44575003
0.089004539 -0.10692432 0.44575
0.090954229 -0.10741173 0.44575003
0.092921309 -0.10694448 0.44583336
0.094756044 -0.10711928 0.44575
0.096735395 -0.10733636 0.44543752
0.09862835 -0.10727612 0.44518754
0.10102927 -0.107241 0.44504169
0.10345293 -0.10723101 0.44500002
0.10539936 -0.107231 0.44500002
0.10733061 -0.10721587 0.44493753
0.10923079 -0.10717076 0.44475001
0.1111761 -0.10717076 0.44475001
0.11312143 -0.10717076 0.44475001
0.11505052 -0.10715563 0.44468755
0.1169298 -0.10709539 0.4444375
0.11882354 -0.10705014 0.44425005
0.12073284 -0.10702002 0.44412503
0.1226409 -0.1065049 0.44400004
0.12458295 -0.1065049 0.44400004
0.089542158 -0.10503535 0.44600001
0.091082379 -0.10520651 0.44590002
0.092956036 -0.10454802 0.44600001
0.094993681 -0.10482854 0.44595003
0.096830435 -0.10500574 0.44587502
0.098743759 -0.10496639 0.44570836
0.10053748 -0.1051002 0.44545001
0.10303372 -0.10535505 0.44529167
0.10545856 -0.10534523 0.44525003
0.10737591 -0.10531552 0.44512504
0.10930747 -0.1053008 0.44506252
0.1112386 -0.10528608 0.44500002
0.11318503 -0.10528608 0.44500002
0.1151152 -0.10527122 0.44493753
0.11701208 -0.10522693 0.44475001
0.11892397 -0.10519721 0.44462502
0.1208517 -0.1051825 0.44456249
0.12274447 -0.10513806 0.44437504
0.12463548 -0.10509378 0.44418752
0.12603948 -0.10504948 0.44400004
0.09734533 -0.10308605 0.44600001
0.098808423 -0.10259873 0.44600001
0.10080011 -0.10283323 0.44575
0.10263325 -0.10300883 0.44566667
0.10460213 -0.10302791 0.44575003
0.10675208 -0.10315879 0.44571427
0.10909526 -0.10289173 0.4456875
0.11136359 -0.10297012 0.44550002
0.11326444 -0.10341366 0.44531253
0.11517987 -0.10338463 0.44518754
0.11709422 -0.1033556 0.44506255
0.11899084 -0.10331199 0.444875
0.12090273 -0.10328309 0.44475001
0.12283073 -0.10326852 0.44468749
0.12468803 -0.10319602 0.44437501
0.12636314 -0.10294721 0.44400004
0.1313801 -0.10262379 0.44400004
0.13332215 -0.10262379 0.44400004
0.1352642 -0.10262379 0.44400004
0.029034987 -0.10004983 0.44550002
0.099296115 -0.10113677 0.44600001
0.10075922 -0.10113677 0.44600001
0.10271001 -0.10113677 0.44600001
0.10417309 -0.10113677 0.44600001
0.10905008 -0.10113677 0.44600001
0.11099041 -0.10064 0.44595838
0.11337578 -0.10107971 0.44575
0.11529309 -0.10105155 0.44562498
0.11718739 -0.10100422 0.44541669
0.11904093 -0.1014104 0.44506255
0.12095364 -0.10138192 0.44493753
0.12284806 -0.10133927 0.44475001
0.1247407 -0.10129648 0.44456249
0.12704608 -0.10119682 0.44412506
0.12945636 -0.10118255 0.44406253
0.1314171 -0.10119672 0.44412503
0.13337837 -0.10121103 0.44418752
0.13530228 -0.10119672 0.44412503
0.13704441 -0.10100666 0.44400004
0.030513557 -0.098644823 0.44575003
0.11119596 -0.098797604 0.44600001
0.11343937 -0.098700151 0.44600001
0.11535768 -0.098672479 0.44587502
0.11724215 -0.098617166 0.44562501
0.11911335 -0.099039115 0.44533333
0.12100463 -0.098992705 0.44512501
0.12289979 -0.099437274 0.44493753
0.12479338 -0.099395439 0.44475001
0.12670308 -0.099367365 0.44462502
0.12861171 -0.099339291 0.44450003
0.13059264 -0.099367365 0.44462502
0.13301106 -0.099358104 0.44458333
0.1353783 -0.099311635 0.44437501
0.13724473 -0.099255763 0.44412503
0.061518259 -0.097369581 0.44437504
0.062196173 -0.096209578 0.44575003
0.11165114 -0.0969133 0.44600001
0.11343937 -0.096750855 0.44600001
0.11535768 -0.096723743 0.44587502
0.11724215 -0.09666951 0.44562501
0.11914123 -0.096628763 0.44543752
0.12103867 -0.096588165 0.44525003
0.12296315 -0.097056307 0.44516668
0.1249103 -0.097056307 0.44516668
0.12686937 -0.0970653 0.44520834
0.1288287 -0.0970743 0.44525003
0.13077623 -0.0970743 0.44525003
0.13266148 -0.09702906 0.44504169
0.13493009 -0.097396828 0.4445
0.13724473 -0.097314663 0.44412503
0.063047022 -0.095533669 0.44487503
0.11392707 -0.09528888 0.44600001
0.11535769 -0.094774991 0.44587502
0.11725866 -0.094735071 0.4456875
0.11915801 -0.094695278 0.44550002
0.12110662 -0.094695278 0.44550002
0.12303789 -0.094681926 0.44543752
0.12500383 -0.094695278 0.44550002
0.12697032 -0.094708495 0.44556251
0.12897339 -0.094748423 0.44575003
0.13090464 -0.094735071 0.44568753
0.13270488 -0.094628789 0.44518754
0.13480203 -0.095253482 0.44453576
0.13724473 -0.095373563 0.44412503
0.11555272 -0.09301471 0.44600001
0.11729155 -0.092813157 0.44581252
0.11922488 -0.092800215 0.44575003
0.12119152 -0.092813157 0.44581252
0.12310695 -0.092787139 0.4456875
0.12500383 -0.092748173 0.44550002
0.1269882 -0.092774197 0.44562501
0.12899154 -0.092813157 0.44581252
0.13094136 -0.092813157 0.44581252
0.13272345 -0.092696123 0.44525003
0.13504215 -0.092897639 0.4444688
0.13715532 -0.093146481 0.44415003
0.13866277 -0.093406171 0.44400004
0.081555717 -0.090212926 0.44500002
0.082668014 -0.091339067 0.44575003
0.11734094 -0.090902969 0.44600001
0.11929175 -0.090902969 0.44600001
0.12124255 -0.090902969 0.44600001
0.12314148 -0.090864688 0.44581252
0.12505639 -0.090839207 0.4456875
0.12702368 -0.090852022 0.44575003
0.12902769 -0.090890169 0.44593751
0.13095966 -0.090877488 0.44587502
0.13272345 -0.090750113 0.44525003
0.13495557 -0.090614229 0.44458339
0.13736515 -0.090827182 0.44420004
0.13905117 -0.09078642 0.44400007
0.14060481 -0.090010203 0.44400004
0.14303237 -0.090010203 0.44400004
0.063912019 -0.08857958 0.44412503
0.079698741 -0.088367179 0.44550002
0.08102835 -0.089049272 0.44566667
0.11782864 -0.088953674 0.44600001
0.11880404 -0.088953674 0.44600001
0.12319332 -0.088953674 0.44600001
0.12507397 -0.088903822 0.44575003
0.12704155 -0.08891622 0.44581252
0.12888314 -0.089116119 0.44600001
0.1311345 -0.089099407 0.44591668
0.1327794 -0.088841423 0.44543752
0.13501872 -0.088712633 0.44479167
0.13734137 -0.088641971 0.4444375
0.13920696 -0.088592112 0.44418752
0.14111011 -0.088567182 0.44406253
0.14303237 -0.088554785 0.44400004
0.14481258 -0.08839307 0.44400004
0.15517016 -0.088069648 0.44400004
0.15614118 -0.088069648 0.44400004
0.063948005 -0.086687244 0.44437504
0.073894374 -0.08646857 0.44575003
0.075377911 -0.086492814 0.44587502
0.077187128 -0.087166823 0.44600001
0.078812793 -0.087491706 0.44600001
0.11782864 -0.087004378 0.44600001
0.11880404 -0.087004378 0.44600001
0.12368102 -0.087004378 0.44600001
0.12514411 -0.087004378 0.44600001
0.12660721 -0.087491706 0.44600001
0.1314842 -0.087491706 0.44600001
0.13287264 -0.08695548 0.44575
0.13470891 -0.086882189 0.44537503
0.13698979 -0.086784787 0.444875
0.13930485 -0.08671163 0.44450003
0.1412095 -0.086687244 0.44437504
0.14315318 -0.086687244 0.44437501
0.14503558 -0.086650737 0.44418752
0.14643095 -0.086129099 0.44400004
0.15290444 -0.086452521 0.44400004
0.15472819 -0.08663848 0.44412503
0.15664867 -0.086626358 0.44406253
0.063965991 -0.085254714 0.44450003
0.073271923 -0.085201539 0.44591668
0.074911207 -0.085542411 0.44600001
0.13503535 -0.085201539 0.44591668
0.13669533 -0.084959596 0.44550002
0.1389879 -0.084872194 0.44504169
0.14136836 -0.084840402 0.444875
0.14331424 -0.084840402 0.444875
0.14513755 -0.084768891 0.44450003
0.14678212 -0.084527768 0.44408336
0.15099078 -0.084527768 0.44408336
0.15285015 -0.084733203 0.44431251
0.15479344 -0.084733203 0.44431251
0.15667063 -0.084697515 0.44412503
0.16746978 -0.084511966 0.44400004
0.16924998 -0.08467368 0.44400004
0.1353858 -0.083593115 0.44600001
0.13682964 -0.083094075 0.44593751
0.13868298 -0.083035782 0.44562501
0.14083746 -0.083081871 0.44535002
0.14298816 -0.082989201 0.44537503
0.14505756 -0.082849883 0.44514999
0.14708176 -0.082826152 0.44450003
0.14890042 -0.082756281 0.44412503
0.15090676 -0.082791284 0.44431251
0.15291461 -0.082826294 0.44450003
0.15481515 -0.082803003 0.44437504
0.15649416 -0.082910456 0.44408336
0.16730794 -0.083218262 0.44400004
0.16876447 -0.083218262 0.44400004
0.062958442 -0.081323467 0.44425002
0.13733658 -0.08164382 0.44600001
0.13878016 -0.081145063 0.44593751
0.14067158 -0.081111006 0.44575003
0.14262128 -0.081111006 0.44575003
0.14483078 -0.081190109 0.44565001
0.14703751 -0.080922402 0.44525003
0.14910981 -0.080928907 0.44475001
0.15101281 -0.08090616 0.44462502
0.15297905 -0.080917597 0.44468755
0.15481515 -0.080860808 0.44437501
0.15614118 -0.080792576 0.44400004
0.13879967 -0.079207204 0.44600001
0.14067158 -0.079162806 0.44575003
0.14262128 -0.079162806 0.44575003
0.14463186 -0.07919617 0.44593751
0.1470079 -0.079162717 0.44575
0.14931948 -0.079096079 0.44537503
0.1512038 -0.079062708 0.44518754
0.15310805 -0.079040647 0.44506255
0.15490225 -0.078963012 0.44462502
0.15667063 -0.078874215 0.44412503
0.15808322 -0.078366883 0.44400004
0.16196731 -0.078366883 0.44400004
0.16342384 -0.078366883 0.44400004
0.16488038 -0.078366883 0.44400004
0.031957898 -0.077658072 0.44550002
0.13876064 -0.077236265 0.44587502
0.14065178 -0.077203855 0.4456875
0.14258128 -0.077193096 0.44562501
0.14457098 -0.077214614 0.44575003
0.14660284 -0.077257909 0.44600001
0.14881273 -0.077337943 0.44590002
0.15110224 -0.077117085 0.44575006
0.15323704 -0.077160403 0.44543752
0.15503289 -0.077084556 0.44500002
0.15680292 -0.076997943 0.44450003
0.15865788 -0.076954633 0.44425002
0.16062382 -0.076965392 0.44431251
0.1628539 -0.077060349 0.44430003
0.16511162 -0.076831654 0.44410005
0.16682242 -0.076426327 0.44400004
0.13878016 -0.075297996 0.44593751
0.14065179 -0.075255781 0.44568753
0.14258128 -0.075245157 0.44562504
0.14457098 -0.075266406 0.44575003
0.14660285 -0.075308621 0.44600001
0.14855364 -0.075308621 0.44600001
0.15096374 -0.075294547 0.44591668
0.15330148 -0.075245298 0.44562501
0.15511999 -0.075181842 0.44525003
0.15693535 -0.075118519 0.44487503
0.15888122 -0.075118519 0.44487503
0.1608271 -0.075118519 0.444875
0.16272709 -0.075097412 0.44475001
0.16485283 -0.075143874 0.44444999
0.16711046 -0.074915931 0.44425002
0.16908814 -0.074809201 0.44400004
0.17119202 -0.074485779 0.44400004
0.17361958 -0.074485779 0.44400004
0.17507613 -0.074485779 0.44400004
0.17653266 -0.074485779 0.44400004
0.13928737 -0.073846646 0.44600001
0.14073068 -0.073348969 0.44593751
0.14266127 -0.073338628 0.44587502
0.14463186 -0.073348969 0.44593751
0.14660284 -0.073359326 0.44600001
0.14882943 -0.073253684 0.44595003
0.15111928 -0.073423885 0.44580001
0.15334463 -0.073318198 0.44575003
0.15522893 -0.073287293 0.44556251
0.15711173 -0.073256388 0.44537503
0.15905979 -0.073256388 0.44537503
0.16100785 -0.073256388 0.44537503
0.16291004 -0.073235825 0.44525003
0.16469562 -0.073163934 0.44481251
0.16701008 -0.07311251 0.4445
0.16932137 -0.073061123 0.44418752
0.17119202 -0.07303036 0.44400004
0.17313406 -0.07303036 0.44400004
0.17517482 -0.073071346 0.44425002
0.17719266 -0.073102117 0.4444375
0.17911121 -0.07309176 0.44437504
0.18051831 -0.072586067 0.44425002
0.14902031 -0.071643621 0.44593751
0.15113631 -0.071288489 0.44585004
0.15343063 -0.07141003 0.44600001
0.15533787 -0.071389876 0.44587502
0.15724403 -0.071370006 0.44575003
0.15919372 -0.071369998 0.44575003
0.16116595 -0.071379937 0.44581252
0.16302444 -0.071339913 0.44556251
0.16485755 -0.071289808 0.44525003
0.16708829 -0.071203165 0.44470835
0.16936903 -0.071139768 0.44431251
0.17126425 -0.071119756 0.44418752
0.17320724 -0.071119756 0.44418752
0.17529799 -0.0711798 0.44456255
0.17725463 -0.071411811 0.44500002
0.17915168 -0.071184471 0.44520006
0.18113121 -0.071179666 0.44456252
0.18235877 -0.070604667 0.44400004
0.19260871 -0.071109682 0.44412503
0.1946062 -0.071129695 0.44425002
0.19611859 -0.071149707 0.44437504
0.14904132 -0.069948055 0.44600001
0.15099214 -0.069460727 0.44600001
0.15294293 -0.069948055 0.44600001
0.15749477 -0.069623172 0.44600001
0.159283 -0.069460735 0.44600001
0.1612338 -0.069460735 0.44600001
0.16311592 -0.069431469 0.44581252
0.16495012 -0.069382727 0.44550002
0.16671139 -0.069304854 0.44500002
0.16897006 -0.069233567 0.44454169
0.17133661 -0.069207519 0.44437504
0.17332916 -0.06922698 0.4445
0.17527544 -0.069453999 0.4449167
0.17673819 -0.069194652 0.44533336
0.17866573 -0.069412 0.4456875
0.18090709 -0.06933739 0.44520834
0.18235877 -0.069634393 0.44400004
0.19263589 -0.069178522 0.44418752
0.19474304 -0.069236785 0.44456249
0.19633925 -0.069285393 0.444875
0.15944557 -0.067673884 0.44600001
0.1612338 -0.067511439 0.44600001
0.16328213 -0.067219049 0.44600001
0.16507357 -0.066998802 0.44583336
0.16674505 -0.067120709 0.44535002
0.16887368 -0.067426935 0.44480005
0.17115083 -0.067209788 0.44465002
0.1732644 -0.067484207 0.44474998
0.17469217 -0.067210518 0.44508338
0.1767792 -0.06715861 0.44560003
0.17869072 -0.066986553 0.44575003
0.18090673 -0.067391656 0.44520834
0.19314872 -0.067246541 0.44425002
0.19490744 -0.067350537 0.44493753
0.19668865 -0.066973485 0.44566667
0.16562307 -0.065074824 0.44600001
0.16725956 -0.065047197 0.44581249
0.16883163 -0.064995341 0.44545832
0.17066818 -0.064952783 0.44516668
0.17270645 -0.065145083 0.44515005
0.17462802 -0.064977281 0.44533336
0.17658421 -0.064821646 0.44560003
0.1786907 -0.064551301 0.44575003
0.18085325 -0.065105051 0.445375
0.19266322 -0.065304898 0.44425005
0.1952076 -0.065181658 0.4454
0.16919953 -0.062800646 0.44600001
0.17093983 -0.062620513 0.44587502
0.17274423 -0.062894896 0.44575
0.17484032 -0.062620513 0.44587502
0.176741 -0.062603101 0.44575003
0.17869072 -0.062603101 0.44575003
0.18100905 -0.062724344 0.44545838
0.18298276 -0.062839516 0.44512498
0.18915594 -0.062842458 0.44400004
0.19081016 -0.063177675 0.44408336
0.19295563 -0.063135587 0.4447
0.19455725 -0.06301938 0.44525003
0.19683576 -0.062638208 0.44600001
0.1612338 -0.060201589 0.44600001
0.17700268 -0.06085135 0.44600001
0.17866558 -0.060646459 0.44568753
0.18097527 -0.060603917 0.44537506
0.18330744 -0.060569853 0.44512504
0.18502903 -0.060981646 0.44458333
0.18683338 -0.061421473 0.44425002
0.18895891 -0.061157573 0.44444999
0.1909166 -0.060998794 0.44470835
0.19291273 -0.060851224 0.44505006
0.19509903 -0.060603868 0.44537503
0.1612338 -0.058739621 0.44600001
0.16318458 -0.058739621 0.44600001
0.17871569 -0.058714859 0.44581252
0.18095833 -0.05865182 0.44533336
0.1832561 -0.058607917 0.44500002
0.18512441 -0.058583152 0.44481254
0.18699117 -0.059044164 0.44462502
0.18889196 -0.058866344 0.44475001
0.19106866 -0.058616079 0.44506255
0.19312379 -0.058649007 0.44531253
0.19499125 -0.05851151 0.44550002
0.072960414 -0.056303002 0.44600001
0.1617215 -0.057277646 0.44600001
0.16269688 -0.057277646 0.44600001
0.17922838 -0.056774274 0.44587502
0.18099211 -0.056715954 0.44541669
0.18333325 -0.0566868 0.44518754
0.18517643 -0.056654964 0.44493753
0.18709636 -0.056646939 0.444875
0.1890955 -0.056662858 0.44500002
0.19122967 -0.056718633 0.44543752
0.19325924 -0.056742437 0.44562504
0.1952084 -0.056742441 0.44562501
0.19667026 -0.056742437 0.44562501
0.072899073 -0.054795057 0.44562501
0.17147546 -0.054353703 0.44600001
0.18064028 -0.054810151 0.44575
0.18292332 -0.054764133 0.44537506
0.18528049 -0.054741058 0.44518754
0.18720151 -0.054733302 0.44512504
0.18925484 -0.054764178 0.44537503
0.191337 -0.054802537 0.4456875
0.19336767 -0.054825522 0.44587502
0.19526315 -0.054810289 0.44575003
0.19672543 -0.054810289 0.44575003
0.060009945 -0.052169416 0.44400004
0.072837733 -0.052802794 0.44525003
0.17147546 -0.052891731 0.44600001
0.17245084 -0.052891731 0.44600001
0.18087041 -0.0530442 0.44591668
0.18299186 -0.052837331 0.44554171
0.18538454 -0.052824959 0.44543752
0.187333 -0.052824959 0.44543752
0.18936108 -0.052847262 0.44562501
0.19141757 -0.052876908 0.44587502
0.19342187 -0.052891735 0.44600001
0.19526315 -0.052862085 0.44575003
0.19672543 -0.052862085 0.44575003
0.060026839 -0.050728142 0.44412503
0.072837733 -0.050856777 0.44525003
0.18122941 -0.050942443 0.44600001
0.18300889 -0.050894845 0.44558334
0.18541062 -0.050885331 0.44550002
0.18735921 -0.050885331 0.44550002
0.18933445 -0.050892539 0.44556251
0.19136375 -0.050913885 0.44575003
0.19331345 -0.050913885 0.44575003
0.19526315 -0.050913885 0.44575003
0.19661509 -0.050398555 0.44550002
0.060094416 -0.048841968 0.44462502
0.072858177 -0.048924357 0.44537503
0.18122941 -0.048993148 0.44600001
0.18300889 -0.048947379 0.44558334
0.1853586 -0.048924629 0.44537503
0.18730666 -0.048924632 0.44537503
0.18928134 -0.048931427 0.44543752
0.19128333 -0.048945159 0.44556251
0.19328642 -0.04895889 0.44568753
0.19526315 -0.048965685 0.44575003
0.19672543 -0.048965685 0.44575003
0.060195789 -0.046977796 0.44537503
0.072899073 -0.047004163 0.44562501
0.18122941 -0.047531176 0.44600001
0.18302602 -0.047004256 0.44562504
0.18530658 -0.046964746 0.44525003
0.18725409 -0.046964746 0.44525003
0.18920159 -0.046964746 0.44525003
0.19125642 -0.046991114 0.44550002
0.19328642 -0.047010828 0.4456875
0.19483036 -0.047030531 0.44587502
0.19683576 -0.047531176 0.44600001
0.072919525 -0.045069285 0.44575003
0.18310294 -0.045319058 0.44581249
0.18511811 -0.04494654 0.44550005
0.18725409 -0.045018725 0.44525003
0.18922821 -0.045024976 0.44531253
0.19136389 -0.045069147 0.44575003
0.19342187 -0.045581885 0.44600001
0.072919525 -0.043121085 0.44575003
0.1831802 -0.043632589 0.44600001
0.18487346 -0.043228053 0.44584998
0.18710877 -0.04300911 0.44560003
0.18921626 -0.043275278 0.44566667
0.19049567 -0.043145265 0.44600001
0.072919525 -0.041172881 0.44575003
0.185131 -0.041683294 0.44600001
0.18684468 -0.041284092 0.44590002
0.18854488 -0.04119597 0.44600001
0.07293997 -0.03923554 0.44587502
0.1870818 -0.039733998 0.44600001
0.06011131 -0.034763061 0.44475001
0.060077526 -0.033286467 0.44450003
0.060435534 -0.031199371 0.44474998
0.06079391 -0.029596141 0.44500002
0.061095428 -0.026992977 0.44483337
0.072960414 -0.026576264 0.44600001
0.19586036 -0.026576264 0.44600001
0.19683576 -0.026576264 0.44600001
0.061066814 -0.024550911 0.44462502
0.072960414 -0.02462697 0.44600001
0.19586036 -0.025114294 0.44600001
0.061101146 -0.022620339 0.444875
0.061135486 -0.02068758 0.44512504
0.061186992 -0.018757764 0.44550002
0.06125566 -0.017317118 0.44600001
0.061969437 -0.0089945076 0.44412503
0.061986875 -0.0065701189 0.44425002
0.062021758 -0.0075451853 0.44450003
0.061951995 -0.0055961455 0.44400004
0.061951995 0.00119579 0.44400004
0.062039196 0.0026550731 0.44462502
0.062108967 0.0046035284 0.44512504
0.062126409 0.0065507013 0.44525003
0.062161285 0.0089886291 0.44550002
0.062231053 0.01143497 0.44600001
0.062231053 0.019232146 0.44600001
0.062231053 0.020694118 0.44600001
0.06324669 0.023188723 0.44400004
0.063426241 0.02497459 0.44412503
0.06486506 0.025452701 0.44400004
0.063453086 0.026927121 0.44431251
0.06486506 0.026908116 0.44400004
0.063488789 0.028885286 0.44456249
0.065387234 0.028865049 0.44425002
0.067292616 0.029333808 0.44400004
0.063047022 0.030850034 0.444875
0.064956188 0.030832609 0.44462502
0.06733036 0.030806694 0.44425002
0.06924434 0.030793624 0.44406253
0.071186796 0.030793622 0.44406253
0.063064732 0.032803491 0.44500002
0.064986624 0.032791201 0.44483337
0.067349315 0.03275742 0.44437504
0.069273643 0.032748204 0.44425002
0.071216777 0.032748204 0.44425002
0.063064732 0.034748413 0.44500002
0.06498044 0.0347321 0.44479167
0.067349315 0.034699611 0.44437504
0.069254011 0.034680087 0.44412503
0.071176708 0.034670327 0.44400004
0.063100167 0.036713954 0.44525003
0.064974271 0.036672723 0.44475004
0.067339912 0.036636718 0.44431251
0.069234662 0.036610883 0.44400004
0.071176708 0.036610883 0.44400004
0.063117877 0.038670957 0.44537503
0.065010786 0.03863826 0.44500005
0.067349315 0.038583994 0.44437501
0.069273643 0.038573138 0.44425002
0.071196742 0.038562424 0.44412503
0.063153312 0.040640321 0.44562501
0.065041319 0.04060223 0.44520834
0.067406148 0.040560521 0.44475001
0.069332123 0.040549122 0.44462502
0.071276903 0.040549122 0.44462502
0.063206449 0.042136353 0.44600001
0.064642288 0.042605963 0.44581252
0.06700746 0.042560149 0.44533336
0.069410086 0.042540193 0.44512504
0.071357056 0.042540193 0.44512504
0.066770367 0.044402298 0.44591668
0.069013484 0.044543963 0.44570836
0.07143721 0.044535629 0.44562501
0.069320694 0.046859063 0.4458929
0.071457244 0.046983242 0.44575003
0.072960414 0.047496911 0.44600001
0.067108035 0.049933527 0.44600001
0.069032751 0.049427632 0.44583336
0.071447298 0.049411491 0.4456875
0.072919525 0.049418487 0.44575003
0.064669542 0.051882822 0.44600001
0.066610932 0.05138823 0.44593751
0.069000579 0.051352236 0.44562504
0.071427256 0.051345155 0.44556251
0.072919525 0.051366691 0.44575003
0.064669542 0.053344794 0.44600001
0.06660153 0.053329844 0.44587502
0.069007121 0.053305015 0.4456667
0.071467333 0.053322434 0.44581252
0.072960414 0.053344794 0.44600001
0.064669542 0.055294089 0.44600001
0.066620335 0.055294085 0.44600001
0.068840519 0.055178188 0.44585004
0.071009614 0.055131644 0.44600001
0.072960414 0.054806761 0.44600001
-0.055823185 -0.13825081 0.44625002
-0.057135057 -0.13665093 0.44633332
-0.055397078 -0.13694113 0.44675004
-0.053625923 -0.13682948 0.4469167
-0.05197759 -0.13645314 0.44675002
-0.05878393 -0.13491289 0.4465
-0.057359248 -0.13500738 0.44681254
-0.055622235 -0.1353025 0.44725001
-0.05302377 -0.13565373 0.44733334
-0.050512031 -0.1349887 0.44675002
-0.058899127 -0.1332221 0.447375
-0.057610687 -0.13342227 0.44749999
0.0051761596 -0.13247383 0.44650003
0.006637176 -0.13239965 0.44625002
-0.058948502 -0.13186623 0.44775003
0.001760414 -0.13066851 0.44700003
0.0032258865 -0.13112012 0.44687504
0.005180507 -0.13112012 0.44687504
0.0071290028 -0.13101007 0.44650003
0.0090770349 -0.13044927 0.44625002
0.013468778 -0.13044927 0.44625002
0.014932693 -0.13044927 0.44625002
0.016889445 -0.1304858 0.44637501
0.018857572 -0.13059542 0.44675002
0.020966537 -0.13087176 0.44658336
0.022586076 -0.13082305 0.44641671
0.024692126 -0.13044927 0.44625002
0.031035755 -0.13044927 0.44625002
0.032996748 -0.1309734 0.44637501
0.035158206 -0.13092704 0.44655004
0.037395023 -0.13099167 0.44643754
0.039342154 -0.1304858 0.44637501
0.040795188 -0.13044927 0.44625002
-0.094611272 -0.12882282 0.44737503
-0.092961088 -0.12857085 0.44650003
-0.091470867 -0.12853485 0.44637501
-0.067121387 -0.12864284 0.44675004
-0.065113872 -0.1291846 0.44749999
-0.063518219 -0.12958312 0.44775
-0.04411187 -0.12947406 0.44625002
-0.042683657 -0.12958287 0.44662502
-0.040809788 -0.12983674 0.44750002
-0.038874418 -0.12990928 0.44775003
-0.036895081 -0.1293475 0.44750002
-0.035447136 -0.12893081 0.44775003
-0.029074196 -0.12889481 0.44762504
-0.027078569 -0.12871483 0.44700003
-0.025568949 -0.12849887 0.44625002
-0.020689234 -0.12849887 0.44625002
-0.019225318 -0.12849887 0.44625002
-0.017273434 -0.12849887 0.44625002
-0.015321545 -0.12849887 0.44625002
-0.013384366 -0.12864284 0.44675004
-0.011443358 -0.12878682 0.44725001
-0.0090013864 -0.1288348 0.44741669
-0.0065580653 -0.12889481 0.44762504
-0.0050911983 -0.12893081 0.44775003
-0.0026360876 -0.12958287 0.44662502
-0.00052097789 -0.1294864 0.44741669
0.0012727985 -0.1293295 0.44743752
0.0032294961 -0.1293115 0.447375
0.0051869592 -0.1293295 0.44743752
0.0071400488 -0.12925725 0.44718751
0.0090884073 -0.12914886 0.44681254
0.011041278 -0.12913072 0.44675004
0.01299535 -0.12913072 0.44675004
0.014962109 -0.12923911 0.44712502
0.016931875 -0.1293475 0.44750005
0.018886521 -0.1293295 0.44743749
0.020831956 -0.12925725 0.44718751
0.022772087 -0.12916699 0.44687504
0.024716265 -0.12911272 0.44668752
0.026658801 -0.12905858 0.4465
0.028603908 -0.12902245 0.44637501
0.030569244 -0.12907659 0.44656253
0.032549806 -0.12918498 0.44693753
0.035008036 -0.12923925 0.44712505
0.037447378 -0.12922111 0.44706252
0.039375205 -0.12913086 0.44675004
0.041300438 -0.1290406 0.44643754
0.042747073 -0.12849887 0.44625002
-0.090671897 -0.12780945 0.44725001
-0.088895105 -0.12718132 0.44733334
-0.086831987 -0.12693842 0.44762504
-0.08485052 -0.12690297 0.44750002
-0.082823843 -0.12679663 0.44712502
-0.080978177 -0.12736441 0.44683337
-0.078912139 -0.12777373 0.44712502
-0.077510446 -0.12788089 0.44750002
-0.067253254 -0.1279166 0.44762504
-0.065803066 -0.12795234 0.44775003
-0.015364463 -0.12788089 0.44750002
-0.013407109 -0.12788089 0.44750002
-0.011452816 -0.1279166 0.44762504
-0.0090080928 -0.12795234 0.44775
0.0071469657 -0.1279166 0.44762504
0.0090997806 -0.12784517 0.447375
0.011059814 -0.12788089 0.44750002
0.013017167 -0.12788089 0.44750002
0.014493275 -0.12795234 0.44775003
0.021017462 -0.12760235 0.44766673
0.022797566 -0.1273562 0.447375
0.024754373 -0.1273562 0.447375
0.026699919 -0.12730277 0.44718751
0.028651968 -0.12728503 0.44712502
0.030612029 -0.12730277 0.44718751
0.032595329 -0.12740952 0.44756252
0.03456736 -0.12795234 0.44775003
0.037202887 -0.12753236 0.44765005
0.039419271 -0.12732062 0.44725001
0.04132928 -0.12717828 0.44675002
0.043253146 -0.1270894 0.44643754
0.045186933 -0.12654848 0.44625002
0.022816677 -0.12599538 0.44775003
0.024775125 -0.12599538 0.44775003
0.026733574 -0.12599538 0.44775003
0.028675998 -0.12592503 0.44750002
0.030650467 -0.12599538 0.44775003
0.037994646 -0.12599538 0.44775003
0.039556943 -0.12519853 0.44770002
0.041286889 -0.12510037 0.44735003
0.043283354 -0.12522571 0.44675004
0.045212112 -0.12515563 0.44650003
0.047152024 -0.1251206 0.44637501
0.049118206 -0.1246679 0.44650003
0.05105675 -0.124633 0.44637501
0.052994475 -0.12459809 0.44625002
0.041577328 -0.12336305 0.44766667
0.043343905 -0.12295654 0.44737497
0.045175023 -0.12307636 0.44710001
0.047204841 -0.12330764 0.44687504
0.04915946 -0.12330764 0.44687504
0.051114079 -0.12330764 0.44687504
0.053039011 -0.12323866 0.44662502
0.054961756 -0.12316966 0.44637501
0.056410275 -0.12264771 0.44625002
0.043869987 -0.12110303 0.44775003
0.045564439 -0.12105204 0.44756252
0.047266413 -0.12102386 0.44745836
0.049209878 -0.12099016 0.44733334
0.051149752 -0.12143944 0.44718751
0.053090896 -0.1214055 0.44706252
0.055007793 -0.12132056 0.44675004
0.056922093 -0.12123577 0.44643754
0.058687482 -0.12102238 0.44625005
0.047460478 -0.11881993 0.44775
0.049235016 -0.11860709 0.44756252
0.051171225 -0.11904611 0.44737497
0.053113233 -0.11901303 0.44724998
0.054940842 -0.11914166 0.44700003
0.056945927 -0.11933474 0.44662502
0.058850139 -0.11923453 0.44625002
0.04924877 -0.11668354 0.44768751
0.051185567 -0.11663476 0.44750002
0.053127937 -0.11660217 0.447375
0.055148672 -0.11682354 0.44710001
0.056945927 -0.1173827 0.44662502
0.058687482 -0.11744668 0.44625005
0.049745325 -0.11474296 0.44775003
0.051206946 -0.11472688 0.44768757
0.05314292 -0.1146789 0.44750002
0.055077121 -0.11463077 0.4473125
0.056977797 -0.11500666 0.44687501
0.058394864 -0.11539838 0.44650003
0.051703773 -0.11327526 0.44775003
0.053172611 -0.11278602 0.44775003
0.055107906 -0.11273872 0.44756252
0.057025753 -0.11266007 0.44725001
0.058460254 -0.11308515 0.44700003
0.053662222 -0.11131832 0.44775003
0.055123292 -0.11081354 0.44768751
0.057041556 -0.11073626 0.447375
0.058492947 -0.11070532 0.44725001
0.05562067 -0.10887215 0.44775003
0.057041556 -0.10878095 0.447375
0.058752876 -0.10846645 0.44675002
0.057231277 -0.10703848 0.44758335
0.058948908 -0.10673597 0.44700003
0.057579119 -0.10544749 0.44775003
0.059014842 -0.10489951 0.44750002
0.060381625 -0.10423569 0.44675002
0.083760142 -0.1046358 0.44637501
0.085224465 -0.1046358 0.44637501
0.087176904 -0.1046358 0.44637504
0.088941716 -0.10444409 0.44625005
0.090568289 -0.10411903 0.44625002
0.059200075 -0.10314512 0.44766667
0.0604661 -0.1029149 0.447375
0.083783597 -0.10271375 0.44650003
0.085248336 -0.10271375 0.44650003
0.087213591 -0.10272806 0.44656253
0.089166708 -0.10272806 0.44656253
0.091081768 -0.10268486 0.44637504
0.093008146 -0.10265625 0.44625002
0.094960034 -0.10265625 0.44625002
0.096749268 -0.10249371 0.44625005
0.059537563 -0.10104437 0.44775003
0.060482994 -0.10098796 0.44750002
0.083736688 -0.10070586 0.44625002
0.08523646 -0.10074824 0.44643754
0.087225862 -0.10079049 0.44662502
0.089204215 -0.10081869 0.44675002
0.091132775 -0.10079035 0.44662502
0.093060255 -0.10076228 0.44650003
0.094986632 -0.10073394 0.44637504
0.096911922 -0.10070587 0.44625002
0.098701149 -0.10054333 0.44625005
0.1008157 -0.10021827 0.44625002
0.10276758 -0.10021827 0.44625002
0.10488212 -0.10054334 0.44625005
0.10668622 -0.1007199 0.44631255
0.10846058 -0.10054333 0.44625005
0.059537563 -0.099087432 0.44775003
0.060482994 -0.099032104 0.44750002
0.083736688 -0.098755479 0.44625002
0.085200608 -0.098755479 0.44625002
0.087201312 -0.098810799 0.44650003
0.089204207 -0.09886612 0.44675002
0.091158286 -0.09886612 0.44675002
0.093099266 -0.098852217 0.44668752
0.095013231 -0.098810807 0.44650003
0.096966222 -0.098810807 0.44650003
0.09890528 -0.098796897 0.44643754
0.10084394 -0.098783001 0.44637504
0.10281084 -0.098796897 0.44643754
0.10479286 -0.098824561 0.44656253
0.10674599 -0.098824561 0.44656253
0.10865352 -0.098783135 0.44637501
0.11008716 -0.098267883 0.44625002
0.059537563 -0.09761972 0.44775003
0.060972065 -0.097076245 0.44750005
0.083736688 -0.096805088 0.44625002
0.085200608 -0.096805088 0.44625002
0.087225862 -0.096886441 0.44662502
0.089241721 -0.096954152 0.44693753
0.091209292 -0.096967787 0.44700003
0.093125314 -0.096927047 0.44681254
0.095066428 -0.096913546 0.44675002
0.097020507 -0.096913546 0.44675002
0.098974578 -0.096913546 0.44675002
0.10095689 -0.096940532 0.44687504
0.10291151 -0.096940532 0.44687504
0.10485139 -0.096927032 0.44681254
0.10679087 -0.096913546 0.44675002
0.1086688 -0.096845701 0.44643754
0.11041247 -0.096642554 0.44625005
0.061461676 -0.095609359 0.44750002
0.062719703 -0.094886564 0.44716668
0.083736688 -0.094854698 0.44625002
0.085224599 -0.094881274 0.44637501
0.087262407 -0.09497419 0.44681251
0.08929164 -0.095053911 0.44718751
0.091272995 -0.09508048 0.4473125
0.093177423 -0.095027342 0.44706252
0.095106259 -0.095000759 0.44693753
0.097047657 -0.094987415 0.44687504
0.099029966 -0.095014118 0.44700003
0.10099932 -0.095027335 0.44706252
0.10295463 -0.095027335 0.44706252
0.10489547 -0.095014125 0.44700003
0.10680574 -0.09497419 0.44681254
0.10869924 -0.09492106 0.44656253
0.1106061 -0.094881132 0.44637501
0.11283235 -0.094767764 0.44630003
0.063116245 -0.093362235 0.44766667
0.083736688 -0.092904314 0.44625002
0.085260332 -0.092969306 0.44656253
0.087299094 -0.093060322 0.44700003
0.089341551 -0.093151465 0.44743752
0.091311321 -0.093164548 0.44750002
0.093229525 -0.093125448 0.4473125
0.095132858 -0.093073398 0.44706252
0.097074792 -0.093060456 0.44700003
0.099043876 -0.093073398 0.44706252
0.10104161 -0.093112499 0.44725001
0.10299787 -0.093112499 0.44725001
0.10491006 -0.093073398 0.44706252
0.10683562 -0.093047373 0.44693753
0.10874494 -0.093008414 0.44675002
0.11069901 -0.093008406 0.44675002
0.11288278 -0.093053833 0.4465
0.11451083 -0.092442602 0.44637501
0.083427012 -0.090808295 0.44633332
0.085296206 -0.091055699 0.44675004
0.087323517 -0.091132268 0.44712502
0.089366518 -0.09122137 0.44756252
0.091362342 -0.091259658 0.44775003
0.093281634 -0.09122137 0.44756252
0.095186055 -0.091170415 0.4473125
0.097129092 -0.091157749 0.44725001
0.099085346 -0.091157749 0.44725001
0.10104161 -0.091157749 0.44725001
0.10299787 -0.091157749 0.44725001
0.10495412 -0.091157749 0.44725001
0.10685063 -0.091106795 0.44700003
0.10880581 -0.091106795 0.44700003
0.11076097 -0.091106795 0.44700003
0.11266879 -0.091068506 0.44681251
0.11500954 -0.090987802 0.44641671
0.081830621 -0.088565536 0.44650003
0.083342128 -0.089103125 0.44675004
0.085367665 -0.089177914 0.44712502
0.087384477 -0.089240313 0.44743752
0.089391485 -0.089290179 0.44768757
