# .PCD v0.7 - Point Cloud Data file format
VERSION 0.7
FIELDS x y z rgb
SIZE 4 4 4 4
TYPE F F F U
COUNT 1 1 1 1
WIDTH 1119
HEIGHT 1
VIEWPOINT 0 0 0 1 0 0 0
POINTS 1119
DATA ascii
0.0039385506 -0.061500125 0.64300001 9543835
0.0053530964 -0.061595775 0.64400005 9543835
0.0067746402 -0.061715331 0.64525002 9675421
0.008195309 -0.061787065 0.64600003 9806493
0.0096229762 -0.061882708 0.64700001 9674907
0.011050752 -0.061954442 0.64775002 9674907
0.012476997 -0.062002268 0.64825004 9609114
0.01390007 -0.062026177 0.64850003 9609114
0.015324237 -0.062050089 0.64875001 9675421
0.016749498 -0.062074002 0.64900005 9347226
0.01817585 -0.062097915 0.64925003 9609114
0.019610843 -0.06214574 0.64975005 9346456
0.021072298 -0.062265292 0.65100002 9412249
0.022530584 -0.062360935 0.65200001 9478044
0.024011614 -0.062504403 0.65350002 9675423
0.025654927 -0.063030459 0.65900004 9938081
0.02712699 -0.063102193 0.65975004 9806495
0.02858068 -0.063126102 0.66000003 9675421
0.030035464 -0.063150011 0.66025001 9675421
0.031479422 -0.063150011 0.66025001 9675421
0.03293585 -0.063173927 0.66050005 9675421
0.034380354 -0.063173927 0.66050005 9413019
0.035838418 -0.063197836 0.66075003 9675421
0.037283473 -0.063197836 0.66075003 9478042
0.038743176 -0.063221745 0.66100001 9544605
0.040219177 -0.06326957 0.66150004 9413272
0.041713107 -0.063341305 0.66225004 9543835
0.04321032 -0.063413039 0.66300005 9806493
0.044710815 -0.063484773 0.66375005 9937566
0.046231974 -0.063580424 0.66475004 10003361
0.048349325 -0.064465143 0.67400002 9741216
0.049841829 -0.064489052 0.67425001 9872800
0.051354464 -0.064536877 0.67475003 9807007
0.052849703 -0.064560786 0.67500001 9676191
0.054325923 -0.064560786 0.67500001 9741984
0.055802137 -0.064560786 0.67500001 9872800
0.057151075 -0.064417325 0.67350006 9872800
0.057731807 -0.063436948 0.66325003 10069665
0.059249252 -0.063508689 0.66400003 9938593
0.060769975 -0.063580424 0.66475004 10004639
0.062270574 -0.063628241 0.66525 10069918
0.064731285 -0.06463252 0.67575002 10069665
0.06630712 -0.064728163 0.67675 10136225
0.067787163 -0.064728163 0.67675 10135972
0.069292799 -0.06475208 0.67700005 10267044
0.070825651 -0.064799897 0.67750001 10332837
0.072360702 -0.064847723 0.67800003 10135711
0.07438805 -0.065325953 0.68300003 10398117
0.076353937 -0.065732442 0.68725002 10594979
0.077941909 -0.065804176 0.68800002 10594979
0.07953316 -0.065875918 0.68875003 10463910
0.081333607 -0.066115029 0.69125003 10463912
0.084133729 -0.067143217 0.70200002 10332837
0.085730016 -0.067191042 0.70250005 10333090
0.087328486 -0.06723886 0.70300001 10267297
0.088929139 -0.067286685 0.70350003 10398883
0.090531997 -0.06733451 0.70400006 10660772
0.090306051 -0.066043295 0.69050002 10726565
0.091483735 -0.065804176 0.68800002 10726565
0.093089752 -0.065875918 0.68875003 10660772
0.094802067 -0.066019386 0.69025004 10726565
0.097637177 -0.066928014 0.69975001 10726565
0.10072643 -0.067980118 0.71075004 10726565
0.10353999 -0.068817012 0.71950001 10726565
0.10511354 -0.068817012 0.71950001 10857638
0.105056 -0.067764916 0.70850003 10791843
0.10577791 -0.06723886 0.70300001 10791843
0.10742985 -0.067310594 0.70375001 10791843
0.1091238 -0.067406245 0.70475006 10857636
0.11090061 -0.067549713 0.70625001 10726050
0.1127636 -0.067741007 0.70825005 10660772
0.11447393 -0.06783665 0.70925003 10595749
0.11610686 -0.067884475 0.70975006 10595749
0.11770051 -0.067908384 0.71000004 10595749
0.11921128 -0.067884475 0.70975006 10595749
0.12072095 -0.067860559 0.70950001 10595749
0.12390982 -0.068769194 0.71900004 10464161
0.12714024 -0.069677822 0.72850001 10660772
0.12877764 -0.069701739 0.72875005 10463910
0.13037139 -0.069701739 0.72875005 10398630
0.13454561 -0.071064688 0.74300003 10529703
0.13612473 -0.071040779 0.74275005 10529956
0.13774912 -0.071040779 0.74275005 10529956
0.13820072 -0.070442989 0.73650002 10660772
0.13772328 -0.069390893 0.72550005 10398370
0.13921393 -0.069343068 0.72500002 10398630
0.1407024 -0.06929525 0.72450006 10529703
0.14218867 -0.069247425 0.72400004 10660519
0.1437224 -0.069223516 0.72375005 10594726
0.14530525 -0.069223516 0.72375005 10529186
0.14688808 -0.069223516 0.72375005 10594979
0.15247114 -0.071088597 0.74325001 10398117
0.15425211 -0.071160331 0.74400002 10528933
0.15608877 -0.071255982 0.74500006 10594979
0.15782392 -0.0713038 0.74550003 10594977
0.16057724 -0.071805947 0.75075006 10594977
0.16610847 -0.07352756 0.76875001 10464163
0.16778973 -0.07352756 0.76875001 10594979
0.16941586 -0.073503651 0.76850003 10529186
0.16979834 -0.072236344 0.75525004 10396834
0.17139332 -0.072212435 0.75500005 10528420
0.1734456 -0.07237982 0.75675005 10528673
0.1787449 -0.073886238 0.77250004 10463393
0.18043435 -0.073886238 0.77250004 10464163
0.18212381 -0.073886238 0.77250004 10266014
0.18083893 -0.072690666 0.76000005 10331807
0.18250103 -0.072690666 0.76000005 10331807
0.18422373 -0.072714575 0.76025003 10265761
0.18784243 -0.073479742 0.76825005 10200738
0.18970762 -0.073551476 0.76900005 10463393
0.19157606 -0.07362321 0.76975006 10528673
0.19357334 -0.073742762 0.77100003 10331294
0.19222045 -0.072595023 0.75900006 10331292
0.19388038 -0.072595023 0.75900006 10331805
0.19863184 -0.073742762 0.77100003 10265499
0.20031799 -0.073742762 0.77100003 10265501
0.20200416 -0.073742762 0.77100003 10462110
0.21432437 -0.075105712 0.78525001 10331294
0.21611048 -0.075129628 0.78550005 10527903
0.2186603 -0.075416565 0.78850001 10462110
0.22276047 -0.07622955 0.79700005 10265499
0.22710909 -0.077114277 0.80625004 10199706
0.22887234 -0.077114277 0.80625004 10462108
0.22479565 -0.074029706 0.77400005 10526876
0.223759 -0.072595023 0.75900006 10789278
0.24813302 -0.07546439 0.78900003 10002842
0.25009605 -0.075536124 0.78975004 9871256
0.25190294 -0.075560033 0.79000002 9936536
0.28719664 -0.080103196 0.83750004 9739155
0.28902823 -0.080103196 0.83750004 9869971
0.29094666 -0.080127105 0.83775002 10000787
0.29968697 -0.07952933 0.83150005 9868944
0.30150545 -0.07952933 0.83150005 8948099
0.3032327 -0.079505414 0.83125001 6644571
0.30505064 -0.079505414 0.83125001 8684154
0.30677629 -0.079481505 0.83100003 9804430
0.30859366 -0.079481505 0.83100003 10661024
0.3711555 -0.09129373 0.95450002 8555147
0.88376766 -0.15410899 1.61125 6776930
0.88660318 -0.15398943 1.6100001 6908518
0.88722157 -0.15348729 1.60475 6907741
0.88892722 -0.15317644 1.6015 6641993
0.88894689 -0.15257867 1.5952501 6509113
0.88656163 -0.15157437 1.5847501 6245937
0.88974661 -0.15152656 1.5842501 6507825
0.89292949 -0.15147874 1.5837501 6901302
0.89639318 -0.15147874 1.5837501 6573109
0.90482837 -0.15231563 1.5925001 6507827
0.90916675 -0.1524591 1.5940001 6114614
0.91265273 -0.1524591 1.5940001 5589807
0.91484565 -0.1522439 1.59175 2104073
0.90592271 -0.15018752 1.57025 1975332
0.90805393 -0.14997232 1.5680001 3750706
0.91075641 -0.14985275 1.56675 5851442
0.91695452 -0.15030707 1.5715001 6573359
0.93218249 -0.15054619 1.5740001 4733731
0.93532759 -0.15049836 1.5735 1510919
0.93861961 -0.15047446 1.5732501 2303778
0.94191068 -0.15045054 1.5730001 4605486
0.94535077 -0.15045054 1.5730001 6179632
0.94909251 -0.15049836 1.5735 6573620
0.95298779 -0.15057011 1.5742501 6180659
0.95688623 -0.15064183 1.575 6312245
0.96078813 -0.15071358 1.5757501 6442806
0.96438718 -0.15073748 1.5760001 6639931
0.96798742 -0.1507614 1.5762501 6180659
0.96357685 -0.14954191 1.5635 6379323
0.96467698 -0.14918324 1.5597501 6509113
0.96762264 -0.14911151 1.559 6443318
0.97103208 -0.14911151 1.559 6509111
0.97444165 -0.14911151 1.559 6509109
0.97769427 -0.14908759 1.55875 6444601
0.98094594 -0.14906368 1.5585001 6247735
0.98403853 -0.14901586 1.5580001 6180657
0.98712903 -0.14896804 1.5575001 6771767
0.99021721 -0.14892021 1.557 6443316
0.99346286 -0.14889631 1.5567501 6837560
0.99654734 -0.14884849 1.5562501 6706742
0.99224031 -0.14770074 1.5442501 6311984
0.99029857 -0.14691165 1.536 6576185
0.98929107 -0.14626604 1.52925 6444853
0.99279791 -0.14628997 1.5295001 6313267
0.99597996 -0.14626604 1.52925 6574388
0.99948788 -0.14628997 1.5295001 6442804
1.0088977 -0.14717469 1.5387501 6377527
1.0124273 -0.14719859 1.539 6573620
1.0159582 -0.1472225 1.53925 6508849
1.0191588 -0.14719859 1.539 6377777
1.0223587 -0.14717469 1.5387501 6378290
1.0253905 -0.14712687 1.5382501 4468762
1.0285875 -0.14710295 1.5380001 1773577
1.0317833 -0.14707905 1.5377501 4143920
1.034978 -0.14705512 1.5375 5261358
1.0385095 -0.14707905 1.5377501 5655337
1.0418725 -0.14707905 1.5377501 6048560
1.0452355 -0.14707905 1.5377501 5852214
1.0480871 -0.1470073 1.5370001 6114616
1.047344 -0.14643343 1.531 5917487
1.0501775 -0.14636169 1.5302501 6180659
-0.85361677 -0.20021532 2.1422501 2228993
-0.85764992 -0.20227146 2.1642501 2426626
-0.85311377 -0.20231819 2.1647501 2228993
-0.84877139 -0.20241165 2.16575 2098177
-0.83968604 -0.20250513 2.1667502 2032386
-0.83514005 -0.20255184 2.1672502 2360066
-0.83068764 -0.20262195 2.1680002 2228736
-0.82642239 -0.20273876 2.16925 2098177
-0.82215178 -0.20285559 2.1705 1770497
-0.8174991 -0.20287895 2.1707501 786432
-0.81275171 -0.20287895 2.1707501 262145
-0.80725986 -0.20269203 2.16875 854535
-0.80149925 -0.20243502 2.1660001 2500128
-0.79648632 -0.20236492 2.1652501 1971733
-0.79147667 -0.20229481 2.1645 1708561
-0.78665209 -0.20227146 2.1642501 2829604
-0.7859605 -0.22068314 2.3612502 4410689
-0.68741012 -0.20372011 2.1797502 990245
-0.67372638 -0.20390701 2.1817501 925474
-0.66926152 -0.20400047 2.18275 399391
-0.66897821 -0.20537901 2.1975 792866
-0.63490808 -0.20839311 2.2297502 3160119
-0.62989038 -0.2083464 2.2292502 1187110
-0.62480479 -0.20827629 2.2285001 1820
-0.61986148 -0.20825291 2.22825 1050
-0.61485034 -0.20820619 2.2277501 70694
-0.28476197 -0.10750271 1.1502501 8556164
-0.1623168 -0.11334398 1.2127501 4212027
-0.042850137 -0.056870591 0.6085 9608084
-0.041502297 -0.05684723 0.60825002 9674907
-0.040238108 -0.05694069 0.60925001 9346709
-0.038953576 -0.057010785 0.61000001 9347477
-0.037604097 -0.05698742 0.60975003 9149847
-0.036166485 -0.056823865 0.60800004 9347226
-0.03487977 -0.05689396 0.60875005 9150360
-0.033796441 -0.05731453 0.61325002 9347226
-0.032614041 -0.057594914 0.61625004 9674907
-0.031304363 -0.057665009 0.61700004 9609114
-0.029967127 -0.05768837 0.61725003 9609114
-0.028651981 -0.057758469 0.61800003 9609114
-0.027333554 -0.057828564 0.61875004 9674396
-0.025980355 -0.057828564 0.61875004 9609116
-0.024647059 -0.057875294 0.61925006 9543837
-0.02330217 -0.057898659 0.61950004 9543837
-0.021956187 -0.057922024 0.61975002 9478042
-0.020617422 -0.057968754 0.62025005 9413019
-0.019276468 -0.058015481 0.62075001 9674907
-0.01793333 -0.058062214 0.62125003 9543321
-0.016581334 -0.058085576 0.62150002 9609114
-0.015234367 -0.058132309 0.62200004 9543835
-0.014124999 -0.059183739 0.63325006 9478042
-0.012795415 -0.059440754 0.63600004 9543835
-0.011440353 -0.059627671 0.63800001 9674907
-0.010052928 -0.059674405 0.63850003 9609114
-0.0086599262 -0.059697766 0.63875002 9412249
-0.0072430894 -0.059534214 0.63700002 9477528
-0.0058178357 -0.059207104 0.63350004 9543321
-0.0044271313 -0.059137009 0.63275003 9675160
-0.0030445172 -0.05916037 0.63300002 9478295
-0.0016627768 -0.05925383 0.634 9478295
-0.00027666247 -0.059347294 0.63500005 9478042
0.0011147015 -0.059487481 0.6365 9543837
0.0025116422 -0.059604309 0.63775003 9806493
0.0039201751 -0.059814595 0.64000005 9806746
0.0053468621 -0.060118344 0.64325005 9806493
0.0067667658 -0.060235165 0.64450002 9872286
0.0081889657 -0.060328625 0.6455 9609116
0.0096155396 -0.060422089 0.64650005 9674909
0.011042222 -0.060492184 0.64725006 9412249
0.012467373 -0.06053891 0.64775002 9412251
0.013889353 -0.060562275 0.648 9674907
0.01530652 -0.060562275 0.648 9544088
0.016723689 -0.060562275 0.648 9413019
0.018154854 -0.060609005 0.64850003 9413019
0.01958066 -0.06063237 0.64875001 9413019
0.021023745 -0.060702465 0.64950001 9413019
0.022461472 -0.060749199 0.65000004 9281433
0.023901386 -0.060795929 0.65050006 9413021
0.025343485 -0.060842656 0.65100002 9610400
0.026798053 -0.060912754 0.65175003 9741214
0.028439943 -0.061380055 0.65675002 9741214
0.02996723 -0.061566979 0.65875006 9675421
0.031431746 -0.061613705 0.65925002 9741214
0.032499529 -0.060912754 0.65175003 9543837
0.033898871 -0.060866021 0.65125 9347228
0.035323147 -0.060866021 0.65125 9544607
0.037283473 -0.061753895 0.66075003 9543835
0.038757831 -0.061800629 0.66125005 9676191
0.040234376 -0.061847355 0.66175002 9742237
0.041713107 -0.061894085 0.66225004 9544605
0.04321032 -0.061964184 0.66300005 9675423
0.044727653 -0.06205764 0.66400003 9938079
0.046753582 -0.06282869 0.67225003 9872286
0.048331391 -0.06296888 0.67375004 9807007
0.049823351 -0.062992245 0.67400002 9741214
0.051335439 -0.063038975 0.67450005 9807007
0.05283013 -0.06306234 0.67475003 9872800
0.054305803 -0.06306234 0.67475003 9872800
0.054706763 -0.061847355 0.66175002 9938595
0.056196436 -0.061894085 0.66225004 9938595
0.057710048 -0.061964184 0.66300005 9872800
0.059249252 -0.06205764 0.66400003 9873053
0.060792826 -0.0621511 0.66500002 10004637
0.062317379 -0.062221196 0.66575003 10135709
0.063988894 -0.062431484 0.66800004 10135711
0.066160157 -0.06310907 0.67525005 10135711
0.067712039 -0.063179165 0.67600006 10267297
0.069241621 -0.063225895 0.67650002 10267297
0.070773385 -0.063272625 0.67700005 10332324
0.072360702 -0.063366085 0.67800003 10529186
0.073952392 -0.063459545 0.67900002 10398370
0.076298386 -0.064183868 0.68675005 10267044
0.078026876 -0.064370781 0.68875003 10398117
0.079619773 -0.064440876 0.68950003 10660772
0.082510225 -0.06553904 0.70125002 10463910
0.084163688 -0.065632492 0.70225 10398117
0.085730016 -0.065655865 0.70250005 10464161
0.087328486 -0.065702595 0.70300001 10464163
0.088897541 -0.06572596 0.70325005 10661289
0.088474445 -0.064300686 0.68800002 10464163
0.08997909 -0.064300686 0.68800002 10726565
0.091516979 -0.064324051 0.68825001 10726563
0.093123533 -0.064394146 0.68900001 10726565
0.094767727 -0.064487614 0.69000006 10726565
0.09641628 -0.064581074 0.69100004 10792356
0.099132091 -0.065375485 0.69950002 10792356
0.1023168 -0.066450275 0.71100003 10595749
0.10379871 -0.066403545 0.71050006 10661542
0.10405511 -0.06558577 0.70175004 10792358
0.10566506 -0.065632492 0.70225 10791845
0.10731536 -0.065702595 0.70300001 10791845
0.10997541 -0.06638018 0.71025002 10857638
0.11270642 -0.067081131 0.71775001 10791845
0.11431594 -0.067104504 0.71800005 10660772
0.11463533 -0.06638018 0.71025002 10594726
0.11614775 -0.066356815 0.71000004 10726312
0.11765907 -0.06633345 0.70975006 10660519
0.11916929 -0.066310085 0.70950001 10660772
0.12067842 -0.06628672 0.70925003 10529956
0.12214337 -0.06623999 0.70875001 10530216
0.12548226 -0.067197956 0.71900004 10398630
0.12873346 -0.068085827 0.72850001 10464676
0.13028194 -0.068062462 0.72825003 10464676
0.13223679 -0.06824939 0.73025006 10333090
0.13612473 -0.069417641 0.74275005 10529956
0.13621908 -0.068646595 0.73450005 10464163
0.13618353 -0.067828812 0.72575003 10398883
0.13767581 -0.067782082 0.72525001 10398883
0.13916592 -0.067735359 0.72475004 10398883
0.1407024 -0.067711994 0.72450006 10463910
0.14218867 -0.067665257 0.72400004 10529703
0.1437224 -0.067641899 0.72375005 10463910
0.14530525 -0.067641899 0.72375005 10660772
0.15084568 -0.069464371 0.74325001 10463393
0.15262501 -0.069534466 0.74400002 10529186
0.15435579 -0.069581196 0.74450004 10398630
0.15608877 -0.069627926 0.74500006 10529186
0.15792978 -0.069721386 0.74600005 10594466
0.16448072 -0.071870975 0.76900005 10594466
0.1695812 -0.07189434 0.76925004 10529184
0.1722423 -0.070235416 0.75150001 10463393
0.17521627 -0.070772812 0.75725001 10464163
0.18037596 -0.07217472 0.77225006 10463393
0.17681924 -0.070095226 0.75000006 10266014
0.17976816 -0.070609257 0.75550002 10331807
0.18208081 -0.070866279 0.75825006 10331807
0.18379967 -0.070889637 0.75850004 10331807
0.1877813 -0.071777508 0.76800001 10265761
0.18976928 -0.07189434 0.76925004 10528673
0.19151384 -0.071917705 0.76950002 10266014
0.19043499 -0.070889637 0.75850004 10397087
0.19209382 -0.070889637 0.75850004 10528671
0.19388038 -0.070936374 0.75900006 10527901
0.19850303 -0.072011165 0.77050006 10658717
0.2001881 -0.072011165 0.77050006 10462110
0.20187317 -0.072011165 0.77050006 10265501
0.20349218 -0.0719878 0.77025002 10331294
0.21002559 -0.071917705 0.76950002 10331294
0.21624804 -0.073459797 0.78600001 10331294
0.21831366 -0.073576622 0.78725004 10068382
0.2207341 -0.073810272 0.78975004 10134428
0.2245035 -0.074487865 0.79700005 10134428
0.22567877 -0.074300937 0.79500002 10199708
0.22310293 -0.072338276 0.77400005 10133915
0.22051176 -0.070959739 0.75925004 10396317
0.22217223 -0.070959739 0.75925004 10592926
0.25017521 -0.073833637 0.79000002 10068122
0.25190294 -0.073833637 0.79000002 10068122
0.25371093 -0.073857009 0.79025006 10133913
0.28711092 -0.078249641 0.83725005 9870995
0.28894198 -0.078249641 0.83725005 9673616
0.29085985 -0.078273006 0.83750004 9870225
0.29968697 -0.077712245 0.83150005 9738385
0.30150545 -0.077712245 0.83150005 9738639
0.30332392 -0.077712245 0.83150005 8684924
0.3051424 -0.077712245 0.83150005 5260608
0.30686855 -0.077688873 0.83125001 7037267
0.88160968 -0.15082157 1.6137501 6842723
0.88486463 -0.15077482 1.61325 7040104
0.88715386 -0.15056455 1.6110001 6646886
0.88556302 -0.14970005 1.6017501 7171940
0.88837218 -0.14958322 1.6005001 6051147
0.89103657 -0.14944303 1.5990001 6377023
0.89089727 -0.14883554 1.5925001 6311220
0.88988703 -0.14808784 1.5845001 5983278
0.89377517 -0.14815794 1.58525 5917487
0.90332657 -0.14916265 1.5960001 6311220
0.91306698 -0.15019071 1.6070001 6310966
0.91672409 -0.15021408 1.6072501 6048562
0.91293901 -0.14902246 1.5945001 6181431
0.91599518 -0.14895236 1.5937501 3154451
0.91198051 -0.14773738 1.5807501 2565670
0.90964651 -0.14680278 1.5707501 3091244
0.91308165 -0.14680278 1.5707501 5918268
0.92874026 -0.14710653 1.5740001 6115636
0.93203437 -0.14708315 1.57375 4997934
0.93547618 -0.14708315 1.57375 1248780
0.93891793 -0.14708315 1.57375 1844510
0.94235975 -0.14708315 1.57375 4343084
0.94580144 -0.14708315 1.57375 6508847
0.94954491 -0.14712988 1.5742501 6311468
0.95374453 -0.14724672 1.5755001 6247222
0.95764571 -0.1473168 1.5762501 6377009
0.96139783 -0.14736353 1.57675 6311216
0.96469313 -0.14734016 1.5765001 6509111
0.96814096 -0.14734016 1.5765001 6181942
0.96557981 -0.14642893 1.56675 5656370
0.96591389 -0.14596163 1.5617501 6247222
0.9682433 -0.14579807 1.5600001 6443318
0.97149926 -0.14577471 1.5597501 6311732
0.97491044 -0.14577471 1.5597501 6115636
0.97816479 -0.14575134 1.5595001 6378038
0.98141807 -0.14572798 1.5592501 6245939
0.98451221 -0.14568125 1.55875 6640183
0.98744595 -0.14561115 1.5580001 6902837
0.99053526 -0.14556442 1.5575001 6968628
0.99378192 -0.14554106 1.55725 6444083
0.99718761 -0.14554106 1.55725 6313013
0.99175841 -0.14425598 1.5435001 6641210
0.99432814 -0.14413916 1.54225 6640695
0.99236393 -0.1433681 1.534 6706488
0.99279791 -0.14294754 1.5295001 6771769
0.99630564 -0.1429709 1.5297501 6574390
1.0093894 -0.14388214 1.5395001 6507827
1.0127563 -0.14388214 1.5395001 6704691
1.0161233 -0.14388214 1.5395001 6835759
1.0193244 -0.14385876 1.53925 6311468
1.0225247 -0.14383541 1.539 4076566
1.0255572 -0.14378868 1.5385001 1906694
1.0285875 -0.14374195 1.5380001 4405547
1.0319511 -0.14374195 1.5380001 5457967
1.0351464 -0.14371859 1.5377501 5787956
1.0386783 -0.14374195 1.5380001 6114866
1.0423806 -0.14378868 1.5385001 6179632
1.0455754 -0.14376532 1.5382501 6114866
1.048769 -0.14374195 1.5380001 6114866
1.0495672 -0.14339146 1.53425 5983280
1.0506922 -0.14308771 1.531 6377525
-0.87235701 -0.18747884 2.0540001 1574147
-0.85599977 -0.18882515 2.0687501 1770497
-0.85002166 -0.1895097 2.0762501 1508352
-0.85905933 -0.19464393 2.1325002 1967106
-0.85439551 -0.19464393 2.1325002 1901312
-0.849931 -0.19468957 2.1330001 2032897
-0.84774286 -0.19526003 2.13925 2098177
-0.85271972 -0.19749628 2.1637502 2295040
-0.84837949 -0.19758755 2.1647501 2098177
-0.84393758 -0.19765601 2.1655002 2163972
-0.8394922 -0.19772445 2.16625 2294788
-0.83494741 -0.1977701 2.1667502 2294788
-0.83049601 -0.19783854 2.1675 2163200
-0.82108885 -0.19672044 2.1552501 1245184
-0.811167 -0.1954654 2.1415 327680
-0.80638951 -0.19544259 2.1412501 1314571
-0.80151945 -0.19539696 2.1407502 2302751
-0.79665154 -0.19535132 2.1402502 3028020
-0.79160076 -0.19526003 2.13925 4015166
-0.78462321 -0.19468957 2.1330001 3620408
-0.77959269 -0.1945983 2.1320002 2894118
-0.77474821 -0.19455265 2.1315 2365978
-0.76981574 -0.1944842 2.1307502 2893605
-0.69178027 -0.19884259 2.1785002 1383460
-0.68733126 -0.19893385 2.1795001 1580837
-0.67834234 -0.19909358 2.1812501 1253671
-0.67473006 -0.19943587 2.1850002 661282
-0.67386079 -0.20059963 2.1977501 792354
-0.043963101 -0.05526701 0.60550004 9147272
-0.042480439 -0.055061642 0.60325003 9675158
-0.041041728 -0.054901909 0.60150003 9347479
-0.039709747 -0.054879092 0.60125005 9347992
-0.03839482 -0.054879092 0.60125005 9282199
-0.03715698 -0.054993186 0.60250002 9347226
-0.035943419 -0.055152915 0.60425001 9413019
-0.034736529 -0.05533547 0.60625005 9478042
-0.033438221 -0.055381101 0.60675001 9281433
-0.032600809 -0.0562254 0.61600006 9478042
-0.031278994 -0.056271035 0.61650002 9478042
-0.029942852 -0.056293853 0.61675 9413019
-0.028605619 -0.056316674 0.61700004 9543835
-0.027245201 -0.056293853 0.61675 9478042
-0.025917372 -0.056339491 0.61725003 9478044
-0.024607256 -0.056430764 0.61825001 9807007
-0.023264555 -0.056453586 0.61850005 9543837
-0.021920759 -0.056476403 0.61875004 9609116
-0.020584183 -0.056522045 0.61925006 9543835
-0.019245416 -0.056567676 0.61975002 9543835
-0.017904464 -0.056613319 0.62025005 9543835
-0.016561324 -0.056658953 0.62075001 9543835
-0.015209875 -0.056681775 0.62100005 9412249
-0.013879637 -0.056795865 0.62225002 9412249
-0.012765237 -0.057913985 0.63450003 9478044
-0.011408973 -0.058073714 0.63625002 9609114
-0.010021438 -0.058096532 0.6365 9674647
-0.0086192535 -0.05802808 0.63575006 9674907
-0.0071919216 -0.057731438 0.63250005 9806493
-0.0058017643 -0.057662979 0.63175005 9675421
-0.0044218837 -0.057685796 0.63200003 9412249
-0.0030433149 -0.057754256 0.63275003 9215642
-0.0016621212 -0.057845529 0.63375002 9544607
-0.00027666247 -0.057959624 0.63500005 9478044
0.0011142638 -0.058073714 0.63625002 9675423
0.0025096729 -0.058164988 0.63725001 9675423
0.0039079245 -0.058233447 0.63800001 9543835
0.0053198473 -0.058415998 0.64000005 9675421
0.0067615164 -0.058781099 0.64400005 9543835
0.0081826225 -0.058872372 0.64500004 9674907
0.009608103 -0.058963649 0.64600003 9872286
0.011033692 -0.059032105 0.64675003 9806493
0.012457751 -0.059077743 0.64725006 9872286
0.013873278 -0.059077743 0.64725006 9412502
0.015288806 -0.059077743 0.64725006 9347739
0.016704334 -0.059077743 0.64725006 9281946
0.01811986 -0.059077743 0.64725006 9413019
0.019550478 -0.059123378 0.64775002 9675421
0.020983284 -0.059169017 0.64825004 9413019
0.022426916 -0.059237473 0.64900005 9413019
0.023873828 -0.059305932 0.64975005 9413021
0.025314288 -0.059351563 0.65025002 9543837
0.026756937 -0.059397206 0.65075004 9543837
0.028190944 -0.059420023 0.65100002 9938081
0.029637419 -0.059465662 0.65150005 9741214
0.031050321 -0.059442841 0.65125 9675421
0.032462131 -0.059420023 0.65100002 9675425
0.033872847 -0.059397206 0.65075004 9675425
0.03529603 -0.059397206 0.65075004 9807009
0.03671921 -0.059397206 0.65075004 9741214
0.038772482 -0.06037841 0.66150004 9413019
0.040249579 -0.060424048 0.66200006 9347228
0.041744601 -0.060492501 0.66275001 9676193
0.043242905 -0.060560957 0.66350001 9807009
0.044912897 -0.060857601 0.66675001 9807007
0.046631873 -0.061199885 0.67050004 9807007
0.04827759 -0.061428074 0.67300004 9807007
0.049823351 -0.061519347 0.67400002 9741214
0.051316407 -0.061542165 0.67425001 9938593
0.052771408 -0.061519347 0.67400002 9938079
0.053199165 -0.060332771 0.66100001 10134945
0.054686096 -0.06037841 0.66150004 9872802
0.056196436 -0.060446866 0.66225004 9938595
0.057710048 -0.060515326 0.66300005 10069665
0.059271559 -0.060629416 0.66425002 10069918
0.060815681 -0.06072069 0.66525 10069918
0.062387586 -0.060834784 0.66650003 10069918
0.064084686 -0.061062973 0.66900003 10135711
0.065964192 -0.061450891 0.67325002 10267297
0.067586832 -0.061587803 0.67475003 10332577
0.06919045 -0.061701901 0.67600006 10333090
0.070773385 -0.061793175 0.67700005 10202018
0.072360702 -0.061884448 0.67800003 10398370
0.073925167 -0.061952904 0.67875004 10529186
0.075687334 -0.062181093 0.68125004 10135972
0.078111842 -0.062934108 0.68950003 10332837
0.079677507 -0.06297975 0.69000006 10529703
0.081245363 -0.063025385 0.69050002 10529703
0.084163688 -0.064097866 0.70225 10529956
0.085730016 -0.064120688 0.70250005 10660772
0.087048985 -0.063960955 0.70075005 10660772
0.087191008 -0.062956929 0.68975002 10595496
0.088538744 -0.062842838 0.68850005 10792358
0.090044484 -0.062842838 0.68850005 10726565
0.091583468 -0.062865652 0.68875003 10792356
0.093224905 -0.062956929 0.68975002 10923942
0.094836399 -0.063025385 0.69050002 10595747
0.09641628 -0.06307102 0.69100004 10792356
0.097962908 -0.063093841 0.69125003 10726563
0.10062591 -0.063824043 0.69925004 10792356
0.10230126 -0.063915312 0.70025003 10529956
0.10394391 -0.063983776 0.70100003 10726312
0.10558983 -0.064052232 0.70175004 10857638
0.1092617 -0.065330081 0.71575004 10791843
0.11113672 -0.065512627 0.71775001 10923944
0.11270642 -0.065512627 0.71775001 10660772
0.11435574 -0.06555827 0.71825004 10792358
0.11596689 -0.065581083 0.71850002 10726565
0.11618865 -0.064828068 0.71025002 10726565
0.11765907 -0.064782433 0.70975006 10726565
0.1191273 -0.064736791 0.70925003 10726565
0.12059334 -0.064691149 0.70875001 10595496
0.12210029 -0.064668335 0.70850003 10726565
0.12360614 -0.064645514 0.70825005 10594979
0.12696634 -0.065581083 0.71850002 10529954
0.13023722 -0.066448197 0.72800004 10661540
0.13178408 -0.066425383 0.72775006 10529956
0.13323821 -0.066356927 0.72700006 10529954
0.13464269 -0.066265643 0.72600001 10529954
0.13613662 -0.066220008 0.72550005 10660772
0.1375809 -0.066151552 0.72475004 10595749
0.13906991 -0.066105917 0.72425002 10464163
0.14055674 -0.066060282 0.72375005 10464163
0.14209047 -0.066037461 0.72350001 10267558
0.14362311 -0.06601464 0.72325003 10464423
0.14520486 -0.06601464 0.72325003 10464163
0.15089642 -0.067862958 0.74350005 10594979
0.1526763 -0.067931421 0.74425006 10331807
0.15435579 -0.067954235 0.74450004 10398370
0.15614115 -0.068022691 0.74525005 10594979
0.16258721 -0.070099197 0.76800001 10529186
0.16448072 -0.070190474 0.76900005 10398370
0.16547497 -0.067840137 0.74325001 10529186
0.16710044 -0.067840137 0.74325001 10529186
0.16940698 -0.068113968 0.74625003 10463393
0.1718412 -0.068433426 0.74975002 10528673
0.17319167 -0.068319336 0.74850005 10397087
0.17447826 -0.068182424 0.74700004 10463140
0.17540467 -0.067908593 0.74400002 10331807
0.17703179 -0.067908593 0.74400002 10463393
0.1815405 -0.069003895 0.75600004 10397087
0.18343619 -0.069095172 0.75700003 10528420
0.18509173 -0.069095172 0.75700003 10660006
0.18693231 -0.069163628 0.75775003 10594213
0.18852727 -0.069140814 0.75750005 10528673
0.19030945 -0.069186442 0.75800002 10331554
0.1887382 -0.068022691 0.74525005 10200221
0.19036804 -0.068022691 0.74525005 10397085
0.19541147 -0.069232084 0.75850004 10790305
0.20012313 -0.070304565 0.77025002 10462110
0.20180766 -0.070304565 0.77025002 10265501
0.20349218 -0.070304565 0.77025002 10265501
0.20511012 -0.070281744 0.77000004 10331294
0.20672698 -0.07025893 0.76975006 10331294
0.20841041 -0.07025893 0.76975006 10528673
0.21002559 -0.070236109 0.76950002 10397087
0.21170849 -0.070236109 0.76950002 10265501
0.21817499 -0.071810603 0.78675002 10069152
0.22045462 -0.071993157 0.78875005 9938079
0.22212535 -0.070875034 0.77650005 10265501
0.21964397 -0.069551542 0.76200002 10330524
0.22072959 -0.069368996 0.76000005 10527133
0.22239169 -0.069368996 0.76000005 10330524
0.22398008 -0.069346175 0.75975001 10330522
0.25198266 -0.072130069 0.79025006 9871254
0.25371093 -0.072130069 0.79025006 9936534
0.28510949 -0.076374352 0.83675003 10066834
0.28702518 -0.076397166 0.83700001 10132627
0.28885567 -0.076397166 0.83700001 10000787
0.30500311 -0.077241465 0.84625006 9541008
0.30685386 -0.077241465 0.84625006 9475213
0.30870458 -0.077241465 0.84625006 9803408
0.31046355 -0.077218644 0.84600002 8816256
0.31600541 -0.0781314 0.85600007 6904659
0.88201934 -0.14736348 1.6145 7105897
0.88555032 -0.14736348 1.6145 6909288
0.88811755 -0.14720374 1.6127501 6844263
0.88514829 -0.14613126 1.6010001 6976103
0.8880946 -0.14603999 1.6 5788747
0.89131516 -0.14599435 1.5995001 6377025
0.89439374 -0.14592591 1.5987501 6507064
0.89746886 -0.14585744 1.598 6573618
0.90082276 -0.14583462 1.5977501 6640181
0.9084205 -0.14649637 1.605 6179632
0.91320902 -0.14670174 1.6072501 6442804
0.91672409 -0.14670174 1.6072501 6639415
0.9203822 -0.14672455 1.6075001 6638900
0.91628253 -0.14551516 1.5942501 4534555
0.91472095 -0.14471652 1.5855001 2300696
0.91674066 -0.14448832 1.5830001 2303778
0.92238247 -0.1448306 1.58675 5393723
0.93218249 -0.14366685 1.5740001 5457456
0.9356249 -0.14366685 1.5740001 1969675
0.93906713 -0.14366685 1.5740001 1185297
0.94250947 -0.14366685 1.5740001 5460536
0.94610202 -0.14368966 1.5742501 6377523
0.95029891 -0.14380376 1.5755001 6640181
0.95480388 -0.14396349 1.5772501 6442804
0.95855701 -0.14400913 1.5777501 6114864
0.96185517 -0.14398631 1.5775001 6312497
0.96515214 -0.14396349 1.5772501 6640949
0.96814096 -0.14389503 1.5765001 6509111
0.9694317 -0.14357556 1.5730001 5984563
0.96931559 -0.14305075 1.5672501 6313015
0.96886402 -0.14248027 1.5610001 6377527
0.9718107 -0.14241181 1.56025 6640183
0.97506672 -0.142389 1.5600001 6640183
0.97847837 -0.142389 1.5600001 6640183
0.98173273 -0.14236617 1.5597501 6639415
0.99256521 -0.14343865 1.5715001 6771771
0.99600208 -0.14343865 1.5715001 6509111
0.99085319 -0.14220645 1.5580001 6640181
0.99426055 -0.14220645 1.5580001 6443829
0.99750787 -0.14218363 1.5577501 6378036
0.99143714 -0.14083733 1.5430001 6706490
0.99481171 -0.14083733 1.5430001 6707005
0.99802446 -0.1408145 1.5427501 6181431
0.99653018 -0.14012994 1.5352501 6247222
1.0011903 -0.14031248 1.53725 6247222
1.0060226 -0.14051786 1.5395001 6313013
1.0098811 -0.14058632 1.5402501 6377525
1.0132496 -0.14058632 1.5402501 6639411
1.0164533 -0.14056349 1.5400001 6639411
1.0196556 -0.14054067 1.5397501 3943699
1.0226908 -0.14049503 1.53925 1315334
1.0257238 -0.1404494 1.5387501 3618343
1.0287547 -0.14040376 1.5382501 5459505
1.0319511 -0.14038095 1.5380001 5524784
1.0353147 -0.14038095 1.5380001 6114868
1.0430681 -0.14097424 1.5445001 6442034
1.0498334 -0.14143062 1.5495001 6442034
1.0467649 -0.14056349 1.5400001 6442034
1.0491099 -0.14042658 1.5385001 6180657
1.0502514 -0.14012994 1.5352501 6245937
1.0513785 -0.13983329 1.5320001 6638898
-0.87663561 -0.18294568 2.0535002 1770497
-0.87214464 -0.18294568 2.0535002 1508354
-0.86765367 -0.18294568 2.0535002 1180160
-0.85568947 -0.18423748 2.0680001 1770497
-0.85063583 -0.18510611 2.0777502 1639425
-0.86362177 -0.18996148 2.1322501 1639936
-0.85905933 -0.18998377 2.1325002 1705216
-0.849931 -0.19002831 2.1330001 2098177
-0.84536517 -0.19005057 2.13325 2032640
-0.84651268 -0.19136465 2.148 2032640
-0.84308881 -0.19165419 2.1512501 2097408
-0.84354776 -0.19283462 2.1645 2097408
-0.83920163 -0.19292372 2.1655002 1835009
-0.83465838 -0.19296826 2.1660001 983040
-0.82532334 -0.19189918 2.154 1116422
-0.81251699 -0.19000603 2.13275 2235673
-0.80302322 -0.18887015 2.1200001 2960679
-0.79763359 -0.18869196 2.118 3158315
-0.79272079 -0.18862516 2.1172502 4145982
-0.7879042 -0.18858059 2.11675 3620668
-0.78327489 -0.18858059 2.11675 3884612
-0.7787376 -0.18860286 2.1170001 4212807
-0.77419919 -0.18862516 2.1172502 4016196
-0.76975048 -0.1886697 2.1177502 3683634
-0.76529962 -0.18871424 2.1182501 2432803
-0.76183408 -0.18900377 2.1215 1579034
-0.68013054 -0.19483915 2.187 989985
-0.64805448 -0.19526231 2.19175 4408375
-0.6348232 -0.192701 2.1630001 4539965
-0.62499493 -0.19114193 2.1455002 4934728
-0.045212533 -0.053854719 0.60450006 8622211
-0.04372713 -0.053654265 0.60225004 9676694
-0.042357206 -0.053587448 0.60150003 9282199
-0.041007612 -0.053542901 0.60100001 9281948
-0.039676726 -0.053520631 0.60075003 9216155
-0.03836289 -0.053520631 0.60075003 9281948
-0.037079893 -0.053565178 0.60125005 9347226
-0.035883933 -0.053743355 0.60325003 9347226
-0.034621932 -0.053832442 0.60425001 9413021
-0.033355556 -0.053921532 0.60525 9281433
-0.032587577 -0.054856975 0.61575001 9609114
-0.031266309 -0.054901522 0.61625004 9872026
-0.029930715 -0.054923791 0.61650002 9675160
-0.028570848 -0.054901522 0.61625004 9807260
-0.026969107 -0.054389257 0.61050004 9543835
-0.025696933 -0.054522891 0.61200005 9478042
-0.02442815 -0.054678798 0.61375004 9478042
-0.023217537 -0.054990608 0.61725003 9478042
-0.021885334 -0.055035155 0.61775005 9478042
-0.020542631 -0.055057429 0.61800003 9543835
-0.0192066 -0.055101976 0.61850005 9478042
-0.017875597 -0.055168793 0.61925006 9478042
-0.016527975 -0.055191062 0.61950004 9675160
-0.015167014 -0.055168793 0.61925006 9806493
-0.013801568 -0.055124246 0.61875004 9347226
-0.012463459 -0.055191062 0.61950004 9281946
-0.01134173 -0.056349229 0.63250005 9413019
-0.0099781407 -0.056460589 0.63375002 9544088
-0.0085718017 -0.056326956 0.63225001 9478042
-0.0071805506 -0.056260135 0.63150001 9412249
-0.0057994681 -0.056260135 0.63150001 9806493
-0.0044218837 -0.056304682 0.63200003 9675421
-0.0030433149 -0.056371503 0.63275003 9545120
-0.0016621212 -0.056460589 0.63375002 9544607
-0.00027655353 -0.056549679 0.63475001 9413019
0.0011133881 -0.05663877 0.63575006 9413019
0.0025067192 -0.056705583 0.6365 9413019
0.0039033303 -0.056772403 0.63725001 9347479
0.0053032222 -0.05683922 0.63800001 9413272
0.0067221439 -0.057039674 0.64025003 9675421
0.0081477351 -0.057217851 0.64225 9543835
0.0095560467 -0.057240125 0.64250004 9543835
0.010927065 -0.057061944 0.64050001 9478295
0.012332643 -0.057084221 0.64075005 9741214
0.013819693 -0.057440579 0.64475006 9675421
0.015259279 -0.057551939 0.64600003 9544605
0.016672073 -0.057551939 0.64600003 9479325
0.018091863 -0.057574209 0.64625001 9479325
0.019512752 -0.057596486 0.64650005 9544605
0.020934731 -0.057618756 0.64675003 9479327
0.022375083 -0.057685573 0.64750004 9216155
0.023827899 -0.057774663 0.64850003 9610398
0.025285091 -0.05786375 0.64950001 9544088
0.026736377 -0.05793057 0.65025002 9741214
0.028180119 -0.057975117 0.65075004 9938079
0.029614672 -0.057997387 0.65100002 9806493
0.031026483 -0.057975117 0.65075004 9543837
0.032449666 -0.057975117 0.65075004 9544607
0.033859834 -0.057952844 0.65050006 9676193
0.03528247 -0.057952844 0.65050006 9413019
0.036705106 -0.057952844 0.65050006 9741214
0.038127743 -0.057952844 0.65050006 9741214
0.040279973 -0.059021916 0.66250002 9741214
0.041776095 -0.059088737 0.66325003 9741216
0.043291785 -0.059177823 0.66425002 9741214
0.044896059 -0.059378278 0.66650003 9741214
0.046458006 -0.059511911 0.66800004 9872286
0.048044451 -0.059667818 0.66975003 9872288
0.049638547 -0.059823725 0.67150003 9938595
0.051145166 -0.059868272 0.67200005 9938593
0.05169484 -0.058821466 0.66025001 9938593
0.053158924 -0.058843739 0.66050005 10003872
0.054665431 -0.05891056 0.66125005 9938593
0.056175221 -0.058977377 0.66200006 10004388
0.057710048 -0.059066463 0.66300005 9938593
0.05929387 -0.059200101 0.66450006 9938593
0.060884245 -0.05933373 0.66600001 9808030
0.062527992 -0.059511911 0.66800004 9873823
0.064204432 -0.059712365 0.67025006 10004639
0.065890707 -0.059912816 0.67250001 10267297
0.067536749 -0.060068719 0.67425001 10333090
0.069164857 -0.060202356 0.67575002 10333090
0.070773385 -0.06031372 0.67700005 10202018
0.072360702 -0.060402811 0.67800003 10332577
0.073979624 -0.060514174 0.67925006 10594726
0.075659558 -0.060670082 0.68100005 10529703
0.078111842 -0.06142734 0.68950003 10529703
0.079648636 -0.06144961 0.68975002 10529186
0.081245363 -0.06151643 0.69050002 10398117
0.082785442 -0.061538704 0.69075006 10594979
0.08432661 -0.061560977 0.69100004 10464163
0.085775703 -0.06151643 0.69050002 10529956
0.087222613 -0.061471887 0.69000006 10595747
0.088667341 -0.06142734 0.68950003 10726563
0.09010987 -0.061382793 0.68900001 10792356
0.091749683 -0.061471887 0.69000006 10726563
0.093360066 -0.061538704 0.69075006 10792358
0.094939403 -0.061583247 0.69125003 10792358
0.096451156 -0.061583247 0.69125003 10726565
0.097962908 -0.061583247 0.69125003 10726565
0.09951064 -0.061605517 0.69150001 10923944
0.10105947 -0.061627794 0.69175005 10792358
0.10301716 -0.061895058 0.69475001 10857638
0.10540175 -0.062407326 0.70050001 10856868
0.10945251 -0.063877307 0.71700001 10791845
0.11113672 -0.063944124 0.71775001 10726565
0.11274569 -0.063966401 0.71800005 10792358
0.11439554 -0.06401094 0.71850002 10595749
0.11596689 -0.06401094 0.71850002 10595747
0.11757915 -0.064033218 0.71875006 10595749
0.11774195 -0.063275948 0.71025002 10464163
0.11908531 -0.063164592 0.70900005 10464163
0.12050827 -0.063097775 0.70825005 10530216
0.12201412 -0.063075498 0.708 10464423
0.12347525 -0.063030958 0.70750004 10464163
0.12577355 -0.063409582 0.71175003 10726565
0.12849298 -0.063988671 0.71825004 10726563
0.13155772 -0.064723656 0.72650003 10660770
0.13314657 -0.064723656 0.72650003 10791843
0.13459632 -0.064656839 0.72575003 10660770
0.1360897 -0.064612292 0.72525001 10529956
0.1375809 -0.064567752 0.72475004 10594979
0.13902192 -0.064500935 0.72400004 10726052
0.14045964 -0.064434119 0.72325003 10725799
0.14194317 -0.064389572 0.72275001 10594726
0.14347418 -0.064367302 0.72250003 10398883
0.14505428 -0.064367302 0.72250003 10595496
0.1526763 -0.066305004 0.74425006 10660259
0.15435579 -0.066327274 0.74450004 10594466
0.15991242 -0.067997709 0.76325005 10726050
0.16258721 -0.06842088 0.76800001 10594977
0.16442724 -0.068487696 0.76875001 10529186
0.16616251 -0.068509974 0.76900005 10463393
0.16795343 -0.068554513 0.76950002 10594466
0.1638495 -0.06621591 0.74325001 10528673
0.16241373 -0.06499093 0.72950006 10529186
0.16434635 -0.065124556 0.73100001 10463393
0.16628557 -0.065258197 0.73250002 10397087
0.16811675 -0.065347292 0.73350006 10528673
0.16995227 -0.065436378 0.73450005 10528673
0.1716754 -0.065480918 0.73500001 10463393
0.17363648 -0.065614551 0.73650002 10528933
0.17631796 -0.06601546 0.74100006 10528420
0.17841877 -0.06619364 0.74300003 10396834
0.18319386 -0.067351803 0.75600004 10594466
0.18484722 -0.067351803 0.75600004 10331807
0.18656227 -0.067374073 0.75625002 10397087
0.18827841 -0.06739635 0.75650007 10528673
0.18710835 -0.066394091 0.74525005 10397087
0.1887382 -0.066394091 0.74525005 10331805
0.19036804 -0.066394091 0.74525005 10396315
0.1919979 -0.066394091 0.74525005 10462110
0.19999324 -0.06857679 0.76975006 10659489
0.20174216 -0.06859906 0.77000004 10527903
0.20342614 -0.06859906 0.77000004 10330271
0.20511012 -0.06859906 0.77000004 10527650
0.20679411 -0.06859906 0.77000004 10331041
0.21002559 -0.068554513 0.76950002 10528673
0.21170849 -0.068554513 0.76950002 10527903
0.21651113 -0.069556773 0.78075004 10330271
0.22000428 -0.067997709 0.76325005 10330524
0.22253799 -0.067752704 0.76050001 10199708
0.25206238 -0.070425399 0.79050004 10067350
0.25772408 -0.071516752 0.80275005 10198166
0.28502432 -0.074523523 0.83650005 9869971
0.28685373 -0.074523523 0.83650005 10000789
0.30500311 -0.075392149 0.84625006 9344399
0.30870458 -0.075392149 0.84625006 9737612
0.88582456 -0.14387985 1.6150001 7040102
0.88894355 -0.14381303 1.6142501 6711907
0.88763624 -0.1430335 1.6055001 7172458
0.8880946 -0.14254349 1.6 6447190
0.89131516 -0.14249896 1.5995001 6247751
0.89453357 -0.14245442 1.5990001 6245689
0.89774972 -0.14240988 1.5985001 6573368
0.90124565 -0.14240988 1.5985001 6442034
0.90955257 -0.14316714 1.6070001 6573620
0.91320902 -0.1431894 1.6072501 6507829
0.91672409 -0.1431894 1.6072501 6180148
0.9203822 -0.14321168 1.6075001 6377011
0.91613883 -0.14200896 1.5940001 5522218
0.91904789 -0.14191987 1.5930001 1773577
0.9220975 -0.14185306 1.5922501 1973790
0.9258703 -0.1418976 1.5927501 4999481
0.93081242 -0.14212033 1.5952501 5984050
0.93474048 -0.14218715 1.5960001 6377525
0.93852478 -0.14223169 1.5965 6640185
0.94231141 -0.14227624 1.5970001 6442806
0.93666512 -0.14038308 1.5757501 2100228
0.93936545 -0.14027171 1.5745001 1906459
0.94310826 -0.14031626 1.575 5129786
0.94730395 -0.14042762 1.5762501 6377523
0.95316392 -0.14078398 1.58025 6377523
0.95631725 -0.14073944 1.5797501 6443831
0.95931649 -0.14067262 1.5790001 6313015
0.96246487 -0.14062807 1.5785 6246452
0.96545804 -0.14056125 1.5777501 6442804
0.9682945 -0.14047216 1.57675 6508599
0.97097242 -0.1403608 1.5755001 6705208
0.97287184 -0.14013807 1.5730001 6442806
0.97444999 -0.13987081 1.5700001 6246972
0.97258925 -0.13911355 1.5615001 6246200
0.97553551 -0.13904673 1.5607501 6573622
0.97879195 -0.13902445 1.5605 6705206
0.98928571 -0.14002672 1.57175 6770997
0.99288094 -0.14004898 1.572 6705206
0.99616051 -0.14002672 1.57175 6640699
0.99959785 -0.14002672 1.57175 6378038
0.99473917 -0.13886856 1.55875 6639663
0.9979881 -0.13884628 1.5585001 6705456
0.99159777 -0.13748766 1.5432501 6640949
0.99481171 -0.13746539 1.5430001 6640697
0.99802446 -0.13744313 1.5427501 6245941
1.0010738 -0.13739857 1.54225 6509113
1.0039582 -0.13733175 1.5415001 6443320
1.0103729 -0.13728721 1.5410001 6442806
1.0135785 -0.13726494 1.54075 6377263
1.0167832 -0.13724266 1.5405 4208922
1.0198212 -0.13719812 1.5400001 1250313
1.022857 -0.13715358 1.5395001 4274738
1.0258905 -0.13710903 1.539 5656116
1.0289218 -0.13706449 1.5385001 6050356
1.0321188 -0.13704221 1.5382501 5984048
1.0353147 -0.13701995 1.5380001 6246452
1.0469512 -0.13811129 1.5502501 6114868
1.0503416 -0.13811129 1.5502501 6313015
1.0537319 -0.13811129 1.5502501 6312245
1.0494509 -0.13710903 1.539 6311732
1.0488832 -0.13659677 1.5332501 6247735
1.05155 -0.13650768 1.53225 6181942
-0.88880813 -0.17819744 2.0505002 1771011
-0.88464713 -0.17826261 2.05125 1639425
-0.88048291 -0.17832778 2.052 1508352
-0.87631541 -0.17839296 2.0527501 1508352
-0.87203842 -0.17843641 2.0532501 1573634
-0.86754799 -0.17843641 2.0532501 1573632
-0.86305749 -0.17843641 2.0532501 1574145
-0.85856706 -0.17843641 2.0532501 1639425
-0.8601082 -0.17969655 2.0677502 1573632
-0.85569417 -0.1806742 2.079 1836288
-0.85636741 -0.18178225 2.0917501 1770496
-0.86411107 -0.18441111 2.1220002 1770496
-0.86362177 -0.18530187 2.1322501 1770496
-0.85905933 -0.1853236 2.1325002 1967104
-0.85449564 -0.18534531 2.13275 1967104
-0.85003054 -0.18538876 2.13325 1967104
-0.84546429 -0.1854105 2.1335001 2032384
-0.84138948 -0.18554084 2.135 1966592
-0.84299076 -0.18693131 2.151 1835008
-0.83848143 -0.18697476 2.1515 1507840
-0.83406681 -0.18703996 2.1522501 2234130
-0.82974523 -0.18712687 2.1532502 3158060
-0.81746864 -0.1854105 2.1335001 3553075
-0.80727869 -0.1841504 2.1190002 3817534
-0.80179209 -0.18395483 2.11675 3949633
-0.79697454 -0.18391138 2.11625 3555128
-0.79225278 -0.18388967 2.1160002 3028531
-0.78771812 -0.18391138 2.11625 3423291
-0.78318244 -0.18393312 2.1165001 3752254
-0.77855372 -0.18393312 2.1165001 4344644
-0.77410769 -0.18397658 2.1170001 4542021
-0.76965958 -0.18402003 2.1175001 3555128
-0.76529962 -0.18408521 2.1182501 2503470
-0.76093644 -0.1841504 2.1190002 2896432
-0.7565698 -0.18421556 2.11975 2304295
-0.65299672 -0.19051611 2.19225 4212797
-0.63925809 -0.18788728 2.1620002 4934978
-0.62645864 -0.18549739 2.1345 4934980
-0.04502555 -0.052316438 0.60200006 9544856
-0.043672677 -0.052272987 0.60150003 9347992
-0.042339601 -0.052251261 0.60125005 9347226
-0.040990554 -0.052207805 0.60075003 9544605
-0.039660215 -0.052186083 0.60050005 9347226
-0.03836289 -0.052207805 0.60075003 9215640
-0.037079893 -0.052251261 0.60125005 9281946
-0.035824452 -0.052338164 0.60225004 9347739
-0.034593284 -0.052468523 0.60375005 9543835
-0.033328 -0.052555423 0.60475004 9543837
-0.032031883 -0.052598875 0.60525 9543835
-0.03124094 -0.05351137 0.61575001 9674907
-0.02987003 -0.053467922 0.61525005 9609367
-0.028153585 -0.052772686 0.60725003 9872539
-0.026869712 -0.052859589 0.60825002 9938079
-0.025560472 -0.052903045 0.60875005 9741214
-0.024318695 -0.053098574 0.611 9807007
-0.023132904 -0.053446192 0.61500001 9674907
-0.02183219 -0.053554825 0.61625004 9675421
-0.020501079 -0.053598274 0.61675 9412251
-0.019160019 -0.053620003 0.61700004 9478044
-0.017803431 -0.053598274 0.61675 9478042
-0.016454605 -0.053598274 0.61675 9478042
-0.015111905 -0.053620003 0.61700004 9674907
-0.013768109 -0.053641729 0.61725003 9543837
-0.012418191 -0.053641729 0.61725003 9543837
-0.011072756 -0.053663455 0.61750001 9675423
-0.0097852694 -0.054011073 0.62150002 9543837
-0.0085480753 -0.054793213 0.63050002 9543837
-0.0071691801 -0.054793213 0.63050002 9675421
-0.0057948763 -0.054836664 0.63100004 9544605
-0.0044183852 -0.054880116 0.63150001 9413021
-0.0030409098 -0.054945294 0.63225001 9413019
-0.0016621212 -0.055075649 0.63375002 9544605
-0.00027655353 -0.055162553 0.63475001 9347226
0.0011129503 -0.055227734 0.63550001 9543835
0.0025057346 -0.055292912 0.63625002 9806493
0.0039017992 -0.05535809 0.63700002 9674907
0.0052969884 -0.055379815 0.63725001 9675421
0.0066932715 -0.055401545 0.63750005 9675421
0.008093819 -0.055444993 0.63800001 9741214
0.0094965538 -0.055488449 0.63850003 9544605
0.01089721 -0.055510171 0.63875002 9543835
0.012298961 -0.0555319 0.63900006 9806493
0.013707163 -0.055575352 0.63950002 9806493
0.015147078 -0.055727433 0.64125001 9675421
0.016626909 -0.055988148 0.64425004 9806495
0.018049873 -0.056031603 0.64475006 9675423
0.019475022 -0.056075051 0.64525002 9543837
0.020894269 -0.056096777 0.6455 9544609
0.022323247 -0.056140229 0.64600003 9610400
0.023763599 -0.056205407 0.64675003 9675423
0.02524616 -0.056357492 0.64850003 9741216
0.026715821 -0.056466125 0.64975005 9807007
0.028158465 -0.056509573 0.65025002 9872800
0.029580554 -0.056509573 0.65025002 9675421
0.031002643 -0.056509573 0.65025002 9741216
0.032424733 -0.056509573 0.65025002 9610400
0.033833809 -0.056487847 0.65000004 9545120
0.03524179 -0.056466125 0.64975005 9545118
0.036662787 -0.056466125 0.64975005 9544607
0.038083781 -0.056466125 0.64975005 9544605
0.040279973 -0.057574153 0.66250002 9610400
0.041807588 -0.057682786 0.66375005 9544605
0.043340664 -0.057791412 0.66500002 9741214
0.044862375 -0.057878315 0.66600001 9807007
0.046405844 -0.057986949 0.66725004 9741986
0.047936846 -0.058073852 0.66825002 9741986
0.04947222 -0.058160756 0.66925001 10003874
0.050935864 -0.058160756 0.66925001 10069665
0.051616546 -0.057291713 0.65925002 9938593
0.053118683 -0.05735689 0.66000003 10135458
0.054624096 -0.057422068 0.66075003 10200991
0.056175221 -0.057530701 0.66200006 10135458
0.057753567 -0.057661057 0.66350001 9938593
0.059338484 -0.057791412 0.66500002 10201765
0.060929954 -0.057921771 0.66650003 10332837
0.062551394 -0.058073852 0.66825002 10135711
0.064252324 -0.058291111 0.67075002 10333088
0.065890707 -0.058443196 0.67250001 10333088
0.067536749 -0.058595277 0.67425001 10202016
0.069164857 -0.058725633 0.67575002 10267809
0.070799522 -0.058855992 0.67725003 10267297
0.072440751 -0.058986347 0.67875004 10594726
0.074061304 -0.059094977 0.68000001 10528933
0.076298386 -0.059681587 0.68675005 10332324
0.078083523 -0.059898846 0.68925005 10660772
0.079648636 -0.059942294 0.68975002 10529956
0.081215948 -0.059985749 0.69025004 10595749
0.082785442 -0.060029205 0.69075006 10529956
0.084296107 -0.060029205 0.69075006 10792358
0.085806765 -0.060029205 0.69075006 10726565
0.087317422 -0.060029205 0.69075006 10793128
0.088828094 -0.060029205 0.69075006 10465190
0.090371445 -0.060050927 0.69100004 10727846
0.091949128 -0.060094379 0.69150001 10793126
0.093529008 -0.060137831 0.69200003 10793128
0.095042415 -0.060137831 0.69200003 10792358
0.096520931 -0.060116109 0.69175005 10792105
0.097998336 -0.060094379 0.69150001 10595749
0.09951064 -0.060094379 0.69150001 10661542
