# .PCD v0.7 - Point Cloud Data file format
VERSION 0.7
FIELDS x y z rgb
SIZE 4 4 4 4
TYPE F F F U
COUNT 1 1 1 1
WIDTH 1126
HEIGHT 1
VIEWPOINT 0 0 0 1 0 0 0
POINTS 1126
DATA ascii
0.070361562 0.07669346 0.53800005 12107705
0.071538158 0.07669346 0.53800005 12238268
0.072748542 0.076729096 0.53825003 12238268
0.074028701 0.076836005 0.53900003 12107452
0.075347014 0.076978557 0.54000002 12042425
0.076705143 0.077156752 0.54125005 12108218
0.078068726 0.07733494 0.54250002 11910586
0.079474308 0.077548772 0.54400003 11779770
0.081331283 0.07819026 0.5485 11976632
0.082681321 0.078332819 0.54950005 11910839
0.083921224 0.078368448 0.54975003 12107452
0.085123532 0.078368448 0.54975003 11910326
0.086325824 0.078368448 0.54975003 11910326
0.087488316 0.078332819 0.54950005 12041912
0.088690065 0.078332819 0.54950005 11844793
0.091036931 0.079330683 0.55650002 11713977
0.092419766 0.079473235 0.5575 11779770
0.093639009 0.079473235 0.5575 11976119
0.094858252 0.079473235 0.5575 12106682
0.095991343 0.079401962 0.55700004 11909303
0.097122222 0.079330683 0.55650002 12040889
0.098162577 0.079188131 0.55550003 11778487
0.09919855 0.079045579 0.55450004 11778487
0.10023014 0.078903019 0.5535 11712694
0.1013032 0.078796111 0.55275005 11910326
0.10246568 0.078760467 0.55250001 11778740
0.10362708 0.078724831 0.55225003 11713458
0.10697046 0.080328554 0.56350005 11713207
0.10829884 0.080399826 0.56400001 11647416
0.1096294 0.080471106 0.56450003 11777719
0.11106034 0.080613658 0.56550002 11646901
0.11244602 0.080720574 0.56625003 11385012
0.11398556 0.080934405 0.56775004 11450805
0.11639421 0.081754081 0.57350004 11450035
0.11775101 0.081825353 0.574 11843510
0.11905818 0.081860997 0.57425004 11777717
0.11999979 0.081647165 0.57275003 11646131
0.12093483 0.081433333 0.57125002 11318189
0.12207719 0.081362054 0.57075 11384242
0.12321738 0.081290789 0.57025003 11449522
0.12440996 0.081255153 0.57000005 11449524
0.12565653 0.081255153 0.57000005 11580340
0.12723707 0.08146897 0.5715 11448752
0.13017312 0.082538128 0.57900006 11448752
0.13160963 0.082645036 0.57975 11120810
0.13293485 0.08268068 0.58000004 11121323
0.13414544 0.082645036 0.57975 11186350
0.13535495 0.0826094 0.57950002 11382961
0.13650446 0.082538128 0.57900006 11317168
0.13765174 0.082466848 0.57850003 11317166
0.13879684 0.082395568 0.57800001 11186603
0.14000033 0.082359932 0.57775003 11120810
0.14150837 0.082502484 0.57875001 11120040
0.14339083 0.082858868 0.58125001 11185833
0.14472425 0.082894512 0.58150005 11185580
0.14599599 0.082894512 0.58150005 11120557
0.14720438 0.082858868 0.58125001 11251373
0.14841172 0.082823232 0.58100003 11185833
0.14968236 0.082823232 0.58100003 11055017
0.15101795 0.082858868 0.58125001 10989484
0.15333714 0.083429076 0.58525002 11055277
0.15692873 0.084676415 0.59400004 10857385
0.1582278 0.084676415 0.59400004 11119787
0.15945974 0.084640771 0.59375 11186350
0.16055521 0.08453387 0.59300005 10857385
0.16157915 0.084391311 0.59200001 10922408
0.16232359 0.084106207 0.59000003 10790822
0.16298996 0.083785459 0.58775002 10660006
0.16406573 0.083678544 0.58700001 10725799
0.16401149 0.083001412 0.58225 10988201
0.16478808 0.082751952 0.58050001 10725799
0.16598614 0.082716316 0.58025002 10726565
0.16739926 0.082787596 0.58075005 10660006
0.16895978 0.082930148 0.58175004 11119270
0.17381667 0.084676415 0.59400004 10987431
0.17644235 0.085317902 0.59850001 10725029
0.17819676 0.085531734 0.60000002 10790822
0.17950895 0.085531734 0.60000002 10790826
0.18082115 0.085531734 0.60000002 10725029
0.18220924 0.08556737 0.60025001 10855845
0.18359843 0.085603014 0.60050005 10855845
0.18491171 0.085603014 0.60050005 10594213
0.18638004 0.085674286 0.60100001 10528420
0.18800673 0.085816845 0.60200006 10725031
0.18979502 0.086030662 0.60350001 10725029
0.19143155 0.086173229 0.60450006 10396834
0.19283329 0.086208858 0.60475004 10331807
0.19407561 0.086173229 0.60450006 10266014
0.19523604 0.086101949 0.60400003 10528420
0.1963129 0.085995033 0.60325003 10396064
0.19763221 0.085995033 0.60325003 10527133
0.19886906 0.085959397 0.60300004 10461340
0.2002708 0.085995033 0.60325003 10658719
0.20693688 0.08827588 0.61925006 10658719
0.2123275 0.089986511 0.63125002 10658719
0.21370803 0.089986511 0.63125002 10658466
0.21508858 0.089986511 0.63125002 10526880
0.21655484 0.090022147 0.63150001 10330273
0.21793592 0.090022147 0.63150001 10067871
0.21931699 0.090022147 0.63150001 10001308
0.22078545 0.09005779 0.63175005 10395547
0.23843178 0.096650861 0.67800003 10068122
0.25822663 0.10402797 0.72975004 9936285
0.25982258 0.10402797 0.72975004 8619655
0.26759803 0.10648701 0.74700004 4606282
0.26914158 0.10645137 0.74675006 4410186
0.27050278 0.10634445 0.74600005 3950920
0.26967192 0.10538223 0.73925006 4148045
0.27101341 0.10527531 0.73850006 4213579
0.27253619 0.10523967 0.73825002 4081991
0.27405792 0.10520403 0.73800004 4148299
0.27557853 0.10516839 0.73775005 4081739
0.2772859 0.10520403 0.73800004 4541259
0.27899438 0.10523967 0.73825002 4278089
0.28070396 0.10527531 0.73850006 4344141
0.28231907 0.10527531 0.73850006 4345165
0.28412637 0.10534658 0.73900002 4015946
0.2856459 0.10531095 0.73875004 4344145
0.28794199 0.10556041 0.74050003 3950157
0.29552478 0.10773435 0.75575006 4279633
0.29727587 0.10776999 0.75600004 4213838
0.29892924 0.10776999 0.75600004 4410958
0.30117902 0.10798381 0.75750005 4607567
0.30343533 0.10819764 0.75900006 4016461
0.30499473 0.108162 0.75875002 4016459
0.30635101 0.10805508 0.75800002 4015946
0.30587545 0.10730669 0.75275004 3884875
0.3037428 0.10598808 0.74350005 4213325
0.30516344 0.1059168 0.74300003 4344395
0.3060658 0.10566733 0.74125004 4146762
0.30509257 0.10477637 0.73500001 4672077
0.30346611 0.10367159 0.72725004 1647400
0.30484685 0.10360031 0.72675002 1583152
0.30643624 0.10360031 0.72675002 1912119
0.30791968 0.10356467 0.72650003 2699068
0.30940202 0.10352904 0.72625005 4015696
0.31634298 0.10531095 0.73875004 3752008
0.31795865 0.10531095 0.73875004 3621188
0.31968242 0.10534658 0.73900002 3358783
0.32618982 0.10695031 0.75025004 3489856
0.32783061 0.10695031 0.75025004 3423809
0.32529947 0.10559605 0.74075001 3292225
0.32680914 0.10556041 0.74050003 3489604
0.32831773 0.10552478 0.74025005 3095357
0.32971379 0.1054535 0.73975003 2636605
0.33054778 0.10520403 0.73800004 2767678
0.32709837 0.10360031 0.72675002 2964285
0.33152404 0.10349339 0.72600001 2570814
0.33311179 0.10349339 0.72600001 2766392
0.3345843 0.10345776 0.72575003 2437681
0.3358241 0.10335084 0.72500002 2240816
0.33694428 0.10320829 0.72400004 1649710
0.33806011 0.10306574 0.72300005 1518126
0.33905408 0.10288755 0.72175002 1320234
0.33213735 0.10032159 0.70375001 1451048
0.33438766 0.10053542 0.70525002 1449251
0.33640635 0.10067797 0.70625001 1843498
0.33795092 0.10067797 0.70625001 1646119
0.33961567 0.10071362 0.70650005 1646632
0.34116077 0.10071362 0.70650005 1450021
0.34839272 0.10192531 0.71500003 1449251
0.35093531 0.10221042 0.71700001 1318435
0.35542947 0.10260244 0.71975005 1253157
0.35725152 0.10267372 0.72025001 1121058
0.3588267 0.10267372 0.72025001 1121054
0.36052701 0.10270936 0.72050005 1055261
0.36197707 0.10267372 0.72025001 728095
0.36329991 0.10260244 0.71975005 727845
0.36436701 0.10245989 0.71875006 1055013
0.3646661 0.10210351 0.71625006 1582382
0.36508203 0.10178276 0.71400005 3096391
0.36215037 0.10053542 0.70525002 5200733
0.36266139 0.10025032 0.70325005 5203302
0.36381096 0.1001434 0.70250005 5204079
0.36508727 0.10007212 0.70200002 5467249
0.36662251 0.10007212 0.70200002 5927025
0.36750227 0.099893942 0.70075005 5335401
0.37416941 0.10128383 0.71050006 4480094
1.2287691 0.28221908 1.97975 5525827
1.3418567 0.28695896 2.013 4144687
1.3556222 0.2889547 2.0270002 4538678
-0.16368283 0.071175016 0.49175003 3618611
-0.1625247 0.071138829 0.49150002 3684404
-0.16136767 0.071102642 0.49125004 3618868
-0.16021174 0.071066462 0.49100003 3750454
-0.15913793 0.071066462 0.49100003 3750454
-0.15806413 0.071066462 0.49100003 3488052
-0.15699032 0.071066462 0.49100003 3159604
-0.15599589 0.071102642 0.49125004 2963258
-0.15500037 0.071138829 0.49150002 5598575
-0.15392548 0.071138829 0.49150002 5271673
-0.15285055 0.071138829 0.49150002 5600640
-0.15162125 0.071066462 0.49100003 5601151
-0.15031748 0.070957907 0.49025002 5338495
-0.14710097 0.070957907 0.49025002 4748670
-0.14632668 0.071102642 0.49125004 4878975
-0.14547408 0.071211196 0.49200001 5469829
-0.14454481 0.071283564 0.49250004 6128275
-0.14361338 0.071355939 0.49300003 5932946
-0.14267975 0.071428306 0.49350002 5933968
-0.14174394 0.071500674 0.49400002 5144966
-0.14087713 0.071609229 0.49475002 4812667
-0.13993639 0.071681596 0.49525002 5533560
-0.13899347 0.071753964 0.49575001 5466222
-0.13797882 0.071790151 0.49600002 5332569
-0.14006804 0.073454641 0.50750005 5132875
-0.18342046 0.10099109 0.69775003 5857883
-0.16169125 0.089773871 0.62025005 6119770
-0.13493712 0.075553343 0.52200001 5988705
-0.028075706 0.070921719 0.49000001 11319223
-0.027045418 0.071030274 0.49075001 11319734
-0.026038308 0.071211196 0.49200001 11385527
-0.025038416 0.071428306 0.49350002 11451320
-0.024007685 0.071573041 0.49450001 11385525
-0.022960993 0.071681596 0.49525002 11648697
-0.021899974 0.071753964 0.49575001 11714743
-0.020836771 0.071826339 0.49625003 11386039
-0.019761426 0.071862519 0.49650002 11715004
-0.018684993 0.071898706 0.49675003 11715006
-0.017616319 0.071971074 0.49725002 11846078
-0.01653715 0.072007261 0.49750003 12042944
-0.015456887 0.072043441 0.49775001 11977149
-0.014382748 0.072115809 0.49825004 11977149
-0.01329975 0.072151996 0.49850002 12568003
-0.01221566 0.072188184 0.49875003 12305597
-0.011124901 0.072188184 0.49875003 12306367
-0.010039169 0.072224364 0.49900001 12109501
-0.0089523457 0.072260551 0.49925002 12306627
-0.0078644287 0.072296731 0.49950004 12372160
-0.0067754178 0.072332919 0.49975002 12372160
-0.0056909989 0.072441474 0.50050002 12635332
-0.0046078912 0.072622396 0.50175005 12437700
-0.0035193157 0.072803319 0.50300002 12371907
-0.0024264755 0.073020428 0.50450003 12438466
-0.0013264186 0.073201343 0.50575 12438464
-0.00022067643 0.073309898 0.50650001 12503744
0.00088834623 0.073418453 0.50725001 12503493
0.0019986804 0.073454641 0.50750005 12635592
0.0031101077 0.073490828 0.50775003 12701125
0.0042205509 0.073490828 0.50775003 12634562
0.0053336183 0.073527008 0.50800002 12830658
0.0064477795 0.073563188 0.50825 12831428
0.0075704707 0.073671743 0.509 12503493
0.008683647 0.073671743 0.509 12372420
0.0098016364 0.073707931 0.50925004 12570052
0.010920718 0.073744118 0.50950003 12307394
0.012034989 0.073744118 0.50950003 12701385
0.01315571 0.073780298 0.50975001 12503746
0.014277526 0.073816486 0.51000005 12568769
0.01540798 0.073888853 0.51050001 12897219
0.016548714 0.073997408 0.51125002 12699842
0.017692728 0.074105963 0.51200002 12897221
0.018858397 0.074286886 0.51325005 12634562
0.02002953 0.074467808 0.51450002 12635332
0.021206131 0.07464873 0.51575005 12437700
0.022377374 0.074793465 0.51675004 12503493
0.023552991 0.074938208 0.51775002 12503746
0.024721062 0.075046763 0.51850003 12372160
0.025892414 0.075155318 0.51925004 12502976
0.027054032 0.075227678 0.51975 12371390
0.028231399 0.075336233 0.5205 12502976
0.029412046 0.075444788 0.52125001 12568769
0.03058132 0.075517163 0.52175003 12306367
0.031767983 0.07562571 0.52250004 12240834
0.032957923 0.075734265 0.52325004 12240834
0.034134846 0.075806633 0.52375001 12437953
0.035297126 0.07584282 0.52400005 12502723
0.036443107 0.07584282 0.52400005 12568516
0.037589088 0.07584282 0.52400005 12502723
0.03875355 0.075879008 0.52425003 12502976
0.039938137 0.075951375 0.52475005 12502976
0.041124899 0.076023743 0.52525002 12568256
0.042374223 0.076204665 0.52650005 12436670
0.043711673 0.076530322 0.52875 12502210
0.045122616 0.076964542 0.53175002 12370624
0.046350829 0.077073097 0.53250003 12436930
0.047582325 0.077181652 0.53325003 12371390
0.04879424 0.077254012 0.53375 12437183
0.049984954 0.0772902 0.53400004 12372160
0.051152803 0.0772902 0.53400004 12372158
0.052320655 0.0772902 0.53400004 12306619
0.053463459 0.077254012 0.53375 12305595
0.054630768 0.077254012 0.53375 12436930
0.055798069 0.077254012 0.53375 12305344
0.056965373 0.077254012 0.53375 12042942
0.05815991 0.0772902 0.53400004 12240574
0.059327759 0.0772902 0.53400004 12305597
0.060552254 0.077362567 0.5345 12108218
0.061778937 0.077434942 0.53500003 11911869
0.063037224 0.077543497 0.53575003 11977149
0.064298786 0.077652045 0.53650004 12107965
0.065563634 0.0777606 0.53725004 12173498
0.066769645 0.077796787 0.53750002 12108218
0.067945153 0.077796787 0.53750002 12108218
0.06912066 0.077796787 0.53750002 12239291
0.070296168 0.077796787 0.53750002 12238268
0.071471669 0.077796787 0.53750002 12239038
0.072680958 0.077832967 0.53775001 12107705
0.073960029 0.077941522 0.53850001 12107705
0.07524237 0.078050077 0.53925002 12238521
0.076563418 0.078194812 0.54025 12107705
0.07785286 0.078303367 0.54100001 12108218
0.079182126 0.078448109 0.54200006 11845563
0.080552816 0.078629032 0.54325002 11910839
0.082380377 0.079244167 0.54750001 12172728
0.083730407 0.079388902 0.5485 11975866
0.084929973 0.079388902 0.5485 11976379
0.086129531 0.079388902 0.5485 11976379
0.087289296 0.079352722 0.54825002 12107967
0.088447958 0.079316534 0.54800004 11910590
0.089646436 0.079316534 0.54800004 11844795
0.092295431 0.080582991 0.55675 11845046
0.093555033 0.080619179 0.55700004 11910839
0.094773181 0.080619179 0.55700004 11975866
0.09590517 0.080546811 0.55650002 11909303
0.097034968 0.080474444 0.55600005 11777970
0.098118402 0.080365889 0.55525005 11712947
0.099153817 0.080221146 0.55425 11581874
0.1001396 0.080040231 0.55300003 11713460
0.10121156 0.079931676 0.55225003 11845046
0.10237296 0.079895489 0.55200005 11713460
0.10353325 0.079859301 0.55175 11713460
0.10697046 0.081559978 0.56350005 11845046
0.10834685 0.081668533 0.56425005 11778487
0.10967795 0.081740901 0.56475002 11778489
0.11110944 0.081885636 0.56575 11581623
0.11259495 0.082066566 0.56700003 11450807
0.11473843 0.082717881 0.5715 11450035
0.11629273 0.082934991 0.57300001 11581361
0.11754587 0.082934991 0.57300001 11646131
0.11879901 0.082934991 0.57300001 11646131
0.11984265 0.082790256 0.57200003 11711924
0.1208819 0.082645513 0.57100004 11317936
0.12197025 0.082536966 0.57025003 11449522
0.12310934 0.082464591 0.56975001 11317938
0.12424625 0.082392223 0.56925005 11449524
0.12538096 0.082319856 0.56875002 11252143
0.1265135 0.082247481 0.56825 11186350
0.12882416 0.082934991 0.57300001 11317936
0.13149613 0.083839603 0.57925004 11121070
0.13276295 0.083839603 0.57925004 11186865
0.13397191 0.083803423 0.57900006 11121840
0.13517977 0.083767235 0.57875001 11121070
0.13626868 0.08365868 0.57800001 11054764
0.1373543 0.083550125 0.57725 11251373
0.13837661 0.08340539 0.57625002 11120810
0.13945511 0.083296835 0.57550001 11251375
0.1406526 0.083260655 0.57525003 11251375
0.14302078 0.08391197 0.57975 11120557
0.14453758 0.084056713 0.58075005 11055017
0.14580768 0.084056713 0.58075005 11120040
0.14707777 0.084056713 0.58075005 11185580
0.14841172 0.0840929 0.58100003 11316396
0.14968236 0.0840929 0.58100003 11185580
0.1510829 0.084165268 0.58150005 10791592
0.15248564 0.084237635 0.58200002 11119787
0.15422079 0.084490925 0.58375001 11185580
0.15789483 0.08579357 0.59275001 11119787
0.15925834 0.085829757 0.59300005 10857385
0.16028446 0.085685015 0.59200001 11120557
0.16123798 0.085504092 0.59075004 10857385
0.16225483 0.085359357 0.58975005 10725799
0.16305929 0.08510606 0.588 10725799
0.16343687 0.084635668 0.58475006 10791845
0.16351853 0.084020525 0.58050001 10922408
0.16478808 0.084020525 0.58050001 10856615
0.16605765 0.084020525 0.58050001 10725799
0.16739926 0.084056713 0.58075005 10726312
0.16881455 0.08412908 0.58125001 10594726
0.17023206 0.084201455 0.58175004 10856615
0.17570534 0.08626397 0.59600002 10855845
0.17775127 0.086625814 0.59850001 10528422
0.17920978 0.086698182 0.59900004 10594215
0.18051977 0.086698182 0.59900004 10790822
0.18198156 0.086770549 0.5995 10790305
0.18336911 0.086806737 0.59975004 10725280
0.18468076 0.086806737 0.59975004 10527903
0.18606992 0.086842924 0.60000002 10461857
0.18761635 0.086951479 0.60075003 10659236
0.18963778 0.087277137 0.60300004 10527652
0.19135237 0.087458059 0.60425001 10331294
0.19275358 0.087494247 0.60450006 10529186
0.19399534 0.087458059 0.60425001 10397087
0.19515523 0.087385692 0.60375005 10659236
0.19590613 0.087132402 0.60200006 10526880
0.19730459 0.087168582 0.60225004 10658466
0.19886906 0.087277137 0.60300004 10265248
0.20060278 0.087458059 0.60425001 10068382
0.20702042 0.089665316 0.61950004 10265501
0.2123275 0.091365993 0.63125002 10462110
0.21370803 0.091365993 0.63125002 10330524
0.21517375 0.091402173 0.63150001 10396317
0.21655484 0.091402173 0.63150001 10133915
0.21793592 0.091402173 0.63150001 10133662
0.21931699 0.091402173 0.63150001 10396064
0.22078545 0.091438361 0.63175005 10264480
0.23843178 0.098132506 0.67800003 10329503
0.25796124 0.10551415 0.72900003 10067352
0.25955555 0.10551415 0.72900003 8026493
0.26106033 0.10547797 0.72875005 4934479
0.26256397 0.10544178 0.72850001 4410956
0.26388526 0.10533323 0.72775006 4148297
0.26520324 0.10522468 0.72700006 4543055
0.26633444 0.10504375 0.72575003 4411469
0.2674602 0.10486283 0.72450006 4345165
0.26858047 0.10468191 0.72325003 4739153
0.26988205 0.10457335 0.72250003 4608083
0.27136821 0.10453717 0.72225004 4214352
0.27880543 0.10678061 0.73775005 4411217
0.28051391 0.1068168 0.73800004 4345424
0.28212792 0.1068168 0.73800004 4344913
0.28374189 0.1068168 0.73800004 4541522
0.28525925 0.10678061 0.73775005 4738388
0.28687268 0.10678061 0.73775005 4607315
0.28838834 0.10674442 0.73750001 4345428
0.2909843 0.10710627 0.74000001 4476499
0.29892924 0.10942208 0.75600004 4411471
0.3010796 0.109603 0.75725001 4148559
0.30333537 0.10982011 0.75875002 4214352
0.30479378 0.10974775 0.75825006 4542544
0.30342087 0.10866221 0.75075006 4476751
0.30242151 0.10772141 0.74425006 4345424
0.30302787 0.10735957 0.74175006 4213327
0.30393127 0.10710627 0.74000001 4409934
0.30400127 0.1065635 0.73625004 4607313
0.30530015 0.10645495 0.73550004 4673106
0.30325747 0.10518849 0.72675002 4017227
0.30474198 0.10515231 0.72650003 3031615
0.30633083 0.10515231 0.72650003 2766392
0.30781373 0.10511612 0.72625005 3884614
0.31462085 0.10688917 0.73850006 3884362
0.31623593 0.10688917 0.73850006 4015948
0.31785107 0.10688917 0.73850006 4016713
0.31946614 0.10688917 0.73850006 4148299
0.32140732 0.10699772 0.73925006 3753541
0.32335174 0.10710627 0.74000001 3556424
0.32529947 0.10721482 0.74075001 3753291
0.32691947 0.10721482 0.74075001 3686215
0.32842863 0.10717864 0.74050003 4014665
0.32993665 0.10714246 0.74025005 3226945
0.33121964 0.1070339 0.73950005 3360328
0.32878619 0.10573126 0.73050004 3294020
0.3314099 0.10504375 0.72575003 3228742
0.33299708 0.10504375 0.72575003 2965055
0.33435377 0.10497138 0.72525001 3095871
0.3354767 0.10482664 0.72425002 3030848
0.33671156 0.10471809 0.72350001 2636603
0.33782631 0.10457335 0.72250003 2241845
0.33893663 0.10442861 0.72150004 2374718
0.34016058 0.10432006 0.72075003 2309435
0.34149978 0.10424769 0.72025001 2372918
0.33604911 0.1021128 0.70550001 2633014
0.33771166 0.10214899 0.70575005 2370355
0.33925512 0.10214899 0.70575005 1976365
0.34079859 0.10214899 0.70575005 2106668
0.34234208 0.10214899 0.70575005 1909802
0.34827092 0.10345163 0.71475005 1646630
0.3503235 0.10359637 0.71575004 1318437
0.35225755 0.10370492 0.71650004 1253417
0.35456526 0.10392203 0.71800005 1780015
0.35663155 0.10406677 0.71900004 1384741
0.35832852 0.10410295 0.71925002 1516325
0.36479339 0.10370492 0.71650004 1252642
0.36584902 0.10356019 0.71550006 924192
0.36702868 0.10345163 0.71475005 398878
0.36330599 0.10196806 0.70450002 794149
0.36445829 0.10185951 0.70375001 2044988
0.36690751 0.1021128 0.70550001 4282209
0.37106171 0.1028365 0.71050006 5662570
0.37235335 0.10276412 0.71000004 5400681
0.37416941 0.1028365 0.71050006 4480094
1.1472402 0.27934474 1.9300001 9802120
1.2286139 0.28650928 1.9795001 5591620
-0.1622767 0.072102711 0.49075001 3750454
-0.16112131 0.072065979 0.49050003 3422259
-0.15996702 0.072029248 0.49025002 3553327
-0.15889485 0.072029248 0.49025002 3882035
-0.15782268 0.072029248 0.49025002 3882038
-0.15683044 0.072065979 0.49050003 3686201
-0.15583712 0.072102711 0.49075001 1713191
-0.15476385 0.072102711 0.49075001 4808042
-0.15369059 0.072102711 0.49075001 5272186
-0.15253957 0.072065979 0.49050003 5469565
-0.14595434 0.071992517 0.49000001 6984349
-0.14517839 0.072139442 0.49100003 7379879
-0.14432469 0.072249636 0.49175003 6723494
-0.1433949 0.072323099 0.49225003 6330530
-0.14246291 0.072396554 0.49275002 6198431
-0.14160047 0.072506748 0.49350002 6197915
-0.14073476 0.072616942 0.49425003 5802644
-0.13979511 0.072690405 0.49475002 5470849
-0.13892339 0.072800599 0.49550003 5468019
-0.13790928 0.072837323 0.49575001 5005405
-0.13930905 0.074159637 0.50475001 4936779
-0.15552358 0.083452553 0.56800002 4803910
-0.17421986 0.097373545 0.66275001 6054747
-0.1539358 0.08675833 0.59050006 5857368
-0.13073649 0.074306563 0.50575 6516847
-0.025945693 0.072029248 0.49025002 11385525
-0.02496231 0.07228636 0.49200001 11451318
-0.023959137 0.072506748 0.49350002 11254455
-0.022926221 0.072653674 0.49450001 11649213
-0.021866843 0.072727136 0.49500003 11714490
-0.020805279 0.072800599 0.49550003 11714743
-0.019731576 0.072837323 0.49575001 11846076
-0.018666185 0.072910793 0.49625003 11715004
-0.017589748 0.072947517 0.49650002 11715006
-0.016512219 0.072984248 0.49675003 11780799
-0.01544136 0.073057711 0.49725002 11978176
-0.014361097 0.073094442 0.49750003 12240834
-0.013279741 0.073131174 0.49775001 12306367
-0.012197291 0.073167905 0.49800003 12306367
-0.011108171 0.073167905 0.49800003 12306367
-0.010024081 0.073204637 0.49825004 12503746
-0.008934414 0.073204637 0.49825004 12306880
-0.0078486837 0.073241368 0.49850002 12437953
-0.0067618601 0.073278099 0.49875003 12372158
-0.0056767855 0.073351562 0.49925002 12437951
-0.0045941155 0.073498487 0.50025004 12635330
-0.0035088207 0.073682137 0.50150001 12306367
-0.0024192608 0.073902525 0.50300002 12503746
-0.0013224847 0.074086182 0.50425005 12568769
-0.00022002289 0.074196368 0.505 12570052
0.00088571926 0.074306563 0.50575 12569799
0.001992773 0.074343294 0.50600004 12569799
0.0030993884 0.074343294 0.50600004 12701385
0.0042060041 0.074343294 0.50600004 12766665
0.0053152447 0.074380025 0.50625002 12963274
0.0064287507 0.074453488 0.50675005 12635081
0.0075481618 0.074563682 0.50750005 12504522
0.0086665871 0.074637137 0.50800002 12438466
0.009787201 0.074710608 0.50850004 12701638
0.010904643 0.074747331 0.50875002 12570052
0.012023177 0.074784063 0.509 12767431
0.013149259 0.074857526 0.50950003 12635332
0.014270526 0.074894257 0.50975001 12699840
0.01540798 0.075004451 0.51050001 12766148
0.016540622 0.075077914 0.51100004 12766148
0.017692728 0.075224832 0.51200002 12832709
0.018849209 0.075371757 0.51300001 12570050
0.020010063 0.075518675 0.514 12437953
0.021185573 0.075702339 0.51525003 12371137
0.022355722 0.075849257 0.51625001 12765895
0.023530245 0.075996183 0.51725 12371137
0.024709145 0.076143108 0.51825005 12371909
0.025879949 0.076253302 0.51900005 12437702
0.02704102 0.076326758 0.51950002 12437953
0.028217839 0.076436952 0.52025002 12568769
0.029383834 0.076510414 0.52075005 12568003
0.030566668 0.076620609 0.52150005 12831175
0.031737581 0.076694071 0.52200001 12568769
0.032910682 0.076767534 0.52250004 12502723
0.034085967 0.076840989 0.523 12633796
0.035246607 0.076877728 0.52325004 12699589
0.036390945 0.076877728 0.52325004 12699842
0.037535287 0.076877728 0.52325004 12831428
0.038698107 0.076914452 0.52350003 12502463
0.039900079 0.077024646 0.52425003 12633026
0.041105326 0.07713484 0.52500004 12568256
0.042333979 0.077281766 0.52600002 12502976
0.04364967 0.077575609 0.528 12568516
0.04501655 0.077942923 0.53050005 12371139
0.046285547 0.078126572 0.53175002 12436930
0.047515403 0.078236766 0.53250003 12436670
0.048725683 0.078310229 0.53300005 12174781
0.049914747 0.07834696 0.53325003 12306367
0.051080957 0.07834696 0.53325003 12372160
0.05224717 0.07834696 0.53325003 12503744
0.053438421 0.078383692 0.53350002 12305595
0.054605179 0.078383692 0.53350002 12568256
0.055771936 0.078383692 0.53350002 12370877
0.056938697 0.078383692 0.53350002 12239038
0.05810545 0.078383692 0.53350002 12173758
0.059272207 0.078383692 0.53350002 12370877
0.060467288 0.078420416 0.53375 12109501
0.061692331 0.078493878 0.53425002 11781050
0.062948979 0.078604072 0.53500003 11911609
0.064208902 0.078714266 0.53575003 12042172
0.065441601 0.078787737 0.53625005 12107452
0.066676475 0.078861192 0.53675002 12239038
0.067881942 0.078897916 0.537 12107705
0.069056362 0.078897916 0.537 12370875
0.070230767 0.078897916 0.537 12107705
0.07140518 0.078897916 0.537 12239291
0.072613388 0.078934655 0.53725004 12107705
0.073891364 0.079044849 0.53800005 12173498
0.07513772 0.079118304 0.53850001 12173498
0.076457128 0.079265229 0.5395 12041912
0.077744931 0.079375423 0.54025 11975866
0.079072557 0.079522349 0.54125005 11976379
0.080441609 0.079705998 0.54250002 12041912
0.081928983 0.079999849 0.54450005 12238268
0.083501428 0.080367163 0.54700005 12041659
0.084736429 0.080403887 0.54725003 12042172
0.08597251 0.080440618 0.54750001 11910586
0.087130085 0.080403887 0.54725003 12041912
0.088246204 0.080330424 0.54675001 11910586
0.089441948 0.080330424 0.54675001 11910586
0.090720572 0.080403887 0.54725003 11844793
0.093429059 0.081726201 0.55625004 11910839
0.094645567 0.081726201 0.55625004 11647152
0.095819004 0.08168947 0.55600005 11778740
0.0969477 0.081616007 0.55550003 11647414
0.098030038 0.081505813 0.55475003 11910073
0.099064372 0.081358895 0.55375004 11778740
0.10004906 0.08117523 0.55250001 11582644
0.10116574 0.081101775 0.55200005 11582644
0.10232659 0.081065044 0.55175 11845046
0.10353325 0.081065044 0.55175 11647154
0.10706537 0.082864851 0.56400001 11844793
0.10844285 0.082975045 0.56475002 11844795
0.10977506 0.083048515 0.56525004 11910075
0.11125673 0.083232164 0.56650001 11712696
0.1131907 0.083746403 0.57000005 11515830
0.11483882 0.084040247 0.57200003 11450805
0.11619126 0.08411371 0.57250005 11384242
0.11749459 0.084150441 0.57275003 11581108
0.11869536 0.08411371 0.57250005 11515315
0.11979027 0.084003516 0.57175004 11581108
0.12082897 0.083856583 0.57075 11581108
0.12191679 0.083746403 0.57000005 11581108
0.12294728 0.083599471 0.56900001 11252656
0.12402798 0.083489276 0.56825 11252656
0.12510541 0.08337909 0.56750005 11252656
0.12601256 0.083158709 0.56600004 11252143
0.12685695 0.08290159 0.56425005 11318189
0.13104211 0.084811591 0.57725 11252143
0.13259105 0.084995247 0.57850003 11449522
0.13379838 0.084958516 0.57825005 11055277
0.13494621 0.084885053 0.57775003 11056047
0.13591504 0.084701397 0.5765 11186863
0.13693789 0.084554471 0.57550001 11186350
0.1380164 0.084444284 0.57475001 11252396
0.13903105 0.084297359 0.57375002 11186350
0.13991907 0.084076971 0.57225001 10989484
0.14191067 0.084517747 0.57525003 10989484
0.14441313 0.08525236 0.58025002 10989484
0.1457449 0.085289091 0.58050001 10989737
0.14701445 0.085289091 0.58050001 10989224
0.14834787 0.08532583 0.58075005 11120557
0.14961796 0.08532583 0.58075005 11317166
0.15101795 0.085399285 0.58125001 11382191
0.15235464 0.085436024 0.58150005 11185582
0.15382449 0.085546203 0.58225 10988971
0.15549743 0.085766591 0.58375001 10988971
0.15798265 0.086427756 0.58825004 10989484
0.15994602 0.086795062 0.59075004 10792107
0.16096506 0.086648144 0.58975005 10988971
0.16204847 0.08653795 0.58900005 10988201
0.16305929 0.086391017 0.588 11053477
0.16357662 0.085986979 0.58525002 10857638
0.16358897 0.08532583 0.58075005 10725801
0.16485906 0.08532583 0.58075005 10922408
0.16620068 0.085362554 0.58100003 10660006
0.16754338 0.085399285 0.58125001 10725799
0.16888718 0.085436024 0.58150005 10660519
0.17030521 0.085509479 0.58200002 10594726
0.17172545 0.085582942 0.58250004 10660006
0.17738004 0.087750062 0.59725004 10725029
0.17883579 0.087823525 0.59775001 10790052
0.18021841 0.087860256 0.59800005 10725282
0.18167801 0.087933712 0.59850001 10659489
0.18306337 0.087970451 0.59875005 10791075
0.18444981 0.088007182 0.59900004 10790052
0.18575981 0.088007182 0.59900004 10855588
0.18706982 0.088007182 0.59900004 10461857
0.18837982 0.088007182 0.59900004 10528420
0.19095653 0.088594876 0.60300004 10396834
0.19243471 0.088668332 0.60350001 10396836
0.19375455 0.088668332 0.60350001 10527650
0.19297336 0.087713331 0.597 10725029
0.19305865 0.087162368 0.59325004 10660006
0.19419228 0.087088905 0.59275001 10790822
0.19837436 0.088374488 0.60150003 10331041
0.20076878 0.088851988 0.60475004 10331294
0.20660269 0.090835452 0.61825001 10527903
0.2123275 0.092745461 0.63125002 10330522
0.21370803 0.092745461 0.63125002 10199708
0.21508858 0.092745461 0.63125002 10199455
0.21646911 0.092745461 0.63125002 10265248
0.21793592 0.092782192 0.63150001 10330271
0.21931699 0.092782192 0.63150001 10330271
0.22672664 0.095316619 0.64875001 10264478
0.24608058 0.10280972 0.69975001 10329503
0.25769582 0.10699704 0.72825003 10198687
0.25928852 0.10699704 0.72825003 7565942
0.26088119 0.10699704 0.72825003 4871255
0.26238376 0.10696031 0.72800004 4543571
0.26379457 0.10688685 0.72750002 4740434
0.26520324 0.10681339 0.72700006 4806225
0.26642618 0.10666646 0.72600001 4805712
0.2674602 0.10644608 0.72450006 4806227
0.2686733 0.10629915 0.72350001 4805716
0.26997542 0.10618896 0.72275001 4477264
0.27146214 0.10615223 0.72250003 4477012
0.27304226 0.10615223 0.72250003 4280147
0.27471736 0.10618896 0.72275001 4280917
0.28193676 0.10835608 0.73750001 4542803
0.28345355 0.10831935 0.73725003 5001808
0.28496924 0.10828263 0.73700005 5067601
0.28648382 0.10824589 0.73675001 4542542
0.28799734 0.10820916 0.73650002 4674643
0.28931311 0.10809897 0.73575002 4608337
0.29082337 0.10806224 0.73550004 4740434
0.29998621 0.11085378 0.75450003 4411985
0.30103663 0.1106334 0.75300002 4740436
0.30197996 0.11037628 0.75125003 5002323
0.29897514 0.10868666 0.73975003 4739921
0.29937392 0.10824589 0.73675001 4543569
0.30098519 0.10824589 0.73675001 4543569
0.30208305 0.10806224 0.73550004 4609362
0.30358839 0.10802551 0.73525006 4675157
0.3049888 0.10795204 0.73475003 4674391
0.30325747 0.10677665 0.72675002 4477010
0.30463713 0.1067032 0.72625005 4870737
0.30622542 0.1067032 0.72625005 4673360
0.30770776 0.10666646 0.72600001 4542544
0.31483385 0.10857647 0.73900002 4345424
0.31634298 0.10853974 0.73875004 4477264
0.31795865 0.10853974 0.73875004 4280399
0.31968242 0.10857647 0.73900002 4215376
0.31738561 0.10725415 0.73000002 4281169
0.31898212 0.10725415 0.73000002 4410956
0.32057863 0.10725415 0.73000002 4607054
0.32691947 0.10883358 0.74075001 4080971
0.32853949 0.10883358 0.74075001 4279631
0.33015949 0.10883358 0.74075001 4017227
0.33189151 0.10887032 0.74100006 3622985
0.3299363 0.10666646 0.72600001 3754575
0.33118156 0.10655627 0.72525001 3622735
0.33265296 0.10651954 0.72500002 3688010
0.33400804 0.10644608 0.72450006 3424836
0.3352451 0.10633589 0.72375005 3884875
0.33647889 0.1062257 0.72300005 3622985
0.33759251 0.10607877 0.72200006 3491914
0.33881921 0.10596858 0.72125006 3162951
0.34016058 0.10589512 0.72075003 3162947
0.34149978 0.10582165 0.72025001 3227197
0.3361682 0.10369126 0.70575005 3489602
0.33759201 0.10365453 0.70550001 3554625
0.33913493 0.10365453 0.70550001 2963771
0.34067786 0.10365453 0.70550001 3029564
0.34209952 0.1036178 0.70525002 2634806
0.34814906 0.10497684 0.71450001 2636605
0.35007876 0.10508703 0.71525002 2307127
0.35188884 0.1051605 0.71575004 2108716
0.353948 0.10530742 0.71675003 1251872
0.3558875 0.10541762 0.71750003 1318437
0.35783032 0.10552781 0.71825004 1451046
0.35965136 0.10560127 0.71875006 1386023
0.36373332 0.10541762 0.71750003 925476
0.36479339 0.10527069 0.71650004 1516327
0.36597684 0.1051605 0.71575004 1253155
0.36715707 0.1050503 0.71500003 1253671
0.368334 0.10494011 0.71425003 1384743
0.36937815 0.10479319 0.71325004 1580839
0.37002793 0.10453608 0.71150005 1449001
0.37132281 0.10446261 0.71100003 463651
-0.28301221 0.080332376 0.53875005 7042925
-0.29909715 0.085252963 0.57175004 7304816
-0.29250708 0.083724588 0.56150001 7238770
-0.16095705 0.073063314 0.49000001 3488822
-0.15667057 0.073063314 0.49000001 3751222
-0.15567835 0.073100589 0.49025002 2963512
-0.15460618 0.073100589 0.49025002 3425106
-0.15353401 0.073100589 0.49025002 5337466
-0.15238407 0.073063314 0.49000001 5601153
-0.14488271 0.073063314 0.49000001 6394531
-0.14410457 0.073212422 0.49100003 6262691
-0.14317642 0.07328698 0.49150002 6001569
-0.14231835 0.073398806 0.49225003 6066849
-0.14145701 0.073510639 0.49300003 5869468
-0.14059238 0.073622473 0.49375004 5606294
-0.13972448 0.073734298 0.49450001 5145997
-0.1387832 0.073808856 0.49500003 5143167
-0.13783973 0.073883414 0.49550003 5530982
-0.13689408 0.073957965 0.49600002 4871507
-0.16968529 0.096249729 0.6455 5988954
-0.14715794 0.084171921 0.56450003 6054749
-0.024860837 0.073063314 0.49000001 11451318
-0.023874175 0.073324256 0.49175003 11714490
-0.022868268 0.073547915 0.49325001 11648697
-0.021833712 0.073697031 0.49425003 11911609
-0.020773787 0.073771581 0.49475002 11911356
-0.019701725 0.073808856 0.49500003 11911869
-0.018628569 0.073846132 0.49525002 11846329
-0.017563177 0.07392069 0.49575001 11781050
-0.016487289 0.073957965 0.49600002 11978176
-0.015410307 0.073995247 0.49625003 12175294
-0.01433223 0.074032523 0.49650002 12175294
-0.013253061 0.074069798 0.49675003 12437953
-0.012172798 0.074107073 0.49700001 12372158
-0.011091442 0.074144356 0.49725002 12372158
-0.010003963 0.074144356 0.49725002 12568769
-0.0089209657 0.074181631 0.49750003 12502974
-0.0078329388 0.074181631 0.49750003 12306367
-0.0067483024 0.074218906 0.49775001 12437951
-0.0056682574 0.07433074 0.49850002 12502976
-0.0045849318 0.074442573 0.49925002 12568767
-0.0035000751 0.074591681 0.50025004 12831941
-0.0024120463 0.074778065 0.50150001 12568516
-0.0013178948 0.074927174 0.5025 12503493
-0.00021936938 0.075076289 0.50350004 12438215
0.00088265451 0.075150833 0.50400001 12438727
0.001985881 0.075188115 0.50425005 12307141
0.0030902005 0.07522539 0.50450003 12635079
0.004193536 0.07522539 0.50450003 12897734
0.0053021205 0.075299941 0.505 12963527
0.0064128926 0.075374499 0.50550002 12570566
0.0075295698 0.075486332 0.50625002 12570564
0.0086495271 0.075598165 0.50700003 12767170
0.0097679542 0.075672723 0.50750005 12897732
0.010888567 0.075747274 0.50800002 12503493
0.012011368 0.075821832 0.50850004 12635079
0.013142807 0.075933665 0.50925004 12766918
0.014270526 0.076008208 0.50975001 12766148
0.015400435 0.076082766 0.51025003 12896968
0.016540622 0.076194599 0.51100004 12699842
0.017684091 0.076306432 0.51175004 12568769
0.01883084 0.076418266 0.51250005 12766148
0.019990601 0.076567374 0.51350003 12502723
0.021165013 0.07675375 0.51475 12503746
0.022334071 0.076902866 0.51575005 12437953
0.0235075 0.077051975 0.51675004 12371907
0.024685303 0.077201083 0.51775002 12372420
0.025855016 0.077312917 0.51850003 12503493
0.027014995 0.077387474 0.51900005 12635332
0.028190719 0.0774993 0.51975 12766148
0.029355619 0.077573858 0.52025002 12634311
0.030537359 0.077685684 0.52100003 12568516
0.031707183 0.077760242 0.52150005 12568516
0.032879189 0.077834792 0.52200001 12634562
0.034037087 0.077872068 0.52225 12634309
0.035196085 0.07790935 0.52250004 12436930
0.03635617 0.077946626 0.52275002 12568516
0.03751735 0.077983901 0.523 12568516
0.03867963 0.078021184 0.52325004 12634309
0.039862022 0.078095734 0.52375001 12568769
0.041085754 0.07824485 0.52475005 12437183
0.042313859 0.078393959 0.52575004 12371907
0.043608338 0.078654893 0.52750003 12503495
0.044910476 0.078915834 0.52925003 12371139
0.046198502 0.079139501 0.53075004 12502976
0.047426172 0.079251334 0.53150004 12699842
0.048634261 0.079325885 0.53200001 12437183
0.049821146 0.079363167 0.53225005 12371137
0.051009115 0.079400443 0.53250003 12371137
0.052173685 0.079400443 0.53250003 12436930
0.053363293 0.07943771 0.53275001 12371137
0.054554008 0.079474993 0.53300005 12502463
0.05571967 0.079474993 0.53300005 12567486
0.056912016 0.079512268 0.53325003 12436417
0.058078226 0.079512268 0.53325003 12305344
0.059244435 0.079512268 0.53325003 12305344
0.060438968 0.079549544 0.53350002 12174528
0.061634589 0.079586819 0.53375 11977149
0.062890142 0.079698652 0.5345 12173758
0.064119011 0.07977321 0.53500003 12107965
0.065380581 0.079885043 0.53575003 12107965
0.066614375 0.079959601 0.53625005 12173758
0.067818739 0.079996876 0.53650004 12107452
0.069024213 0.080034152 0.53675002 12173498
0.070198074 0.080034152 0.53675002 12239291
0.071371943 0.080034152 0.53675002 12239291
0.072579592 0.080071427 0.537 12239291
0.073822685 0.080145985 0.53750002 12106935
0.07506796 0.080220543 0.53800005 12238521
0.076350845 0.080332376 0.53875005 12173498
0.077672988 0.080481477 0.53975004 12041912
0.078999512 0.080630586 0.54075003 12042425
0.080367476 0.080816977 0.54200006 11910586
0.081853747 0.081115194 0.54400003 11975866
0.083310612 0.081376128 0.54575002 11976379
0.084581591 0.081450686 0.54625005 12042172
0.085815482 0.081487961 0.54650003 12173245
0.086970866 0.081450686 0.54625005 12041912
0.088125154 0.081413403 0.546 11976119
0.089319251 0.081413403 0.546 12173498
0.090554796 0.081450686 0.54625005 11976379
0.093135126 0.082680836 0.55450004 11844793
0.094517954 0.082829945 0.55550003 11713460
0.095689751 0.08279267 0.55525005 11713460
0.096816808 0.082718112 0.55475003 11713460
0.097897507 0.082606278 0.55400002 11713460
0.098930202 0.08245717 0.55300003 11778487
0.10000379 0.082345337 0.55225003 11713207
0.10111992 0.082270779 0.55175 11582391
0.10232659 0.082270779 0.55175 11647667
0.10353325 0.082270779 0.55175 11910326
0.10692299 0.08398553 0.56325001 11712694
0.10858687 0.084321029 0.56550002 11516600
0.10996926 0.084432863 0.56625003 11582393
0.11164953 0.084768355 0.56850004 11910586
0.11343892 0.085178405 0.57125002 11515828
0.11488901 0.085327514 0.57225001 11450805
0.11619126 0.085364796 0.57250005 11252909
0.11744331 0.085364796 0.57250005 11647154
0.11864351 0.085327514 0.57225001 11450035
0.11973789 0.08521568 0.5715 11515315
0.12077605 0.085066572 0.57050002 11515315
0.12180983 0.084917463 0.56950003 11318189
0.12283925 0.084768355 0.56850004 11121840
0.12391886 0.084656522 0.56775004 11384242
0.12482984 0.084432863 0.56625003 11449522
0.12562296 0.084134646 0.56425005 11317936
0.1264635 0.083873697 0.5625 11449522
0.1275802 0.083799146 0.56200004 11318189
0.13218996 0.085998505 0.57675004 11382959
0.13350914 0.086035781 0.57700002 11448754
0.13453746 0.085886672 0.57600003 11252658
0.13556141 0.085737564 0.57500005 11186863
0.13658097 0.085588448 0.574 10989484
0.13765621 0.085476629 0.57325006 11055277
0.13872816 0.085364796 0.57250005 10792875
0.1390633 0.08480563 0.56875002 11121070
0.14055385 0.084954739 0.56975001 11120557
0.14428869 0.086445823 0.57975 11055279
0.14568214 0.086520381 0.58025002 11055279
0.14695114 0.086520381 0.58025002 11054766
0.14828399 0.086557657 0.58050001 10923693
0.14955354 0.086557657 0.58050001 10792875
0.15088804 0.086594939 0.58075005 10792107
0.15222363 0.086632214 0.58100003 10858670
0.15356031 0.08666949 0.58125001 10989486
0.15489811 0.086706772 0.58150005 10989486
0.15637127 0.086818598 0.58225 11054764
0.15872763 0.087415032 0.58625001 10857385
0.1606921 0.087787807 0.58875 10922661
0.16177334 0.087675974 0.588 11119270
0.16292064 0.087601423 0.58750004 11119270
0.16399586 0.08748959 0.58675003 10791845
0.16464528 0.087154098 0.58450001 10791592
0.16514294 0.086744048 0.58175004 10856615
0.16634372 0.086706772 0.58150005 10660006
0.16768751 0.086744048 0.58175004 10725799
0.16903238 0.086781323 0.58200002 10791592
0.17037836 0.086818598 0.58225 10725799
0.17172545 0.086855881 0.58250004 10725799
0.17715728 0.088943407 0.59650004 10856868
0.17853661 0.088980675 0.59675002 10790305
0.17991704 0.08901795 0.597 10724002
0.18137446 0.089092508 0.59750003 10856098
0.18268119 0.089092508 0.59750003 10921891
0.18406489 0.089129783 0.59775001 10790305
0.18537216 0.089129783 0.59775001 10528671
0.18660136 0.089092508 0.59750003 10528671
0.18775083 0.08901795 0.597 10528673
0.18897729 0.088980675 0.59675002 10396834
0.18996352 0.088831574 0.59575003 10659489
0.19110587 0.088757016 0.59525001 10660259
0.19159961 0.088384241 0.59275001 10528673
0.19208238 0.088011473 0.59025002 10529186
0.19329135 0.087974198 0.59000003 10463140
0.19540617 0.088346966 0.59250003 10594215
0.2006858 0.090136275 0.60450006 10527652
0.20242554 0.090322658 0.60575002 10331041
0.20770253 0.092074685 0.61750001 10331041
0.21370803 0.094124936 0.63125002 10462108
0.21508858 0.094124936 0.63125002 10331041
0.21646911 0.094124936 0.63125002 10528420
0.21784964 0.094124936 0.63125002 10330271
0.21923018 0.094124936 0.63125002 10067099
0.23153204 0.098784581 0.66250002 10264478
0.25408107 0.10773111 0.72250003 10329503
0.25707659 0.10832755 0.72650003 9935515
0.25893247 0.10843938 0.72725004 7039855
0.26061252 0.10847665 0.72750002 5199191
0.26220354 0.10847665 0.72750002 4806743
0.26370394 0.10843938 0.72725004 4937300
0.26520324 0.1084021 0.72700006 5527384
0.26642618 0.10825299 0.72600001 5198419
0.2675525 0.1080666 0.72475004 5199189
0.2686733 0.10788022 0.72350001 5067603
0.26997542 0.10776839 0.72275001 5002323
0.27146214 0.10773111 0.72250003 4872022
0.27304226 0.10773111 0.72250003 4280915
0.27471736 0.10776839 0.72275001 4675157
0.28136334 0.10974409 0.73600006 4937298
0.28297296 0.10974409 0.73600006 5068114
0.28458259 0.10974409 0.73600006 5003091
0.28609496 0.1097068 0.73575002 4806227
0.28291386 0.10788022 0.72350001 4871507
0.2835131 0.10750744 0.72100002 4936528
0.28518879 0.10754473 0.72125006 5199702
0.29213369 0.1095577 0.73475003 5068886
0.29374057 0.1095577 0.73475003 5133911
0.29554847 0.10963225 0.73525006 5133911
0.29725748 0.10966953 0.73550004 5397081
0.298866 0.10966953 0.73550004 5331288
0.30037239 0.10963225 0.73525006 5199704
0.30177501 0.1095577 0.73475003 4936278
0.30317545 0.10948314 0.73425001 4937300
0.30467749 0.10944586 0.73400003 4675155
0.30325747 0.10836482 0.72675002 4937815
0.30474198 0.10832755 0.72650003 5002325
0.30622542 0.10829027 0.72625005 4936532
0.30770776 0.10825299 0.72600001 4542544
0.31494036 0.11022869 0.73925006 4543057
0.31806624 0.1101914 0.73900002 4871507
0.31957427 0.11015413 0.73875004 4411983
0.31749433 0.10888671 0.73025006 4610134
0.31909138 0.10888671 0.73025006 4806227
0.32057863 0.10884943 0.73000002 4937300
0.32228547 0.10888671 0.73025006 4411983
0.32865039 0.11048963 0.74100006 4543571
0.33038235 0.1105269 0.74125004 4805716
0.33200347 0.1105269 0.74125004 4411217
0.33513263 0.11048963 0.74100006 4870739
0.33561704 0.11011685 0.73850006 4739923
0.33574802 0.10963225 0.73525006 4477012
0.33701187 0.10952042 0.73450005 4345940
0.3383877 0.10944586 0.73400003 4412501
0.33976138 0.10937131 0.73350006 4280399
0.33636251 0.10776839 0.72275001 4214092
0.33759251 0.10765656 0.72200006 4279631
0.33881921 0.10754473 0.72125006 4409938
0.34027857 0.10750744 0.72100002 4213838
0.34161833 0.10743289 0.72050005 4213579
0.33593002 0.10515898 0.70525002 4015946
0.33747241 0.10515898 0.70525002 4016459
0.33901477 0.10515898 0.70525002 3819082
0.3403157 0.10508443 0.70475006 4082768
0.34185702 0.10508443 0.70475006 3754573
0.34802726 0.10650096 0.71425003 3097926
0.34983405 0.10657552 0.71475005 2899779
0.35152009 0.10661279 0.71500003 3228227
0.35345417 0.10672463 0.71575004 5533032
0.3553915 0.10683646 0.71650004 3493963
0.35720757 0.10691101 0.71700001 662813
0.3633531 0.10687374 0.71675003 1780785
0.36453879 0.1067619 0.71600002 1386027
0.36584902 0.10668735 0.71550006 1188648
0.36715707 0.10661279 0.71500003 1254187
0.36846292 0.10653824 0.71450001 1582382
0.36963707 0.1064264 0.71375 1516077
1.3173891 0.2871463 1.9257501 3092776
-0.28301221 0.081509709 0.53875005 7239283
-0.29373509 0.084951647 0.56150001 6976111
-0.28091621 0.081585355 0.53925002 6911341
-0.15452732 0.074134119 0.49000001 1516589
-0.14381108 0.074134119 0.49000001 4357262
-0.14303076 0.07428541 0.49100003 4158859
-0.1421738 0.074398883 0.49175003 3963277
-0.14131355 0.074512355 0.49250004 4095117
-0.14045 0.07462582 0.49325001 4948368
-0.1395832 0.074739292 0.49400002 4818065
-0.13871311 0.074852765 0.49475002 4947335
-0.13783973 0.074966237 0.49550003 5400942
-0.13682508 0.075004056 0.49575001 5660255
-0.14046407 0.077613883 0.51300001 6054749
-0.16087902 0.092592001 0.61200005 6185563
-0.13816422 0.080185883 0.53000003 7371120
-0.12679437 0.074209765 0.49050003 4940132
-0.12565756 0.074171938 0.49025002 5797499
-0.12452185 0.074134119 0.49000001 5732737
-0.023789214 0.074134119 0.49000001 11780283
-0.022787133 0.074361056 0.49150002 11649211
-0.021778492 0.074588001 0.49300003 11845563
-0.020731799 0.074701473 0.49375004 12042942
-0.019671874 0.074777119 0.49425003 12109501
-0.01860036 0.074814938 0.49450001 11977915
-0.01752775 0.074852765 0.49475002 11846329
-0.016454048 0.074890591 0.49500003 12175294
-0.015379253 0.07492841 0.49525002 12372160
-0.014303364 0.074966237 0.49550003 12174781
-0.013233052 0.075041883 0.49600002 12044222
-0.012154429 0.075079709 0.49625003 12241601
-0.011069137 0.075079709 0.49625003 12438466
-0.0099838441 0.075079709 0.49625003 12503746
-0.008903034 0.075117528 0.49650002 12634560
-0.0078211306 0.075155355 0.49675003 12766146
-0.0067381342 0.075193174 0.49700001 12503744
-0.0056597292 0.075306647 0.49775001 12372160
-0.0045757485 0.0753823 0.49825004 12438466
-0.0034930783 0.075533591 0.49925002 12635845
-0.0024060344 0.075684883 0.50025004 12372673
-0.0013146165 0.075836182 0.50125003 12503746
-0.00021860693 0.075911827 0.50175005 12503493
0.0008795897 0.075987473 0.50225002 12569799
0.0019799734 0.076063119 0.50275004 12635592
0.0030825438 0.076138765 0.50325 12569799
0.0041852235 0.076176591 0.50350004 12635332
0.0052916212 0.076252237 0.50400001 12701125
0.0064033777 0.076365702 0.50475001 12766918
0.0075184149 0.076479174 0.50550002 12832971
0.0086324671 0.076554827 0.50600004 12766916
0.0097535187 0.0766683 0.50675005 12963525
0.01087785 0.076781772 0.50750005 12897734
0.011999557 0.07685741 0.50800002 12635332
0.013129902 0.076970883 0.50875002 12635332
0.014263528 0.077084355 0.50950003 12831941
0.015400435 0.077197827 0.51025003 12831428
0.016532529 0.077273466 0.51075 12897221
0.01767545 0.077386938 0.5115 12634047
0.018821651 0.07750041 0.51225001 12568769
0.019971134 0.077613883 0.51300001 12635079
0.021123897 0.077727355 0.51375002 12306114
0.022301592 0.077916473 0.51500005 12437700
0.023473382 0.078067765 0.51600003 12372160
0.024649546 0.078219056 0.51700002 12306367
0.025805151 0.078294709 0.51750004 12568769
0.026975956 0.078408182 0.51825005 12568256
0.028136481 0.07848382 0.51875001 12634562
0.0293133 0.078597292 0.51950002 12831426
0.030478748 0.078672945 0.52000004 12699842
0.031661581 0.078786418 0.52075005 12634049
0.032831948 0.078862056 0.52125001 12634562
0.034004502 0.078937709 0.52175003 12634049
0.035162404 0.078975528 0.52200001 12633796
0.036321394 0.079013348 0.52225 12633798
0.037481487 0.079051182 0.52250004 12568005
0.038642664 0.079089001 0.52275002 12502723
0.039823972 0.079164654 0.52325004 12502976
0.041027032 0.079278119 0.52400005 12568769
0.042273618 0.079467237 0.52525002 12437953
0.043546338 0.079694174 0.52675003 12437183
0.044846833 0.079958938 0.52850002 12173758
0.046111461 0.080148064 0.52975005 12436930
0.047336943 0.080261536 0.53050005 12436930
0.048542842 0.080337174 0.53100002 12371390
0.049727537 0.080375001 0.53125 12371137
0.050913323 0.080412827 0.53150004 12568003
0.05207571 0.080412827 0.53150004 12502210
0.053263132 0.080450647 0.53175002 12370624
0.054477241 0.0805263 0.53225005 12502463
0.055667397 0.080564119 0.53250003 12371390
