# .PCD v0.7 - Point Cloud Data file format
VERSION 0.7
FIELDS x y z rgb
SIZE 4 4 4 4
TYPE F F F U
COUNT 1 1 1 1
WIDTH 1087
HEIGHT 1
VIEWPOINT 0 0 0 1 0 0 0
POINTS 1087
DATA ascii
0.085977681 -0.0024180512 0.62600005 11252909
0.087451383 -0.0024209484 0.62675005 11121323
0.088892929 -0.0024228795 0.62725002 11122093
0.090192765 -0.0024209484 0.62675005 11056300
0.090358205 -0.0023890811 0.61850005 11056300
0.091673777 -0.0023881153 0.61825001 10859948
0.094229616 -0.0024190168 0.62625003 10794155
0.098461464 -0.0024914425 0.64500004 10794155
0.099872082 -0.0024914425 0.64500004 11056813
0.10128269 -0.0024914425 0.64500004 10990254
0.10265349 -0.0024904769 0.64475006 11056047
0.10398284 -0.0024885454 0.64425004 11253679
0.10526913 -0.0024856485 0.64350003 11187116
0.10742243 -0.0025030305 0.648 11121070
0.10917553 -0.002510756 0.65000004 10990254
0.11076722 -0.0025146187 0.65100002 11186350
0.11236329 -0.0025184813 0.65200001 11186350
0.11400736 -0.0025233098 0.65325004 11055530
0.11578942 -0.0025310351 0.65525001 10924714
0.11744607 -0.0025358635 0.65650004 10859434
0.11897236 -0.0025377949 0.65700001 10858921
0.12045504 -0.0025387607 0.65725005 10858921
0.12189244 -0.0025387607 0.65725005 11055530
0.12328292 -0.0025377949 0.65700001 11252396
0.12467231 -0.0025368291 0.65675002 11055015
0.12601262 -0.002534898 0.65625006 11120810
0.12735072 -0.0025329667 0.65575004 11055530
0.12873574 -0.0025320009 0.65550005 10858668
0.13007002 -0.0025300696 0.65500003 10792875
0.13140211 -0.002528138 0.65450001 10727595
0.13278276 -0.0025271724 0.65425003 10859434
0.13416231 -0.0025262069 0.65400004 10989224
0.13559259 -0.0025262069 0.65400004 11185833
0.13948469 -0.0025715935 0.66575003 11251626
0.14104652 -0.0025735251 0.66625005 10857638
0.14261055 -0.0025754562 0.66675001 10857638
0.14412275 -0.0025764219 0.66700006 10857636
0.14569059 -0.0025783533 0.66750002 10989222
0.14715041 -0.0025783533 0.66750002 10989224
0.14849891 -0.0025764219 0.66700006 11054764
0.14978901 -0.0025735251 0.66625005 10792875
0.15101908 -0.0025696622 0.66525 10726312
0.15235938 -0.0025677308 0.66475004 10857385
0.15375534 -0.0025667653 0.66450006 11121070
0.15532535 -0.0025686964 0.66500002 10923944
0.15683866 -0.0025696622 0.66525 10857385
0.15841252 -0.0025715935 0.66575003 10791592
0.16335043 -0.0026276028 0.68025005 10726052
0.16495928 -0.0026295341 0.68075001 10660259
0.16644807 -0.0026295341 0.68075001 10529956
0.1678752 -0.0026285683 0.68050003 10595749
0.16936344 -0.0026285683 0.68050003 10792358
0.17085169 -0.0026285683 0.68050003 10660772
0.17233995 -0.0026285683 0.68050003 10857638
0.17382818 -0.0026285683 0.68050003 10660772
0.17956731 -0.0026923029 0.69700003 10660519
0.18330006 -0.0027251358 0.70550001 10594213
0.18490848 -0.0027261018 0.70575005 10594213
0.18658404 -0.0027280329 0.70625001 10660519
0.1881952 -0.0027289987 0.70650005 10529186
0.18927033 -0.0027222391 0.70475006 10594979
0.18661498 -0.0026623672 0.68925005 10791075
0.18430123 -0.0026082892 0.67525005 10725282
0.18570919 -0.0026073235 0.67500001 10660259
0.18718541 -0.0026073235 0.67500001 10398368
0.191247 -0.0026430537 0.68425006 10529186
0.19288428 -0.0026449848 0.68475002 10397085
0.19920765 -0.0027106509 0.70175004 10594466
0.2008139 -0.0027116165 0.70200002 10331554
0.20206092 -0.0027077538 0.70100003 10265761
0.20337617 -0.0027048567 0.70025003 10200221
0.20483446 -0.0027038911 0.70000005 10265248
0.20636535 -0.0027038911 0.70000005 10265761
0.20789623 -0.0027038911 0.70000005 10331807
0.20950191 -0.0027048567 0.70025003 10266014
0.20734158 -0.0026575385 0.68800002 10265761
0.20892213 -0.0026585043 0.68825001 10199968
0.21478416 -0.0027135478 0.70250005 10199455
0.21747525 -0.0027280329 0.70625001 10133915
0.21886475 -0.0027261018 0.70575005 9872026
0.22040822 -0.0027261018 0.70575005 9937566
0.22187304 -0.0027251358 0.70550001 10068382
0.2233368 -0.0027241702 0.70525002 9871003
0.22479945 -0.0027232047 0.70500004 9740187
0.22642154 -0.0027241702 0.70525002 9871256
0.22796394 -0.0027241702 0.70525002 10067352
0.2295063 -0.0027241702 0.70525002 9870743
0.2264621 -0.0026700925 0.69125003 9805210
0.22789142 -0.0026691267 0.69100004 9739419
0.2295686 -0.0026710581 0.69150001 9936283
0.23651122 -0.0027338269 0.70775002 9738904
0.23805906 -0.0027338269 0.70775002 9739670
0.23960689 -0.0027338269 0.70775002 9739155
0.24106957 -0.0027328613 0.70750004 9935764
0.24501731 -0.0027599002 0.71450001 9738134
0.25098005 -0.0028091497 0.72725004 9673113
0.2531783 -0.0028159095 0.72900003 8622221
0.25529683 -0.0028217034 0.73050004 6318183
0.2619057 -0.0028767469 0.74475002 7960179
0.26353446 -0.0028767469 0.74475002 7763568
0.26525223 -0.0028777127 0.74500006 11253677
0.27234456 -0.0029366189 0.76025003 9544607
0.27625984 -0.0029607608 0.76650006 9345429
0.27956787 -0.0029781428 0.77100003 9474962
0.28198364 -0.0029858684 0.77300006 9541525
0.2887201 -0.0030389803 0.78675002 9278353
0.29560903 -0.0030930582 0.80075002 9344399
0.30608705 -0.0031838317 0.82425004 9015947
0.31125152 -0.0032185961 0.83325005 8752775
0.31681347 -0.0032195617 0.83350003 6185314
0.36454955 -0.0032717083 0.84700006 3752258
0.46834403 -0.0034069028 0.88200003 6183507
0.94183975 -0.0064526428 1.6705 8027769
0.93799371 -0.006401462 1.65725 8620158
0.94019765 -0.0063918056 1.6547501 11448226
0.94410175 -0.0063937367 1.6552501 7565156
0.94886678 -0.006401462 1.65725 5392205
0.95421547 -0.00641305 1.6602501 5654333
0.95813483 -0.0064149816 1.66075 2562062
0.9622013 -0.0064178789 1.6615001 787978
0.96627086 -0.0064207753 1.66225 2830120
0.9709273 -0.0064275353 1.664 4671785
0.98600233 -0.0064072562 1.6587501 5061149
0.98992825 -0.0064091873 1.65925 1838337
0.99370682 -0.0064101536 1.6595001 1445906
0.9976365 -0.0064120847 1.6600001 4801332
1.0014178 -0.00641305 1.6602501 5326118
1.0050488 -0.00641305 1.6602501 5785386
1.0086796 -0.00641305 1.6602501 5850669
1.0112436 -0.0064062905 1.6585001 5785136
1.0111991 -0.006383114 1.6525 5785649
1.0117426 -0.0063638007 1.6475 5785136
1.011956 -0.0063425559 1.6420001 5850929
1.0143101 -0.0063348305 1.6400001 6048308
1.0174313 -0.0063319332 1.63925 5982515
1.0199263 -0.0063251737 1.6375 5719597
1.0194447 -0.0063000661 1.631 5785651
1.0217572 -0.0062923408 1.6290001 986371
1.0253198 -0.0062923408 1.6290001 4866350
1.0288824 -0.0062923408 1.6290001 5721141
1.0324451 -0.0062923408 1.6290001 5590323
1.0360076 -0.0062923408 1.6290001 5917489
1.0397297 -0.0062933066 1.62925 6310196
1.0336877 -0.0062353658 1.6142501 6179894
1.0370574 -0.0062344004 1.6140001 6180661
1.040426 -0.0062334347 1.6137501 5983028
1.0436317 -0.0062315031 1.61325 5917235
1.0469977 -0.0062305373 1.613 5917235
1.0503623 -0.006229572 1.6127501 5851442
1.0453943 -0.0061793565 1.59975 5917235
1.0490569 -0.0061803223 1.6 5851181
1.0528851 -0.0061822538 1.6005001 5785388
1.0577054 -0.0061899791 1.6025001 5720110
1.0626999 -0.0061986702 1.60475 5916722
1.0663756 -0.0061996356 1.605 5785138
1.0700524 -0.0062006018 1.6052501 5917235
1.0732287 -0.0061986702 1.60475 5785649
1.0619769 -0.0061136908 1.5827501 5523247
1.0647652 -0.0061098281 1.58175 5851696
1.0675492 -0.0061059655 1.5807501 5983280
1.079306 -0.0061532836 1.5930001 5785901
1.0829598 -0.006154249 1.59325 5851694
1.0864441 -0.006154249 1.59325 5785903
1.0899286 -0.006154249 1.59325 5916462
1.093413 -0.006154249 1.59325 5719595
-0.82910001 -0.0032411448 1.9322501 68881
-0.79498625 -0.0032746927 1.9522501 462606
-0.79071671 -0.0032746927 1.9522501 463887
-0.078221515 -0.00089279306 0.53225005 7964291
-0.07716608 -0.0008940511 0.53300005 9609365
-0.076071694 -0.00089488976 0.53350002 9806744
-0.07501024 -0.0008961478 0.53425002 9806746
-0.073807299 -0.00089572847 0.53400004 9741467
-0.072673447 -0.0008961478 0.53425002 9807260
-0.071571968 -0.00089698652 0.53475004 9676444
-0.070731618 -0.00090118003 0.53725004 9610911
-0.070042163 -0.00090747018 0.54100001 9742497
-0.068795368 -0.00090663153 0.54050004 9676704
-0.067582019 -0.00090621214 0.54025 9742237
-0.066369772 -0.00090579281 0.54000002 9676191
-0.065218978 -0.00090621214 0.54025 9610400
-0.064126357 -0.00090747018 0.54100001 9807009
-0.063088633 -0.000909567 0.54225004 9938593
-0.06207398 -0.00091208308 0.54375005 9872800
-0.060996778 -0.00091376045 0.54475003 9676191
-0.059860304 -0.00091459911 0.54525 9610911
-0.058748547 -0.00091585715 0.546 9545120
-0.057607159 -0.00091669586 0.54650003 9676706
-0.056463588 -0.00091753463 0.54700005 9741984
-0.05534308 -0.00091879268 0.54775006 9676704
-0.054194581 -0.00091963133 0.54825002 9742237
-0.053019729 -0.0009200506 0.5485 9741984
-0.051843792 -0.00092047005 0.54875004 9741984
-0.050643679 -0.00092047005 0.54875004 9807777
-0.049421042 -0.0009200506 0.5485 9676191
-0.04822148 -0.0009200506 0.5485 9807777
-0.047000486 -0.00091963133 0.54825002 9676444
-0.045801472 -0.00091963133 0.54825002 9676191
-0.044602454 -0.00091963133 0.54825002 9676191
-0.043443024 -0.00092047005 0.54875004 9676957
-0.042262159 -0.00092088938 0.54900002 9610911
-0.041136295 -0.00092256675 0.55000001 9545888
-0.040096816 -0.00092634087 0.55225003 9676704
-0.039029893 -0.00092969567 0.55425 9741984
-0.03785187 -0.00093053438 0.55475003 9676704
-0.03665515 -0.00093095371 0.55500001 9742497
-0.035457335 -0.0009313731 0.55525005 9807777
-0.034258429 -0.00093179243 0.55550003 9807777
-0.033073302 -0.0009326312 0.55600005 9808543
-0.031885982 -0.0009334698 0.55650002 9742497
-0.030724036 -0.00093514717 0.5575 9873572
-0.029544482 -0.00093640521 0.55825001 9741216
-0.028387018 -0.00093850202 0.55950004 9676193
-0.027224084 -0.00094059872 0.56075001 9741984
-0.026067276 -0.00094311481 0.56225002 9676704
-0.024903905 -0.00094563095 0.56375003 9676704
-0.02374447 -0.00094856636 0.56550002 9741984
-0.022567431 -0.00095108245 0.56700003 10004386
-0.021383831 -0.00095359859 0.56850004 9610400
-0.020184811 -0.00095569529 0.56975001 9742499
-0.018963706 -0.00095695333 0.57050002 9742497
-0.017731557 -0.00095779204 0.57100004 9742497
-0.016497219 -0.0009586307 0.5715 9676704
-0.015240687 -0.00095821137 0.57125002 9676704
-0.013911769 -0.00095275982 0.56800002 9807779
-0.012652831 -0.00095150177 0.56725001 9873572
-0.011412262 -0.00095150177 0.56725001 10005156
-0.010176177 -0.00095192122 0.56750005 9939876
-0.0089429338 -0.00095275982 0.56800002 9808290
-0.0077108932 -0.00095401792 0.56875002 9742499
-0.0064812577 -0.00095611467 0.57000005 10005158
-0.0052622249 -0.00096114678 0.57300001 9873572
-0.0040230746 -0.00096450164 0.57500005 9938595
-0.002769164 -0.00096575968 0.57575005 10005156
-0.0015126286 -0.00096743705 0.57675004 10005671
-0.00025161036 -0.00096869515 0.57750005 9809060
0.0010122505 -0.00096953375 0.57800001 10071462
0.0022782986 -0.00097037252 0.57850003 10070949
0.0035450018 -0.00097079179 0.57875001 10136744
0.0048107211 -0.00097079179 0.57875001 9939878
0.0060764402 -0.00097079179 0.57875001 10071464
0.0073421593 -0.00097079179 0.57875001 10005669
0.0086078783 -0.00097079179 0.57875001 10136744
0.0098693324 -0.00097037252 0.57850003 10136744
0.011139316 -0.00097079179 0.57875001 10202537
0.012474697 -0.00097624335 0.58200002 10136744
0.013830197 -0.00098211423 0.5855 10333353
0.015110678 -0.00098211423 0.5855 10268328
0.016391158 -0.00098211423 0.5855 10334123
0.017664095 -0.0009816949 0.58525002 10268843
0.018927846 -0.00098085625 0.58475006 10203048
0.020189408 -0.00098001747 0.58425003 10464939
0.021467155 -0.00098001747 0.58425003 10530218
0.022744903 -0.00098001747 0.58425003 10727595
0.02404321 -0.00098085625 0.58475006 10596523
0.025354527 -0.00098211423 0.5855 10464937
0.026680501 -0.00098379166 0.58650005 10662318
0.028130041 -0.00098966248 0.59000003 10531504
0.029619826 -0.00099637208 0.59400004 10531502
0.030970948 -0.00099804951 0.59500003 10531502
0.032299325 -0.00099888828 0.59550005 10728883
0.033643998 -0.0010001463 0.59625006 10728881
0.034991946 -0.0010014042 0.597 10728879
0.036327977 -0.001002243 0.59750003 10991020
0.037681945 -0.001003501 0.59825003 11056813
0.039218415 -0.0010093718 0.60175002 11188399
0.040787041 -0.0010156621 0.60550004 11056813
0.04216342 -0.0010169202 0.60625005 11057074
0.043507218 -0.0010173395 0.60650003 10859695
0.044297688 -0.0010051784 0.59925002 11188399
0.045665324 -0.0010064364 0.60000002 11319219
0.04758431 -0.0010194363 0.60775006 11253939
0.048933573 -0.0010198556 0.60800004 11123120
0.05026326 -0.0010198556 0.60800004 11123637
0.051592954 -0.0010198556 0.60800004 11188660
0.052944396 -0.0010202749 0.60825002 11188146
0.054274634 -0.0010202749 0.60825002 11385012
0.055604868 -0.0010202749 0.60825002 11516600
0.056911707 -0.0010198556 0.60800004 11517364
0.058217447 -0.0010194363 0.60775006 11319983
0.059522092 -0.001019017 0.60750002 11254192
0.060850684 -0.001019017 0.60750002 11253939
0.062153693 -0.0010185976 0.60725003 11319732
0.064710081 -0.001038307 0.61900002 11253941
0.066037148 -0.0010378876 0.61875004 11253939
0.067390345 -0.0010378876 0.61875004 11385778
0.068715766 -0.0010374683 0.61850005 11188146
0.070096739 -0.0010378876 0.61875004 11188399
0.071507677 -0.0010387263 0.61925006 11254192
0.073038459 -0.0010412424 0.62075001 11121840
0.074515887 -0.0010429198 0.62175006 11450035
0.07590615 -0.0010433391 0.62200004 11385265
0.077235401 -0.0010429198 0.62175006 11385265
0.078563556 -0.0010425004 0.62150002 11121840
0.079890624 -0.001042081 0.62125003 11319221
0.081281982 -0.0010425004 0.62150002 11056047
0.082674444 -0.0010429198 0.62175006 11319219
0.084203139 -0.0010450166 0.62300003 11122093
0.085737325 -0.0010471133 0.62425005 11252909
0.087207191 -0.0010483713 0.625 11252909
0.088609494 -0.0010487906 0.62525004 11056298
0.089149445 -0.0010391456 0.61950004 10991020
0.090139061 -0.0010349522 0.61700004 11056300
0.091488436 -0.0010349522 0.61700004 10990507
0.093251579 -0.001039565 0.61975002 10663086
0.096057177 -0.0010555002 0.62925005 10859695
0.099794656 -0.0010810805 0.64450002 10990507
0.10120416 -0.0010810805 0.64450002 11122093
0.10265349 -0.0010814999 0.64475006 11187116
0.10410389 -0.0010819192 0.64500004 11121323
0.1056781 -0.0010835966 0.64600003 11252909
0.10742243 -0.0010869513 0.648 11121840
0.10904956 -0.0010890481 0.64925003 11056047
0.1106396 -0.0010907255 0.65025002 11055277
0.11223403 -0.0010924028 0.65125 11252143
0.11387646 -0.0010944996 0.65250003 11121070
0.11556854 -0.0010970158 0.65400004 10924461
0.11726718 -0.0010995319 0.65550005 11056047
0.11883656 -0.00110079 0.65625006 10924461
0.12031759 -0.0011012092 0.65650004 11055277
0.12175334 -0.0011012092 0.65650004 10989224
0.1231891 -0.0011012092 0.65650004 10988971
0.1245774 -0.00110079 0.65625006 11120557
0.12596461 -0.0011003705 0.65600002 11120557
0.12730217 -0.0010995319 0.65550005 11252143
0.12863754 -0.0010986931 0.65500003 11055017
0.12997071 -0.0010978545 0.65450001 11120810
0.13135192 -0.0010974351 0.65425003 11121323
0.13273202 -0.0010970158 0.65400004 11187116
0.13411102 -0.0010965964 0.65375 11120810
0.13559259 -0.0010970158 0.65400004 10989737
0.1370229 -0.0010970158 0.65400004 11055530
0.1409936 -0.0011171445 0.66600001 10988971
0.14261055 -0.0011184025 0.66675001 10988971
0.14417677 -0.0011192412 0.66725004 11055017
0.14569059 -0.0011196606 0.66750002 10989484
0.14720553 -0.00112008 0.66775006 10857638
0.14861022 -0.0011196606 0.66750002 10989224
0.14990142 -0.0011184025 0.66675001 10923944
0.15101908 -0.0011158864 0.66525 10792358
0.15213019 -0.0011133704 0.66375005 10792358
0.15352394 -0.001112951 0.66350001 10857638
0.15515018 -0.0011142091 0.66425002 10857636
0.15666184 -0.0011146284 0.66450006 10923944
0.15841252 -0.0011167252 0.66575003 10793128
0.16317034 -0.0011397894 0.67950004 10989737
0.16471696 -0.0011402087 0.67975003 10857636
0.16620357 -0.0011402087 0.67975003 10660770
0.16769019 -0.0011402087 0.67975003 10857638
0.169239 -0.001140628 0.68000001 10594979
0.17078893 -0.0011410473 0.68025005 10595749
0.17233995 -0.0011414667 0.68050003 10595749
0.17772368 -0.001167047 0.69575006 10726565
0.18162833 -0.0011825629 0.70500004 10594979
0.18330006 -0.0011834014 0.70550001 10726052
0.18490848 -0.0011838209 0.70575005 10660772
0.18645196 -0.0011838209 0.70575005 10660772
0.188062 -0.0011842402 0.70600003 10594726
0.18551044 -0.00115866 0.69075006 10660259
0.18695341 -0.0011582406 0.69050002 10594466
0.18430123 -0.0011326604 0.67525005 10726052
0.18570919 -0.001132241 0.67500001 10660006
0.18718541 -0.001132241 0.67500001 10331554
0.18866162 -0.001132241 0.67500001 10331807
0.19274344 -0.0011477569 0.68425006 10528673
0.19423988 -0.0011477569 0.68425006 10266014
0.19559331 -0.0011469183 0.68375003 10200221
0.19701661 -0.001146499 0.68350005 10331807
0.19851141 -0.001146499 0.68350005 10397085
0.20483446 -0.0011741759 0.70000005 10265501
0.20636535 -0.0011741759 0.70000005 10331041
0.20797047 -0.0011745952 0.70025003 10331554
0.20950191 -0.0011745952 0.70025003 10265761
0.21110868 -0.0011750145 0.70050001 10331294
0.21302015 -0.0011771113 0.70175004 10265501
0.21585426 -0.0011842402 0.70600003 10199708
0.22016963 -0.0011993368 0.71500003 10134428
0.22188839 -0.0012001755 0.71550006 10002842
0.22025207 -0.0011829822 0.70525002 10133915
0.22171581 -0.0011825629 0.70500004 10067099
0.22317848 -0.0011821436 0.70475006 10133662
0.22471975 -0.0011821436 0.70475006 9871003
0.22618075 -0.0011817241 0.70450002 10002842
0.22780232 -0.0011821436 0.70475006 10068120
0.22454357 -0.0011574019 0.69000006 9870741
0.22756161 -0.0011574019 0.69000006 9739417
0.2345484 -0.001185079 0.70650005 9805210
0.23626059 -0.0011859176 0.70700002 9805210
0.23780678 -0.0011859176 0.70700002 9804697
0.23935299 -0.0011859176 0.70700002 9935766
0.24235967 -0.0011854983 0.70675004 9803927
0.25106633 -0.0012203042 0.72750002 9541525
0.25300464 -0.0012219816 0.72850001 9870743
0.25485998 -0.0012232396 0.72925001 7961974
0.25654277 -0.001223659 0.72950006 5393221
0.25831509 -0.0012244977 0.73000002 7761767
0.26525223 -0.0012496586 0.74500006 8487800
0.26750848 -0.0012525941 0.74675006 8620676
0.27409732 -0.0012756581 0.76050001 9871775
0.27621379 -0.001277755 0.76175004 9344659
0.27851811 -0.0012806904 0.76350003 9148303
0.28349066 -0.0012957869 0.77250004 9279119
0.2906253 -0.0013205286 0.78725004 9213073
0.29856715 -0.0013486248 0.80400002 9213326
0.30938381 -0.0013893017 0.82825005 8358017
0.42373392 -0.0016769747 0.99975002 725776
0.94104993 -0.0027781841 1.6562501 10790553
0.94452959 -0.0027777648 1.6560001 8553586
0.95493394 -0.0027869903 1.6615001 5655364
0.95871174 -0.0027874096 1.6617501 1576710
0.96278036 -0.0027886676 1.6625 657926
0.96801478 -0.0027932804 1.6652501 4274988
0.97982556 -0.0028167642 1.6792501 5522214
0.98600233 -0.0027823774 1.6587501 4995874
0.98977911 -0.0027827967 1.659 920320
0.99355704 -0.0027832161 1.65925 922125
0.99748629 -0.002784055 1.6597501 4735791
1.001267 -0.0027844743 1.6600001 5457706
1.0050488 -0.0027848936 1.6602501 5851181
1.0088315 -0.0027853129 1.6605 5653550
1.0123106 -0.0027848936 1.6602501 5654063
1.0145648 -0.0027811194 1.6580001 5719343
1.0154272 -0.0027735711 1.6535001 5719343
1.0159619 -0.0027651843 1.6485001 5719597
1.0164748 -0.0027567972 1.6435001 5785649
1.0210162 -0.0027496682 1.63925 5653036
1.022698 -0.002734991 1.6305001 721666
1.0259494 -0.0027341524 1.6300001 4800557
1.0293561 -0.002733733 1.6297501 5983798
1.0329205 -0.002733733 1.6297501 5917489
1.0363256 -0.0027333137 1.6295 6442806
1.0397297 -0.0027328944 1.62925 6310968
1.0431329 -0.0027324751 1.6290001 5983030
1.0370574 -0.0027073142 1.6140001 6310968
1.0405872 -0.0027073142 1.6140001 5851190
1.0439552 -0.0027068949 1.6137501 5720374
1.0473223 -0.0027064756 1.6135001 5851442
1.050688 -0.002706056 1.61325 5916976
1.0540528 -0.0027056367 1.613 6311220
1.0497125 -0.002685508 1.6010001 6311732
1.0540363 -0.0026876049 1.6022501 6245939
1.0590254 -0.0026913788 1.6045001 6113841
1.0628655 -0.0026922175 1.605 6048048
1.0662096 -0.0026917981 1.60475 6113587
1.0698857 -0.0026922175 1.605 5916208
1.0665408 -0.0026750241 1.59475 5982515
1.0700285 -0.0026750241 1.59475 5916722
1.0679628 -0.0026611858 1.5865 5982515
1.0766664 -0.0026741857 1.5942501 5719856
1.0799836 -0.0026737663 1.5940001 5523751
1.0834696 -0.0026737663 1.5940001 5589292
1.0869557 -0.0026737663 1.5940001 5654063
1.0902708 -0.002673347 1.5937501 5719343
1.0937562 -0.002673347 1.5937501 5785136
-0.85656977 0.00097900268 1.9275001 2318
-0.85246491 0.00097912969 1.9277501 2316
-0.82631195 0.00096338434 1.8967501 134674
-0.82194704 0.00096313044 1.8962501 3086
-0.26600555 0.00049343769 0.97150004 1250315
-0.26388091 0.00049343769 0.97150004 922644
-0.076788619 0.00026538465 0.52250004 10002840
-0.075718299 0.00026563861 0.523 9807258
-0.075893462 0.00027033681 0.53225005 10070170
-0.074834742 0.00027071775 0.53300005 9938330
-0.073703632 0.00027084473 0.53325003 9938330
-0.072571427 0.00027097168 0.53350002 9807260
-0.071471587 0.00027122567 0.53400004 9675421
-0.070369564 0.0002714796 0.5345 9938593
-0.069362462 0.0002721145 0.53575003 9741984
-0.068349876 0.00027274937 0.537 9807777
-0.067269281 0.00027313031 0.53775001 9742237
-0.066154689 0.00027338427 0.53825003 9676191
-0.065037906 0.00027363826 0.53875005 9676191
-0.063918926 0.00027389219 0.53925002 9610911
-0.062885031 0.00027452709 0.54050004 9610911
-0.061931279 0.0002755429 0.54250002 9676704
-0.060884807 0.00027617783 0.54375005 9873053
-0.059777971 0.00027655874 0.54450005 9676444
-0.058640953 0.0002768127 0.54500002 9545118
-0.057501748 0.00027706666 0.54550004 9741984
-0.056386169 0.0002774476 0.54625005 9808030
-0.055242039 0.00027770153 0.54675001 9545369
-0.054095734 0.00027795549 0.54725003 9676444
-0.052923065 0.00027808247 0.54750001 9610398
-0.051749315 0.00027820948 0.54775006 9807777
-0.050574463 0.00027833643 0.54800004 9742497
-0.049375996 0.00027833643 0.54800004 9610911
-0.048177525 0.00027833643 0.54800004 9742237
-0.046979055 0.00027833643 0.54800004 9938846
-0.045780588 0.00027833643 0.54800004 9807007
-0.044602454 0.00027846341 0.54825002 9741986
-0.043423232 0.00027859039 0.5485 9807779
-0.042262159 0.00027884435 0.54900002 9676704
-0.041098904 0.00027909831 0.54950005 9610911
-0.039987907 0.00027973318 0.55075002 9676706
-0.038889054 0.00028049506 0.55225003 9938593
-0.037749521 0.00028100298 0.55325001 9938595
-0.036572594 0.00028125694 0.55375004 9742499
-0.035393476 0.00028151087 0.55425 9808292
-0.034196757 0.00028163788 0.55450004 9742499
-0.033028688 0.00028201882 0.55525005 9677476
-0.031871658 0.00028252671 0.55625004 9742497
-0.030696481 0.00028290765 0.55700004 9742497
-0.029531252 0.00028341557 0.55800003 10005158
-0.028361648 0.00028392347 0.55900002 9807777
-0.027187672 0.00028443139 0.56 9807779
-0.026020912 0.00028506629 0.56125003 9741986
-0.024870774 0.00028595515 0.56300002 9873570
-0.023723476 0.00028697096 0.565 9676704
-0.022557482 0.00028785982 0.56675005 9741984
-0.021365022 0.00028849469 0.56800002 9807777
-0.020158241 0.00028900261 0.56900001 9808292
-0.018930467 0.00028925657 0.56950003 9939878
-0.017692739 0.00028938355 0.56975001 9807779
-0.016439488 0.00028925657 0.56950003 10070951
-0.015160647 0.00028862167 0.56825 9873570
-0.013893399 0.00028811375 0.56725001 9873572
-0.012641679 0.00028785982 0.56675005 10004388
-0.011402204 0.00028785982 0.56675005 10135972
-0.010171694 0.00028811375 0.56725001 9873570
-0.0089389971 0.00028836774 0.56775004 9808543
-0.0077108932 0.00028887563 0.56875002 9939876
-0.0064812577 0.00028951053 0.57000005 9939876
-0.0052530416 0.00029052634 0.57200003 9873572
-0.0040125796 0.00029128822 0.57350004 10004388
-0.0027643542 0.00029192309 0.57475001 9873572
-0.001510006 0.00029243104 0.57575005 9939878
-0.00025117464 0.00029281195 0.5765 9808290
0.0010104993 0.00029306591 0.57700002 9808290
0.0022743605 0.0002933199 0.57750005 10005671
0.0035373454 0.0002933199 0.57750005 10070953
0.0048003308 0.0002933199 0.57750005 10070953
0.0060633165 0.0002933199 0.57750005 10136744
0.0073263017 0.0002933199 0.57750005 10071464
0.0085892873 0.0002933199 0.57750005 10136746
0.0098522725 0.0002933199 0.57750005 10202539
0.011115258 0.0002933199 0.57750005 10333353
0.012383602 0.00029344685 0.57775003 10267560
0.013794767 0.00029662132 0.58400005 10268332
0.015091323 0.00029700226 0.58475006 10203050
0.016370164 0.00029700226 0.58475006 10334123
0.017641459 0.00029687525 0.58450001 10268330
0.018903568 0.00029662132 0.58400005 10268843
0.020180769 0.00029662132 0.58400005 10268330
0.02145797 0.00029662132 0.58400005 10596011
0.022744903 0.0002967483 0.58425003 10662316
0.02403293 0.00029687525 0.58450001 10531500
0.025343701 0.00029725619 0.58525002 10531500
0.026657755 0.00029763713 0.58600003 10597295
0.027987007 0.00029814505 0.58700001 10793904
0.029507628 0.00030055764 0.59175003 10728109
0.03090588 0.00030157345 0.59375 10663086
0.032245085 0.00030195439 0.59450001 10532013
0.033573464 0.00030220835 0.59500003 10663599
0.034918681 0.00030258929 0.59575003 10729645
0.036251981 0.00030284325 0.59625006 10926511
0.037587464 0.00030309721 0.59675002 10925488
0.038957719 0.00030360511 0.59775001 11121840
0.040601797 0.00030614468 0.60275 11188146
0.042041712 0.00030703354 0.60450006 10925488
0.042879537 0.00030360511 0.59775001 11253428
0.044186804 0.00030360511 0.59775001 11450805
0.045570191 0.00030411305 0.59875005 11122093
0.047075387 0.00030538283 0.60125005 11253939
0.048832968 0.00030817633 0.60675001 11188662
0.050180592 0.00030830334 0.60700005 11188662
0.051508095 0.00030830334 0.60700005 11385525
0.052857354 0.00030843029 0.60725003 11253939
0.054207712 0.00030855727 0.60750002 11319219
0.055513453 0.00030843029 0.60725003 11385014
0.056818102 0.00030830334 0.60700005 11517627
0.058121651 0.00030817633 0.60675001 11254706
0.059424113 0.00030804935 0.60650003 11319985
0.060750518 0.00030804935 0.60650003 11319219
0.06207693 0.00030804935 0.60650003 11319732
0.064631678 0.00031401732 0.61825001 11319732
0.06598378 0.00031401732 0.61825001 11319732
0.067335889 0.00031401732 0.61825001 11319985
0.068715766 0.00031414433 0.61850005 11254192
0.070096739 0.00031427131 0.61875004 11581874
0.071565412 0.0003147792 0.61975002 11516081
0.073067881 0.0003154141 0.62100005 11581361
0.074515887 0.00031579504 0.62175006 11515315
0.07590615 0.00031592202 0.62200004 11384242
0.077266455 0.00031592202 0.62200004 11253426
0.078563556 0.00031566806 0.62150002 11450035
0.079890624 0.00031554108 0.62125003 11253426
0.081249289 0.00031554108 0.62125003 11253426
0.082607955 0.00031554108 0.62125003 11253679
0.084067985 0.00031592202 0.62200004 11253679
0.08549697 0.00031617595 0.6225 11253679
0.086928137 0.00031642991 0.62300003 11187116
0.088184334 0.000316049 0.62225002 11056300
0.088789687 0.00031338245 0.61700004 10924974
0.090066016 0.00031312849 0.61650002 11188146
0.091340154 0.00031287456 0.61600006 11056047
0.092687339 0.00031287456 0.61600006 10991020
0.095332071 0.00031719179 0.62450004 10859948
0.098130122 0.00032188999 0.63375002 10991020
0.10116491 0.0003272231 0.64425004 10991020
0.10261368 0.00032735005 0.64450002 10925225
0.10414424 0.00032773099 0.64525002 10990767
0.1056781 0.00032811193 0.64600003 10990767
0.10729811 0.00032874683 0.64725006 10990767
0.10892358 0.0003293817 0.64850003 10924974
0.11055453 0.00033001663 0.64975005 10990254
0.11210479 0.00033039757 0.65050006 11121070
0.11365831 0.00033077845 0.65125 11187116
0.11530347 0.00033141338 0.65250003 11121070
0.11704355 0.00033230221 0.65425003 11055277
0.11870074 0.00033293711 0.65550005 11186350
0.12022595 0.00033319107 0.65600002 11252143
0.12170698 0.00033331805 0.65625006 11055530
0.12314219 0.00033331805 0.65625006 10661289
0.12452994 0.00033319107 0.65600002 10858670
0.1258686 0.00033293711 0.65550005 10989484
0.12725361 0.00033281013 0.65525001 11055277
0.12858844 0.00033255617 0.65475005 10924461
0.12992108 0.00033230221 0.65425003 11055530
0.13125153 0.00033204825 0.65375 10989737
0.13263054 0.00033192127 0.65350002 10858921
0.13405973 0.00033192127 0.65350002 11120810
0.13554075 0.00033204825 0.65375 11121323
0.13697051 0.00033204825 0.65375 10924461
0.14088775 0.00033801625 0.66550004 10792877
0.1425036 0.00033839719 0.66625005 10923691
0.14412275 0.00033877813 0.66700006 10661289
0.14563604 0.00033890508 0.66725004 10726314
0.14715041 0.00033903206 0.66750002 10791592
0.14861022 0.00033903206 0.66750002 10660772
0.14995763 0.00033877813 0.66700006 10726565
0.15022454 0.00033611155 0.66175002 10792105
0.15172909 0.00033623856 0.66200006 10793128
0.15329255 0.00033649249 0.66250002 10923944
0.15491661 0.00033687343 0.66325003 11120040
0.15648502 0.00033712739 0.66375005 10857636
0.15841252 0.0003381432 0.66575003 10726565
0.16112919 0.00034080975 0.671 11055017
0.16392943 0.00034360329 0.67650002 10989224
0.16553117 0.00034385725 0.67700005 10989224
0.166025 0.00034182559 0.67300004 10922659
0.16693686 0.00034068277 0.67075002 10922661
0.17053787 0.00034500007 0.67925006 10857385
0.17233995 0.00034563494 0.68050003 10660006
0.17772368 0.00035338063 0.69575006 10856615
0.18001814 0.00035490433 0.69875002 10791845
0.18317015 0.0003580788 0.70500004 10660772
0.18477748 0.00035820578 0.70525002 10529186
0.18631984 0.00035820578 0.70525002 10464163
0.18399976 0.00035084106 0.69075006 10660259
0.18557759 0.00035096804 0.69100004 10660772
0.18722415 0.00035122197 0.69150001 10529186
0.18873645 0.00035122197 0.69150001 10660772
0.18577799 0.00034296841 0.67525005 10660006
0.18718541 0.00034284141 0.67500001 10594726
0.19131687 0.00034766659 0.68450004 10594979
0.19281386 0.00034766659 0.68450004 10528673
0.19416891 0.00034741263 0.68400002 10397085
0.19559331 0.00034728565 0.68375003 10331294
0.19687247 0.00034690471 0.68300003 10199708
0.19822097 0.00034665075 0.6825 10200221
0.19993305 0.00034703169 0.68325001 10397087
0.20629163 0.00035541225 0.69975001 10397087
0.20797047 0.00035566621 0.70025003 10331041
0.20950191 0.00035566621 0.70025003 10265248
0.21110868 0.00035579319 0.70050001 10199455
0.21544859 0.00036049139 0.70975006 10265501
0.21868238 0.0003632849 0.71525002 10068122
0.22024661 0.0003632849 0.71525002 10266012
0.22188839 0.00036341191 0.71550006 10199706
0.22345318 0.00036341191 0.71550006 10330522
0.2216372 0.00035795185 0.70475006 10198936
0.22302012 0.00035769786 0.70425004 10068122
0.22456031 0.00035769786 0.70425004 9936283
0.22610049 0.00035769786 0.70425004 9870490
0.22343859 0.00035109499 0.69125003 10001306
0.22413678 0.00034982522 0.68875003 9870490
0.22572497 0.0003499522 0.68900001 9805210
0.23429942 0.00035845974 0.70575005 9608601
0.23592642 0.00035858672 0.70600003 9607831
0.23747043 0.00035858672 0.70600003 9608084
0.23901443 0.00035858672 0.70600003 9608084
0.2404733 0.00035845974 0.70575005 9673364
0.24908194 0.00036658635 0.72175002 9607831
0.25291783 0.0003698878 0.72825003 9607318
0.25468525 0.00037014176 0.72875005 10001559
0.25645483 0.00037039569 0.72925001 6776932
0.25822663 0.00037064965 0.72975004 5656393
0.25982258 0.00037064965 0.72975004 9606022
0.26759803 0.00037941115 0.74700004 8223599
0.27031296 0.00038093491 0.75000006 10527128
0.27213448 0.00038118885 0.75050002 9805202
0.27395821 0.00038144283 0.75100005 9541260
0.28018788 0.00038779172 0.76350003 9278604
0.28545699 0.00039274388 0.77325004 9278606
0.29763877 0.00040709242 0.80150002 9344146
0.37889719 0.00047616864 0.93750006 3817534
0.37447762 0.00044645573 0.87900007 3950405
3.0911834 0.0028175216 5.5472503 7698034
0.94658971 0.00084618345 1.6660001 10921882
0.94766659 0.00084389781 1.6615001 9935239
0.95144331 0.00084402476 1.6617501 5656139
0.95565236 0.00084453268 1.6627501 4339515
0.95928872 0.00084453268 1.6627501 1444625
0.96582073 0.00084707228 1.6677501 723468
0.9760077 0.0008527863 1.6790001 4537901
0.97997141 0.00085304026 1.6795001 5456934
0.98585373 0.00084237405 1.6585001 4667168
0.98948079 0.00084237405 1.6585001 525312
0.99325764 0.000842501 1.6587501 1315860
0.9970355 0.00084262801 1.659 4735276
1.0011162 0.00084300898 1.6597501 5654315
1.0048974 0.00084313593 1.6600001 5653550
1.0086796 0.00084326288 1.6602501 5653550
1.0124631 0.00084338983 1.6605 5915692
1.0157886 0.00084313593 1.6600001 6047278
1.0188048 0.00084262801 1.659 5784106
1.0210464 0.00084148522 1.6567501 5915438
1.0215772 0.00083894562 1.6517501 5653552
1.0217761 0.00083615212 1.6462501 5982001
1.0252264 0.00083310466 1.6402501 5654063
1.0237957 0.00082904135 1.6322501 919552
1.0265787 0.00082840642 1.631 4866854
1.0299877 0.00082827947 1.6307501 5984052
1.0332373 0.00082802551 1.6302501 5916974
1.0364846 0.00082777155 1.6297501 6310448
1.0397297 0.00082751759 1.62925 6244403
1.0431329 0.00082739058 1.6290001 5916724
1.0375392 0.00082015281 1.61475 6178610
1.0409095 0.00082002586 1.6145 5916210
1.0444404 0.00082002586 1.6145 5589555
1.047809 0.00081989891 1.6142501 5589807
1.0513394 0.00081989891 1.6142501 5916974
1.0547063 0.0008197719 1.6140001 5851433
1.0579083 0.000819518 1.6135001 5851179
1.0589701 0.00081761327 1.60975 5851181
1.0681009 0.00082193059 1.6182501 6113841
1.0719711 0.00082218449 1.6187501 6113841
1.0753453 0.00082205754 1.6185001 5785651
1.0695524 0.00081494672 1.6045001 5851442
1.0675441 0.00081075646 1.5962501 6245941
1.0706996 0.0008105025 1.5957501 6311734
1.0738529 0.00081024854 1.5952501 6113841
1.0771729 0.00081012154 1.595 5458219
1.0804917 0.00080999458 1.59475 5918768
1.0839794 0.00080999458 1.59475 5785640
1.0872966 0.00080986758 1.5945001 5785901
1.0909548 0.00080999458 1.59475 5720108
1.0944424 0.00080999458 1.59475 5784884
-0.85679197 0.0051925294 1.9280001 1293
-0.85268599 0.0051932028 1.9282501 2063
-0.84857893 0.0051938761 1.9285001 2061
-0.8220554 0.0051076929 1.8965001 3090
-0.81769216 0.0051063467 1.8960001 2319
-0.81923103 0.0051420317 1.9092501 2574
-0.077856734 0.0014058611 0.52200001 10003610
-0.076751873 0.0014065345 0.52225 9938332
-0.075682111 0.001407881 0.52275002 9675421
-0.074752741 0.0014119209 0.52425003 9675674
-0.074659236 0.0014321201 0.53175002 9741465
-0.073599972 0.00143414 0.53250003 9873053
-0.072503418 0.0014354867 0.53300005 9741465
-0.071371205 0.0014361599 0.53325003 9807260
-0.070303738 0.0014381799 0.53400004 9807007
-0.069232993 0.0014401998 0.53475004 9610400
-0.068190783 0.0014428929 0.53575003 9676191
-0.067112915 0.0014449129 0.53650004 9676957
-0.06600105 0.0014462594 0.537 9808290
-0.064887002 0.0014476061 0.53750002 9938593
-0.063770764 0.0014489527 0.53800005 9741984
-0.062681429 0.0014509726 0.53875005 9742497
-0.061760038 0.0014570323 0.54100001 9611164
-0.060772829 0.0014617455 0.54275 9676444
-0.05966818 0.0014637654 0.54350001 9938846
-0.058533356 0.0014651121 0.54400003 9676444
-0.057396341 0.0014664587 0.54450005 9610651
-0.056257136 0.0014678052 0.54500002 9610398
-0.055115744 0.0014691519 0.54550004 9676444
-0.053972166 0.0014704984 0.546 9544856
-0.052826405 0.0014718451 0.54650003 9742235
-0.051654834 0.0014725183 0.54675001 9742237
-0.050482173 0.0014731918 0.54700005 9676704
-0.049308416 0.001473865 0.54725003 9611164
-0.048133567 0.0014745382 0.54750001 9808030
-0.046957627 0.0014752117 0.54775006 9676957
-0.045759704 0.0014752117 0.54775006 9742750
-0.044582117 0.0014758849 0.54800004 9611934
-0.043403439 0.0014765582 0.54825002 9742497
-0.042242914 0.0014779049 0.54875004 9676704
-0.041080199 0.0014792514 0.54925001 9676704
-0.039933451 0.0014812713 0.55000001 9676704
-0.038801029 0.0014839645 0.551 9676706
-0.037647169 0.0014859844 0.55175 9742499
-0.036490038 0.0014880043 0.55250001 9677476
-0.035313655 0.001489351 0.55300003 9611683
-0.034135085 0.0014906975 0.5535 9742499
-0.032969199 0.0014927174 0.55425 9808292
-0.031828687 0.001496084 0.55550003 9611683
-0.030682702 0.0014994505 0.55675 9742499
-0.029518023 0.0015021439 0.55775005 9807777
-0.028336283 0.0015041638 0.55850005 9873053
-0.027151259 0.0015061835 0.55925 9873570
-0.025962958 0.0015082035 0.56 9873570
-0.02480451 0.0015122433 0.56150001 9807779
-0.023712978 0.0015209963 0.56475002 9741986
-0.02253758 0.0015250362 0.56625003 9938593
-0.021336813 0.0015277293 0.56725001 9873570
-0.020122815 0.0015297493 0.56800002 9808290
-0.018897226 0.0015310959 0.56850004 9873572
-0.017653923 0.0015310959 0.56850004 9741986
-0.016396187 0.0015297493 0.56800002 9873572
-0.015133969 0.0015277293 0.56725001 9742499
-0.013881154 0.0015263829 0.56675005 9611683
-0.012636102 0.0015257094 0.56650001 9808292
-0.011397174 0.0015257094 0.56650001 10005156
-0.010167211 0.0015270561 0.56700003 10004386
-0.0089389971 0.001529076 0.56775004 10004386
-0.0077108932 0.0015317692 0.56875002 10004386
-0.0064784144 0.0015344624 0.56975001 10005156
-0.005246154 0.0015385023 0.57125002 9808292
-0.004005583 0.0015418689 0.57250005 10005158
-0.0027595446 0.0015452353 0.57375002 10135972
-0.0015067277 0.0015472552 0.57450002 9873572
-0.00025063005 0.0015492751 0.57525003 10070951
0.0010087481 0.001551295 0.57600003 10005669
0.0022694375 0.0015519684 0.57625002 9809313
0.0035296888 0.0015519684 0.57625002 9939878
0.0047899405 0.0015519684 0.57625002 10070953
0.0060528168 0.0015526416 0.5765 10070953
0.0073136147 0.0015526416 0.5765 10136746
0.0085744131 0.0015526416 0.5765 10202537
0.009839477 0.0015533151 0.57675004 10136744
0.011100822 0.0015533151 0.57675004 10268328
0.012362167 0.0015533151 0.57675004 10137257
0.013635322 0.0015546615 0.57725 10268843
0.015065514 0.0015721675 0.58375001 10203048
0.016342167 0.0015721675 0.58375001 10268841
0.017618822 0.0015721675 0.58375001 10399146
0.018887384 0.0015714943 0.58350003 10399146
0.020163491 0.0015714943 0.58350003 10464939
0.021448784 0.0015721675 0.58375001 10596523
0.022735171 0.001572841 0.58400005 10465707
0.02403293 0.0015741874 0.58450001 10531500
0.025332877 0.0015755341 0.58500004 10662318
0.026646383 0.001577554 0.58575004 10728111
0.027963169 0.001579574 0.58650005 10728111
0.029333102 0.001584287 0.58825004 10793902
0.03085383 0.0015964065 0.59275001 10793902
0.032190844 0.0015984264 0.59350002 10859695
0.033531144 0.0016004463 0.59425002 10925741
0.034860067 0.001601793 0.59475005 10925741
0.036175977 0.0016024663 0.59500003 10925488
0.037492983 0.0016031396 0.59525001 11122867
0.038827371 0.0016044863 0.59575003 11057074
0.040180791 0.0016065062 0.59650004 11057074
0.041415781 0.0016038129 0.59550005 11188660
0.042467061 0.0015943865 0.59200001 11253939
0.043761756 0.0015943865 0.59200001 11253939
0.045532137 0.0016112193 0.59825003 11385525
0.046957944 0.0016152591 0.59975004 11254453
0.048651885 0.001628052 0.60450006 11319734
0.050056588 0.0016307451 0.60550004 11450807
0.051423237 0.0016320916 0.60600001 11385525
0.052770313 0.0016327651 0.60625005 11385525
0.054118481 0.0016334383 0.60650003 11319732
0.055422034 0.0016327651 0.60625005 11319732
0.056747898 0.0016327651 0.60625005 11319732
0.058049805 0.0016320916 0.60600001 11451058
0.059326135 0.0016307451 0.60550004 11385265
0.060650356 0.0016307451 0.60550004 11385012
0.061948985 0.0016300717 0.60525 11188148
0.064579412 0.0016637371 0.61775005 11319732
0.065957107 0.0016644103 0.61800003 11450805
0.067308657 0.0016644103 0.61800003 11450805
0.06868799 0.0016650836 0.61825001 11385012
0.070096739 0.0016664303 0.61875004 11385265
0.071536548 0.0016684502 0.61950004 11516081
0.073009044 0.0016711435 0.62050003 11516081
0.07448592 0.0016738366 0.62150002 11451058
0.075875647 0.00167451 0.62175006 11319472
0.077235401 0.00167451 0.62175006 11451056
0.078531951 0.0016731634 0.62125003 11254192
0.079858482 0.00167249 0.62100005 11123120
0.081216596 0.00167249 0.62100005 11253679
0.08257471 0.00167249 0.62100005 11252909
0.08396662 0.0016731634 0.62125003 11253426
0.085359626 0.0016738366 0.62150002 11122093
0.086683951 0.0016731634 0.62125003 10990767
0.087688319 0.0016664303 0.61875004 11056560
0.0887537 0.0016610437 0.61675 11121840
0.08999297 0.001659024 0.61600006 11253679
0.09130308 0.0016583506 0.61575001 10859695
0.092574485 0.001657004 0.61525005 11056560
0.095103085 0.0016778765 0.62300003 10990767
0.097355925 0.0016933625 0.62875003 10925741
0.099319845 0.0017034621 0.63250005 10990767
0.10157879 0.0017182747 0.63800001 10990767
0.10414424 0.0017378005 0.64525002 10793902
0.1056781 0.0017398205 0.64600003 11056047
0.10721522 0.0017418405 0.64675003 11121840
0.10879761 0.0017445337 0.64775002 10924974
0.11021423 0.0017445337 0.64775002 11055277
0.11059684 0.0017283744 0.64175004 11317936
0.11186945 0.0017263545 0.64100003 11121070
0.11437575 0.0017431871 0.64725006 11186863
0.11664103 0.0017559798 0.65200001 11186863
0.1182933 0.0017593465 0.65325004 11121072
0.11999687 0.0017633863 0.65475005 11056049
0.12161425 0.0017660795 0.65575004 10924463
0.12304837 0.0017660795 0.65575004 10989484
0.12448248 0.0017660795 0.65575004 11055277
0.1258686 0.0017654062 0.65550005 11055530
0.12720506 0.0017640595 0.65500003 10858921
0.12853934 0.0017627128 0.65450001 10924461
0.12987143 0.0017613664 0.65400004 10924461
0.13125153 0.0017606929 0.65375 10924461
0.13263054 0.0017600197 0.65350002 10924461
0.13405973 0.0017600197 0.65350002 11055530
0.13554075 0.0017606929 0.65375 11186603
0.1370229 0.0017613664 0.65400004 11121070
0.13855903 0.0017627128 0.65450001 10989484
0.14239666 0.0017930117 0.66575003 10923691
0.14396068 0.0017943582 0.66625005 10989484
0.1455269 0.0017957048 0.66675001 10989737
0.14704019 0.0017963782 0.66700006 10792358
0.14849891 0.0017963782 0.66700006 10793128
0.14815903 0.0017748324 0.65900004 10661542
0.14965701 0.0017755057 0.65925002 10792358
0.15132798 0.0017781989 0.66025001 10726565
0.15300333 0.0017808923 0.66125005 10660772
0.15468304 0.0017835854 0.66225004 10923944
0.15636714 0.0017862786 0.66325003 10792358
0.15835303 0.0017923383 0.66550004 10923944
0.16058891 0.0018010914 0.66875005 11120040
0.16223319 0.0018031113 0.66950005 11120038
0.16388077 0.0018051312 0.67025006 10989476
0.16497655 0.0018010914 0.66875005 10989222
0.16606578 0.0017970515 0.66725004 10988452
0.16733675 0.0017950316 0.66650003 10726050
0.17202339 0.0018293702 0.67925006 10791845
0.17414749 0.0018361033 0.68175006 10856615
0.17892323 0.0018704417 0.69450003 10660006
0.18011732 0.0018670753 0.69325006 10726052
0.18084744 0.0018589955 0.69025004 10726052
0.18242306 0.0018596688 0.69050002 10660259
0.18399976 0.0018603422 0.69075006 10660259
0.18564472 0.0018616888 0.69125003 10660259
0.18729185 0.0018630354 0.69175005 10726052
0.1890094 0.0018650553 0.69250005 10660006
0.19045509 0.0018643819 0.69225001 10725029
0.19002786 0.0018455294 0.68525004 10331807
0.19145663 0.0018448562 0.68500006 10529956
0.19281386 0.0018435095 0.68450004 10463391
0.19423988 0.0018428363 0.68425006 10660257
0.19559331 0.0018414896 0.68375003 10527903
0.19687247 0.0018394697 0.68300003 10266014
0.1977127 0.0018334099 0.68075001 10003359
0.19876258 0.0018293702 0.67925006 10069405
0.20157471 0.0018414896 0.68375003 10331807
0.20782197 0.0018845811 0.69975001 10265501
0.20942712 0.0018852545 0.70000005 10199708
0.21125938 0.0018879477 0.70100003 10331041
0.21704225 0.0019256527 0.71500003 10330271
0.21868238 0.001926326 0.71525002 10264731
0.22032361 0.0019269994 0.71550006 10330524
0.22196592 0.0019276727 0.71575004 10330524
0.22501796 0.0019269994 0.71550006 10133915
0.22286178 0.001895354 0.70375001 10198938
0.22553866 0.0018919875 0.70250005 9935513
0.22238807 0.0018529358 0.68800002 9935513
0.22373001 0.0018515893 0.68750006 10067099
0.22531547 0.0018522625 0.68775004 10067352
0.22681956 0.0018522625 0.68775004 9739157
0.23405042 0.0018987206 0.70500004 9739417
0.23559225 0.0018987206 0.70500004 9870743
0.23713407 0.0018987206 0.70500004 9673364
0.23867589 0.0018987206 0.70500004 9608084
0.24021775 0.0018987206 0.70500004 9804950
0.25459784 0.0019620112 0.72850001 9673364
0.25636691 0.0019633579 0.72900003 9673364
0.2580497 0.001964031 0.72925001 7237481
0.25973356 0.0019647046 0.72950006 5919563
0.26715022 0.0020084693 0.74575001 7367779
0.27031296 0.0020199155 0.75000006 6841437
0.27213448 0.002021262 0.75050002 9474443
0.27395821 0.0020226086 0.75100005 9672592
0.27569237 0.002023282 0.75125003 9541008
0.29736024 0.0021565964 0.80075002 9541778
0.3008858 0.0021693893 0.80550003 6975851
0.30753186 0.0022044012 0.81850004 3028283
0.37629762 0.0023309824 0.86550003 3623239
0.3773171 0.0021835286 0.81075007 3882561
0.38556099 0.0022104608 0.82075006 3552824
0.39042366 0.0022279669 0.82725006 1120284
0.95037585 0.0044875788 1.6662501 10461333
0.95723283 0.0044855587 1.6655 3483694
0.9628945 0.0044949851 1.669 920597
0.9717567 0.0045192242 1.6780001 1250071
0.9760077 0.0045219176 1.6790001 4933942
0.97997141 0.0045232642 1.6795001 5655083
0.98555654 0.0044653597 1.6580001 4534807
0.98933166 0.0044660331 1.6582501 1246464
0.99295831 0.0044660331 1.6582501 1776411
0.99658477 0.0044660331 1.6582501 4932145
1.0006638 0.0044680531 1.659 6047015
1.0047461 0.0044700732 1.6597501 5981481
1.0086796 0.0044714194 1.6602501 5784874
1.0124631 0.0044720927 1.6605 6048046
1.0157886 0.0044707465 1.6600001 6048046
1.0189583 0.004468726 1.65925 6047278
1.0219709 0.0044660331 1.6582501 6113071
1.0248243 0.0044626663 1.6570001 5850931
1.0275172 0.0044586267 1.6555001 5589042
1.0300477 0.0044539138 1.6537501 5325352
1.0291271 0.0044189016 1.6407501 787712
1.0272081 0.0043953359 1.6320001 4669223
1.0303035 0.0043933159 1.63125 5983280
1.0335542 0.0043919696 1.6307501 5390632
1.0366436 0.0043899496 1.6300001 6047794
1.0397297 0.0043879296 1.62925 5850669
1.0426526 0.0043852367 1.6282501 5785388
1.0381818 0.0043515712 1.6157501 5851696
1.0415543 0.0043508979 1.6155001 5982253
1.0449256 0.0043502245 1.6152501 5720878
1.048296 0.0043495516 1.6150001 5524782
1.0518279 0.0043495516 1.6150001 5916974
1.05634 0.0043535908 1.6165 6047278
1.0610228 0.0043583047 1.6182501 6113841
1.0652196 0.0043609976 1.6192501 5983282
1.068926 0.0043616709 1.6195 5850929
1.0724677 0.0043616709 1.6195 5719597
1.0758435 0.0043609976 1.6192501 5785903
1.0792181 0.0043603242 1.6190001 5917489
1.0722256 0.0043179058 1.60325 5719597
1.071035 0.0042990535 1.5962501 5653804
1.074526 0.0042990535 1.5962501 5982253
1.0781858 0.0042997268 1.5965 5719593
1.0816773 0.0042997268 1.5965 5785640
1.0844892 0.0042970334 1.5955001 5523751
1.087808 0.0042963605 1.5952501 5392428
1.0912969 0.0042963605 1.5952501 5721141
1.0953003 0.0042983801 1.5960001 5917237
-0.85690302 0.0094070211 1.9282501 1550
-0.85279655 0.0094082402 1.9285001 1548
-0.8486889 0.0094094602 1.92875 1292
-0.84068823 0.0094143385 1.9297501 1804
-0.82714856 0.0093094502 1.9082501 2061
-0.82502365 0.0093801897 1.9227501 2320
-0.76485229 0.0091630947 1.8782501 4384
-0.76074457 0.0091630947 1.8782501 4639
-0.26813024 0.0047394899 0.97150004 1447949
-0.078998342 0.0025465915 0.52200001 10134680
-0.077856734 0.0025465915 0.52200001 9872537
-0.076715134 0.0025465915 0.52200001 9938846
-0.075645916 0.0025490308 0.52250004 9807007
-0.0745745 0.00255147 0.523 10003874
-0.074202925 0.0025783018 0.52850002 9741214
-0.073392645 0.0025904982 0.53100002 9807260
-0.072299376 0.0025929376 0.53150004 9676444
-0.071237363 0.0025965965 0.53225005 9873053
-0.070172086 0.0026002554 0.53300005 9873053
-0.069103517 0.0026039141 0.53375 9742237
-0.068031676 0.0026075731 0.5345 9742237
-0.06695655 0.002611232 0.53525001 9610398
-0.065847419 0.0026136714 0.53575003 9610911
-0.064736106 0.0026161107 0.53625005 9741984
-0.063592963 0.0026173303 0.53650004 9872802
-0.062506907 0.002620989 0.53725004 9872802
-0.06147464 0.0026270871 0.53850001 9807777
-0.060604878 0.0026405032 0.54125005 9741984
-0.059558395 0.0026466013 0.54250002 9873053
-0.058425758 0.0026490407 0.54300004 9676444
-0.057290923 0.0026514798 0.54350001 9610651
-0.056128107 0.0026526996 0.54375005 9807007
-0.054989446 0.0026551387 0.54425001 9676444
-0.053823896 0.0026563585 0.54450005 9808030
-0.052681409 0.0026587977 0.54500002 9808030
-0.051536743 0.002661237 0.54550004 9545371
-0.050389878 0.0026636759 0.546 9742750
-0.049240839 0.0026661153 0.54650003 9742237
-0.048089612 0.0026685549 0.54700005 9938846
-0.04691476 0.0026697742 0.54725003 9676444
-0.045738816 0.0026709938 0.54750001 9611681
-0.044561781 0.0026722136 0.54775006 9611934
-0.04338365 0.0026734332 0.54800004 9611934
-0.042204421 0.0026746527 0.54825002 9742750
-0.041042808 0.0026770921 0.54875004 9742237
