# .PCD v0.7 - Point Cloud Data file format
VERSION 0.7
FIELDS x y z
SIZE 4 4 4
TYPE F F F
COUNT 1 1 1
WIDTH 1340
HEIGHT 1
VIEWPOINT 0 0 0 1 0 0 0
POINTS 1340
DATA ascii
0.1317053 -0.081781112 0.44675002
0.13268234 -0.081781112 0.44675002
0.13358459 -0.08173535 0.44650003
0.13456108 -0.08173535 0.44650003
0.13546169 -0.081689589 0.44625002
0.13643762 -0.081689589 0.44625002
0.13733658 -0.08164382 0.44600001
0.13831198 -0.08164382 0.44600001
0.1392093 -0.081598058 0.44575003
0.14018415 -0.081598058 0.44575003
0.141159 -0.081598058 0.44575003
0.14213385 -0.081598058 0.44575003
0.1431087 -0.081598058 0.44575003
0.14408356 -0.081598058 0.44575003
0.14497705 -0.081552289 0.44550002
0.14595135 -0.081552289 0.44550002
0.14676075 -0.081460766 0.44500002
0.14765096 -0.081414998 0.44475001
0.14862362 -0.081414998 0.44475001
0.14951219 -0.081369236 0.44450003
0.15048431 -0.081369236 0.44450003
0.15145643 -0.081369236 0.44450003
0.15251428 -0.081414998 0.44475001
0.15340066 -0.081369236 0.44450003
0.15437278 -0.081369236 0.44450003
0.15525752 -0.081323467 0.44425002
0.15614118 -0.081277706 0.44400004
0.15702373 -0.081231944 0.44375002
0.15790519 -0.081186175 0.44350001
0.15878558 -0.081140414 0.44325003
0.15975496 -0.081140414 0.44325003
0.16072434 -0.081140414 0.44325003
0.16169372 -0.081140414 0.44325003
0.1626631 -0.081140414 0.44325003
0.16372477 -0.081186175 0.44350001
0.16478753 -0.081231944 0.44375002
0.16575801 -0.081231944 0.44375002
0.16672848 -0.081231944 0.44375002
0.16769896 -0.081231944 0.44375002
0.16857441 -0.081186175 0.44350001
0.16954434 -0.081186175 0.44350001
0.17041816 -0.081140414 0.44325003
0.17138754 -0.081140414 0.44325003
0.17235692 -0.081140414 0.44325003
0.17322853 -0.081094645 0.44300002
0.17419738 -0.081094645 0.44300002
0.17496851 -0.081003122 0.44250003
0.17583685 -0.080957353 0.44225001
0.17660415 -0.080865823 0.44175002
0.17746976 -0.080820061 0.44150001
0.17843531 -0.080820061 0.44150001
0.17940086 -0.080820061 0.44150001
0.18036641 -0.080820061 0.44150001
0.18133198 -0.080820061 0.44150001
0.18219432 -0.0807743 0.44125003
0.18315932 -0.0807743 0.44125003
0.18402001 -0.080728531 0.44100001
0.18487962 -0.080682769 0.44075003
0.18584353 -0.080682769 0.44075003
0.18680744 -0.080682769 0.44075003
0.18787785 -0.080728531 0.44100001
0.18884231 -0.080728531 0.44100001
0.18991439 -0.0807743 0.44125003
0.19087939 -0.0807743 0.44125003
0.1918444 -0.0807743 0.44125003
0.1928094 -0.0807743 0.44125003
0.19366463 -0.080728531 0.44100001
0.19451876 -0.080682769 0.44075003
-0.089404792 -0.083834447 0.46350002
-0.088391125 -0.083834447 0.46350002
-0.087377451 -0.083834447 0.46350002
-0.086363785 -0.083834447 0.46350002
-0.085350119 -0.083834447 0.46350002
-0.084336445 -0.083834447 0.46350002
-0.083322771 -0.083834447 0.46350002
-0.082309105 -0.083834447 0.46350002
-0.081295438 -0.083834447 0.46350002
-0.080281772 -0.083834447 0.46350002
-0.079268098 -0.083834447 0.46350002
-0.078254431 -0.083834447 0.46350002
-0.077240765 -0.083834447 0.46350002
-0.076227099 -0.083834447 0.46350002
-0.075213425 -0.083834447 0.46350002
-0.074159734 -0.083789229 0.46325001
-0.073146611 -0.083789229 0.46325001
-0.072094567 -0.083744012 0.46300003
-0.071043611 -0.083698794 0.46275002
-0.069955908 -0.083608359 0.46225002
-0.068944976 -0.083608359 0.46225002
-0.067897297 -0.083563142 0.46200001
-0.066886917 -0.083563142 0.46200001
-0.065876521 -0.083563142 0.46200001
-0.064831033 -0.083517924 0.46175003
-0.063821197 -0.083517924 0.46175003
-0.062777348 -0.083472706 0.46150002
-0.061734587 -0.083427481 0.46125001
-0.060692929 -0.083382271 0.46100003
-0.059652358 -0.083337046 0.46075001
-0.058644708 -0.083337046 0.46075001
-0.057605777 -0.083291836 0.46050003
-0.056598671 -0.083291836 0.46050003
-0.055591565 -0.083291836 0.46050003
-0.054584455 -0.083291836 0.46050003
-0.053548262 -0.083246611 0.46025002
-0.052541696 -0.083246611 0.46025002
-0.051507145 -0.083201393 0.46000001
-0.050501127 -0.083201393 0.46000001
-0.049495116 -0.083201393 0.46000001
-0.048489098 -0.083201393 0.46000001
-0.047483087 -0.083201393 0.46000001
-0.046451814 -0.083156176 0.45975003
-0.045446347 -0.083156176 0.45975003
-0.044440877 -0.083156176 0.45975003
-0.043411791 -0.083110958 0.45950001
-0.042406868 -0.083110958 0.45950001
-0.041401949 -0.083110958 0.45950001
-0.040397029 -0.083110958 0.45950001
-0.03939211 -0.083110958 0.45950001
-0.038387191 -0.083110958 0.45950001
-0.037382267 -0.083110958 0.45950001
-0.036357556 -0.083065741 0.45925003
-0.03535318 -0.083065741 0.45925003
-0.034330111 -0.083020523 0.45900002
-0.033326279 -0.083020523 0.45900002
-0.032304849 -0.082975306 0.45875001
-0.031284511 -0.082930088 0.45850003
-0.030265266 -0.08288487 0.45825002
-0.029263077 -0.08288487 0.45825002
-0.028245473 -0.082839653 0.45800003
-0.027243834 -0.082839653 0.45800003
-0.026242193 -0.082839653 0.45800003
-0.025240554 -0.082839653 0.45800003
-0.024238914 -0.082839653 0.45800003
-0.023224588 -0.082794435 0.45775002
-0.022223495 -0.082794435 0.45775002
-0.02121081 -0.08274921 0.45750001
-0.020199221 -0.082704 0.45725003
-0.019188723 -0.082658775 0.45700002
-0.01818927 -0.082658775 0.45700002
-0.017180413 -0.082613565 0.45675004
-0.016181506 -0.082613565 0.45675004
-0.0151826 -0.082613565 0.45675004
-0.014175929 -0.08256834 0.45650002
-0.01317757 -0.08256834 0.45650002
0.034382183 -0.081709191 0.45175001
0.035389729 -0.081754416 0.45200002
0.03637825 -0.081754416 0.45200002
0.037366766 -0.081754416 0.45200002
0.038355287 -0.081754416 0.45200002
0.039343804 -0.081754416 0.45200002
0.040332321 -0.081754416 0.45200002
0.041297983 -0.081709191 0.45175001
0.042285956 -0.081709191 0.45175001
0.043273926 -0.081709191 0.45175001
0.044237409 -0.081663981 0.45150003
0.045224831 -0.081663981 0.45150003
0.046212256 -0.081663981 0.45150003
0.047173545 -0.081618756 0.45125002
0.048160426 -0.081618756 0.45125002
0.0491473 -0.081618756 0.45125002
0.050106402 -0.081573546 0.45100003
0.051092736 -0.081573546 0.45100003
0.052079067 -0.081573546 0.45100003
0.053035982 -0.081528321 0.45075002
0.054021768 -0.081528321 0.45075002
0.054977044 -0.081483103 0.45050001
0.055962279 -0.081483103 0.45050001
0.056915917 -0.081437886 0.45025003
0.057868462 -0.081392668 0.45000002
0.058819909 -0.081347451 0.44975004
0.05977026 -0.081302233 0.44950002
0.060685731 -0.081211798 0.44900003
0.06163336 -0.08116658 0.44875002
0.062370587 -0.08085005 0.44700003
0.06235614 -0.079583943 0.44000003
0.06321048 -0.07944829 0.43925002
0.063732848 -0.078905672 0.43625003
0.064723983 -0.078950889 0.43650001
0.065678604 -0.078950889 0.43650001
0.066633224 -0.078950889 0.43650001
0.067626558 -0.078996107 0.43675002
0.069052808 -0.079538725 0.43975002
0.070332959 -0.079900473 0.44175002
0.071339414 -0.079945691 0.44200003
0.073205799 -0.080940485 0.44750002
0.074184477 -0.080940485 0.44750002
0.075205147 -0.08098571 0.44775003
0.076226898 -0.08103092 0.44800001
0.077249765 -0.081076145 0.44825003
0.078273706 -0.081121355 0.44850001
0.07929875 -0.08116658 0.44875002
0.080324881 -0.081211798 0.44900003
0.081306837 -0.081211798 0.44900003
0.082288802 -0.081211798 0.44900003
0.083270758 -0.081211798 0.44900003
0.084205799 -0.08116658 0.44875002
0.085187212 -0.08116658 0.44875002
0.08612062 -0.081121355 0.44850001
0.087101482 -0.081121355 0.44850001
0.088033244 -0.081076145 0.44825003
0.089013562 -0.081076145 0.44825003
0.089943692 -0.08103092 0.44800001
0.090923458 -0.08103092 0.44800001
0.091903225 -0.08103092 0.44800001
0.092882998 -0.08103092 0.44800001
0.09391515 -0.081076145 0.44825003
0.094895467 -0.081076145 0.44825003
0.095875785 -0.081076145 0.44825003
0.096856102 -0.081076145 0.44825003
0.09783642 -0.081076145 0.44825003
0.098761626 -0.08103092 0.44800001
0.099741392 -0.08103092 0.44800001
0.10066496 -0.08098571 0.44775003
0.10164419 -0.08098571 0.44775003
0.10256611 -0.080940485 0.44750002
0.10354478 -0.080940485 0.44750002
0.10452346 -0.080940485 0.44750002
0.10550214 -0.080940485 0.44750002
0.10648081 -0.080940485 0.44750002
0.10745949 -0.080940485 0.44750002
0.10849874 -0.08098571 0.44775003
0.10947797 -0.08098571 0.44775003
0.1104572 -0.08098571 0.44775003
0.11143642 -0.08098571 0.44775003
0.11241565 -0.08098571 0.44775003
0.11339487 -0.08098571 0.44775003
0.11437409 -0.08098571 0.44775003
0.11528891 -0.080940485 0.44750002
0.11620262 -0.080895267 0.44725001
0.11718075 -0.080895267 0.44725001
0.11809283 -0.08085005 0.44700003
0.11907042 -0.08085005 0.44700003
0.11998087 -0.080804832 0.44675002
0.1209579 -0.080804832 0.44675002
0.12193494 -0.080804832 0.44675002
0.12291197 -0.080804832 0.44675002
0.12388901 -0.080804832 0.44675002
0.12486605 -0.080804832 0.44675002
0.12584308 -0.080804832 0.44675002
0.12682012 -0.080804832 0.44675002
0.12779717 -0.080804832 0.44675002
0.1287742 -0.080804832 0.44675002
0.12975124 -0.080804832 0.44675002
0.13072827 -0.080804832 0.44675002
0.1317053 -0.080804832 0.44675002
0.1326081 -0.080759615 0.44650003
0.13358459 -0.080759615 0.44650003
0.13456108 -0.080759615 0.44650003
0.13546169 -0.080714397 0.44625002
0.13643762 -0.080714397 0.44625002
0.13741356 -0.080714397 0.44625002
0.13831198 -0.08066918 0.44600001
0.13928737 -0.08066918 0.44600001
0.14018415 -0.080623962 0.44575003
0.141159 -0.080623962 0.44575003
0.14213385 -0.080623962 0.44575003
0.1431087 -0.080623962 0.44575003
0.14408356 -0.080623962 0.44575003
0.14505841 -0.080623962 0.44575003
0.14603324 -0.080623962 0.44575003
0.14692564 -0.080578744 0.44550002
0.14781696 -0.080533527 0.44525003
0.14870717 -0.080488309 0.44500002
0.14959627 -0.080443084 0.44475001
0.15056893 -0.080443084 0.44475001
0.15154161 -0.080443084 0.44475001
0.15251428 -0.080443084 0.44475001
0.15348694 -0.080443084 0.44475001
0.15437278 -0.080397874 0.44450003
0.15525752 -0.080352649 0.44425002
0.15614118 -0.080307439 0.44400004
0.15702373 -0.080262214 0.44375002
0.15790519 -0.080216996 0.44350001
0.15887512 -0.080216996 0.44350001
0.15975496 -0.080171779 0.44325003
0.16072434 -0.080171779 0.44325003
0.16169372 -0.080171779 0.44325003
0.16275483 -0.080216996 0.44350001
0.16372477 -0.080216996 0.44350001
0.16478753 -0.080262214 0.44375002
0.16575801 -0.080262214 0.44375002
0.16672848 -0.080262214 0.44375002
0.16760449 -0.080216996 0.44350001
0.1684794 -0.080171779 0.44325003
0.16944878 -0.080171779 0.44325003
0.17041816 -0.080171779 0.44325003
0.17138754 -0.080171779 0.44325003
0.17235692 -0.080171779 0.44325003
0.17322853 -0.080126561 0.44300002
0.17419738 -0.080126561 0.44300002
0.17506737 -0.080081344 0.44275001
0.17583685 -0.079990909 0.44225001
0.17670411 -0.079945691 0.44200003
0.17757025 -0.079900473 0.44175002
0.17853636 -0.079900473 0.44175002
0.17950246 -0.079900473 0.44175002
0.18046856 -0.079900473 0.44175002
0.18133198 -0.079855248 0.44150001
0.18229754 -0.079855248 0.44150001
0.18315932 -0.079810038 0.44125003
0.18402001 -0.079764813 0.44100001
0.18498446 -0.079764813 0.44100001
0.18594892 -0.079764813 0.44100001
0.18691339 -0.079764813 0.44100001
0.18787785 -0.079764813 0.44100001
0.18894936 -0.079810038 0.44125003
0.18991439 -0.079810038 0.44125003
0.19098753 -0.079855248 0.44150001
0.1918444 -0.079810038 0.44125003
0.19270016 -0.079764813 0.44100001
0.19355483 -0.079719603 0.44075003
0.19440842 -0.079674378 0.44050002
-0.089404792 -0.082821555 0.46350002
-0.088391125 -0.082821555 0.46350002
-0.087377451 -0.082821555 0.46350002
-0.086363785 -0.082821555 0.46350002
-0.085350119 -0.082821555 0.46350002
-0.084336445 -0.082821555 0.46350002
-0.083322771 -0.082821555 0.46350002
-0.082309105 -0.082821555 0.46350002
-0.081339292 -0.082866229 0.46375003
-0.080325074 -0.082866229 0.46375003
-0.079268098 -0.082821555 0.46350002
-0.078254431 -0.082821555 0.46350002
-0.077240765 -0.082821555 0.46350002
-0.076227099 -0.082821555 0.46350002
-0.075213425 -0.082821555 0.46350002
-0.074159734 -0.082776882 0.46325001
-0.073107138 -0.082732216 0.46300003
-0.072094567 -0.082732216 0.46300003
-0.071043611 -0.082687542 0.46275002
-0.069993749 -0.082642868 0.46250004
-0.068944976 -0.082598194 0.46225002
-0.067897297 -0.082553521 0.46200001
-0.066886917 -0.082553521 0.46200001
-0.065876521 -0.082553521 0.46200001
-0.064866133 -0.082553521 0.46200001
-0.063821197 -0.082508855 0.46175003
-0.062777348 -0.082464181 0.46150002
-0.061734587 -0.082419507 0.46125001
-0.060692929 -0.082374841 0.46100003
-0.059684727 -0.082374841 0.46100003
-0.058644708 -0.082330167 0.46075001
-0.057637047 -0.082330167 0.46075001
-0.056598671 -0.082285494 0.46050003
-0.055591565 -0.082285494 0.46050003
-0.054584455 -0.082285494 0.46050003
-0.053548262 -0.08224082 0.46025002
-0.052541696 -0.08224082 0.46025002
-0.051507145 -0.082196146 0.46000001
-0.050501127 -0.082196146 0.46000001
-0.049495116 -0.082196146 0.46000001
-0.048489098 -0.082196146 0.46000001
-0.047483087 -0.082196146 0.46000001
-0.046477072 -0.082196146 0.46000001
-0.045446347 -0.08215148 0.45975003
-0.044440877 -0.08215148 0.45975003
-0.043411791 -0.082106806 0.45950001
-0.042406868 -0.082106806 0.45950001
-0.041401949 -0.082106806 0.45950001
-0.040397029 -0.082106806 0.45950001
-0.03939211 -0.082106806 0.45950001
-0.038387191 -0.082106806 0.45950001
-0.037382267 -0.082106806 0.45950001
-0.036377348 -0.082106806 0.45950001
-0.03535318 -0.08206214 0.45925003
-0.034348808 -0.08206214 0.45925003
-0.033326279 -0.082017466 0.45900002
-0.032304849 -0.081972785 0.45875001
-0.031284511 -0.081928119 0.45850003
-0.030265266 -0.081883445 0.45825002
-0.029263077 -0.081883445 0.45825002
-0.028245473 -0.081838779 0.45800003
-0.027243834 -0.081838779 0.45800003
-0.026242193 -0.081838779 0.45800003
-0.025240554 -0.081838779 0.45800003
-0.024238914 -0.081838779 0.45800003
-0.023237273 -0.081838779 0.45800003
-0.022223495 -0.081794105 0.45775002
-0.02121081 -0.081749432 0.45750001
-0.020199221 -0.081704758 0.45725003
-0.01919922 -0.081704758 0.45725003
-0.01818927 -0.081660084 0.45700002
-0.017189816 -0.081660084 0.45700002
-0.016181506 -0.081615418 0.45675004
-0.0151826 -0.081615418 0.45675004
-0.014175929 -0.081570745 0.45650002
0.034382183 -0.080721974 0.45175001
0.035389729 -0.080766656 0.45200002
0.03637825 -0.080766656 0.45200002
0.037366766 -0.080766656 0.45200002
0.038355287 -0.080766656 0.45200002
0.039343804 -0.080766656 0.45200002
0.040332321 -0.080766656 0.45200002
0.041297983 -0.080721974 0.45175001
0.042285956 -0.080721974 0.45175001
0.043273926 -0.080721974 0.45175001
0.044261899 -0.080721974 0.45175001
0.045249872 -0.080721974 0.45175001
0.046212256 -0.080677308 0.45150003
0.047199681 -0.080677308 0.45150003
0.048160426 -0.080632634 0.45125002
0.0491473 -0.080632634 0.45125002
0.050134178 -0.080632634 0.45125002
0.051092736 -0.080587968 0.45100003
0.052079067 -0.080587968 0.45100003
0.053065401 -0.080587968 0.45100003
0.054021768 -0.080543295 0.45075002
0.055007555 -0.080543295 0.45075002
0.055962279 -0.080498621 0.45050001
0.056915917 -0.080453947 0.45025003
0.057868462 -0.080409274 0.45000002
0.058819909 -0.080364607 0.44975004
0.05977026 -0.080319934 0.44950002
0.06071952 -0.08027526 0.44925001
0.061530348 -0.080051899 0.44800001
0.061917111 -0.079292484 0.44375002
0.06224985 -0.078488387 0.43925002
0.063174509 -0.078443713 0.43900001
0.063805893 -0.078041673 0.43675002
0.064761057 -0.078041673 0.43675002
0.065716222 -0.078041673 0.43675002
0.066671386 -0.078041673 0.43675002
0.067665264 -0.078086339 0.43700001
0.069092065 -0.078622408 0.44000003
0.070332959 -0.078935109 0.44175002
0.071299061 -0.078935109 0.44175002
0.073246703 -0.080007233 0.44775003
0.074225925 -0.080007233 0.44775003
0.075247131 -0.080051899 0.44800001
0.07626944 -0.080096573 0.44825003
0.077292845 -0.080141246 0.44850001
0.078317337 -0.08018592 0.44875002
0.07929875 -0.08018592 0.44875002
0.080324881 -0.080230594 0.44900003
0.081306837 -0.080230594 0.44900003
0.082288802 -0.080230594 0.44900003
0.083270758 -0.080230594 0.44900003
0.084252715 -0.080230594 0.44900003
0.085187212 -0.08018592 0.44875002
0.08612062 -0.080141246 0.44850001
0.087052934 -0.080096573 0.44825003
0.088033244 -0.080096573 0.44825003
0.089013562 -0.080096573 0.44825003
0.089943692 -0.080051899 0.44800001
0.090923458 -0.080051899 0.44800001
0.091903225 -0.080051899 0.44800001
0.092934832 -0.080096573 0.44825003
0.09391515 -0.080096573 0.44825003
0.094895467 -0.080096573 0.44825003
0.095875785 -0.080096573 0.44825003
0.096856102 -0.080096573 0.44825003
0.09783642 -0.080096573 0.44825003
0.098761626 -0.080051899 0.44800001
0.099741392 -0.080051899 0.44800001
0.10066496 -0.080007233 0.44775003
0.10158743 -0.079962559 0.44750002
0.10256611 -0.079962559 0.44750002
0.10354478 -0.079962559 0.44750002
0.10452346 -0.079962559 0.44750002
0.10550214 -0.079962559 0.44750002
0.10648081 -0.079962559 0.44750002
0.10745949 -0.079962559 0.44750002
0.10843816 -0.079962559 0.44750002
0.10947797 -0.080007233 0.44775003
0.1104572 -0.080007233 0.44775003
0.11143642 -0.080007233 0.44775003
0.11241565 -0.080007233 0.44775003
0.11339487 -0.080007233 0.44775003
0.11437409 -0.080007233 0.44775003
0.11528891 -0.079962559 0.44750002
0.11626758 -0.079962559 0.44750002
0.11718075 -0.079917885 0.44725001
0.11815888 -0.079917885 0.44725001
0.11907042 -0.079873219 0.44700003
0.12004802 -0.079873219 0.44700003
0.1210256 -0.079873219 0.44700003
0.12200318 -0.079873219 0.44700003
0.12291197 -0.079828545 0.44675002
0.12388901 -0.079828545 0.44675002
0.12486605 -0.079828545 0.44675002
0.12584308 -0.079828545 0.44675002
0.12682012 -0.079828545 0.44675002
0.12779717 -0.079828545 0.44675002
0.1287742 -0.079828545 0.44675002
0.12975124 -0.079828545 0.44675002
0.13072827 -0.079828545 0.44675002
0.1317053 -0.079828545 0.44675002
0.1326081 -0.079783872 0.44650003
0.13358459 -0.079783872 0.44650003
0.13456108 -0.079783872 0.44650003
0.13546169 -0.079739198 0.44625002
0.13643762 -0.079739198 0.44625002
0.13741356 -0.079739198 0.44625002
0.13831198 -0.079694524 0.44600001
0.13928737 -0.079694524 0.44600001
0.14018415 -0.079649858 0.44575003
0.141159 -0.079649858 0.44575003
0.14213385 -0.079649858 0.44575003
0.1431087 -0.079649858 0.44575003
0.14416435 -0.079694524 0.44600001
0.14513975 -0.079694524 0.44600001
0.14603324 -0.079649858 0.44575003
0.14700809 -0.079649858 0.44575003
0.14789994 -0.079605184 0.44550002
0.1487907 -0.079560518 0.44525003
0.14976446 -0.079560518 0.44525003
0.15065357 -0.079515845 0.44500002
0.1516268 -0.079515845 0.44500002
0.15260001 -0.079515845 0.44500002
0.15357322 -0.079515845 0.44500002
0.1544596 -0.079471171 0.44475001
0.15534489 -0.079426497 0.44450003
0.15622908 -0.079381824 0.44425002
0.1571122 -0.079337157 0.44400004
0.1579942 -0.079292484 0.44375002
0.15887512 -0.07924781 0.44350001
0.15984505 -0.07924781 0.44350001
0.16081499 -0.07924781 0.44350001
0.1617849 -0.07924781 0.44350001
0.16284658 -0.079292484 0.44375002
0.16381706 -0.079292484 0.44375002
0.16478753 -0.079292484 0.44375002
0.16575801 -0.079292484 0.44375002
0.16672848 -0.079292484 0.44375002
0.16760449 -0.07924781 0.44350001
0.1684794 -0.079203136 0.44325003
0.16944878 -0.079203136 0.44325003
0.17032203 -0.079158463 0.44300002
0.17129086 -0.079158463 0.44300002
0.1722597 -0.079158463 0.44300002
0.17322853 -0.079158463 0.44300002
0.17419738 -0.079158463 0.44300002
0.17506737 -0.079113789 0.44275001
0.17583685 -0.079024449 0.44225001
0.17670411 -0.078979783 0.44200003
0.17767075 -0.078979783 0.44200003
0.17853636 -0.078935109 0.44175002
0.17950246 -0.078935109 0.44175002
0.18046856 -0.078935109 0.44175002
0.18143466 -0.078935109 0.44175002
0.18229754 -0.078890435 0.44150001
0.18315932 -0.078845762 0.44125003
0.18402001 -0.078801088 0.44100001
0.18498446 -0.078801088 0.44100001
0.18594892 -0.078801088 0.44100001
0.18701935 -0.078845762 0.44125003
0.18798436 -0.078845762 0.44125003
0.18905641 -0.078890435 0.44150001
0.19002198 -0.078890435 0.44150001
0.19098753 -0.078890435 0.44150001
0.1918444 -0.078845762 0.44125003
0.19270016 -0.078801088 0.44100001
0.19355483 -0.078756422 0.44075003
0.19440842 -0.078711748 0.44050002
-0.089501232 -0.081896916 0.46400002
-0.088438801 -0.081852794 0.46375003
-0.087424584 -0.081852794 0.46375003
-0.086410366 -0.081852794 0.46375003
-0.085396156 -0.081852794 0.46375003
-0.084381938 -0.081852794 0.46375003
-0.08336772 -0.081852794 0.46375003
-0.082353503 -0.081852794 0.46375003
-0.081339292 -0.081852794 0.46375003
-0.080325074 -0.081852794 0.46375003
-0.079310857 -0.081852794 0.46375003
-0.078254431 -0.081808671 0.46350002
-0.077240765 -0.081808671 0.46350002
-0.076227099 -0.081808671 0.46350002
-0.075172856 -0.081764542 0.46325001
-0.074159734 -0.081764542 0.46325001
-0.073107138 -0.081720419 0.46300003
-0.072094567 -0.081720419 0.46300003
-0.071043611 -0.081676289 0.46275002
-0.069993749 -0.081632167 0.46250004
-0.068944976 -0.081588045 0.46225002
-0.067934044 -0.081588045 0.46225002
-0.066923112 -0.081588045 0.46225002
-0.065876521 -0.081543915 0.46200001
-0.064866133 -0.081543915 0.46200001
-0.063821197 -0.081499793 0.46175003
-0.062777348 -0.081455663 0.46150002
-0.061734587 -0.081411541 0.46125001
-0.060692929 -0.081367418 0.46100003
-0.059684727 -0.081367418 0.46100003
-0.058644708 -0.081323288 0.46075001
-0.057637047 -0.081323288 0.46075001
-0.056629393 -0.081323288 0.46075001
-0.055591565 -0.081279166 0.46050003
-0.054584455 -0.081279166 0.46050003
-0.053548262 -0.081235036 0.46025002
-0.052541696 -0.081235036 0.46025002
-0.051535137 -0.081235036 0.46025002
-0.050501127 -0.081190906 0.46000001
-0.049495116 -0.081190906 0.46000001
-0.048489098 -0.081190906 0.46000001
-0.047483087 -0.081190906 0.46000001
-0.046477072 -0.081190906 0.46000001
-0.045446347 -0.081146784 0.45975003
-0.044440877 -0.081146784 0.45975003
-0.043411791 -0.081102662 0.45950001
-0.042406868 -0.081102662 0.45950001
-0.041401949 -0.081102662 0.45950001
-0.040397029 -0.081102662 0.45950001
-0.03939211 -0.081102662 0.45950001
-0.038387191 -0.081102662 0.45950001
-0.037382267 -0.081102662 0.45950001
-0.036377348 -0.081102662 0.45950001
-0.03535318 -0.081058539 0.45925003
-0.034348808 -0.081058539 0.45925003
-0.033326279 -0.08101441 0.45900002
-0.032304849 -0.08097028 0.45875001
-0.031284511 -0.080926158 0.45850003
-0.030281778 -0.080926158 0.45850003
-0.029263077 -0.080882035 0.45825002
-0.02826089 -0.080882035 0.45825002
-0.027243834 -0.080837913 0.45800003
-0.026242193 -0.080837913 0.45800003
-0.025240554 -0.080837913 0.45800003
-0.024238914 -0.080837913 0.45800003
-0.023237273 -0.080837913 0.45800003
-0.022223495 -0.080793783 0.45775002
-0.02121081 -0.080749653 0.45750001
-0.020210264 -0.080749653 0.45750001
-0.01919922 -0.080705531 0.45725003
-0.01818927 -0.080661409 0.45700002
-0.017189816 -0.080661409 0.45700002
-0.016181506 -0.080617286 0.45675004
-0.0151826 -0.080617286 0.45675004
-0.014175929 -0.080573156 0.45650002
0.033006124 -0.078808136 0.44650003
0.034382183 -0.079734772 0.45175001
0.035389729 -0.079778895 0.45200002
0.03637825 -0.079778895 0.45200002
0.037366766 -0.079778895 0.45200002
0.038355287 -0.079778895 0.45200002
0.039343804 -0.079778895 0.45200002
0.040332321 -0.079778895 0.45200002
0.041320838 -0.079778895 0.45200002
0.042285956 -0.079734772 0.45175001
0.043273926 -0.079734772 0.45175001
0.044261899 -0.079734772 0.45175001
0.045249872 -0.079734772 0.45175001
0.046237845 -0.079734772 0.45175001
0.047199681 -0.07969065 0.45150003
0.048187107 -0.07969065 0.45150003
0.049174532 -0.07969065 0.45150003
0.050134178 -0.07964652 0.45125002
0.051121056 -0.07964652 0.45125002
0.052107934 -0.07964652 0.45125002
0.053065401 -0.079602398 0.45100003
0.054051731 -0.079602398 0.45100003
0.055007555 -0.079558268 0.45075002
0.055962279 -0.079514138 0.45050001
0.056915917 -0.079470016 0.45025003
0.057900611 -0.079470016 0.45025003
0.058852602 -0.079425894 0.45000002
0.059803504 -0.079381771 0.44975004
0.060753312 -0.079337642 0.44950002
0.061358668 -0.078852259 0.44675002
0.061324101 -0.077572621 0.43950003
0.06224985 -0.077528499 0.43925002
0.063174509 -0.077484369 0.43900001
0.063951984 -0.077263743 0.43775001
0.064761057 -0.077087238 0.43675002
0.065716222 -0.077087238 0.43675002
0.066671386 -0.077087238 0.43675002
0.067626558 -0.077087238 0.43675002
0.069013551 -0.077572621 0.43950003
0.070332959 -0.077969752 0.44175002
0.071299061 -0.077969752 0.44175002
0.073287591 -0.079072885 0.44800001
0.074267365 -0.079072885 0.44800001
0.075289123 -0.079117015 0.44825003
0.07626944 -0.079117015 0.44825003
0.077292845 -0.079161137 0.44850001
0.078317337 -0.079205267 0.44875002
0.07929875 -0.079205267 0.44875002
0.080324881 -0.079249389 0.44900003
0.081306837 -0.079249389 0.44900003
0.082288802 -0.079249389 0.44900003
0.083270758 -0.079249389 0.44900003
0.084252715 -0.079249389 0.44900003
0.085187212 -0.079205267 0.44875002
0.08612062 -0.079161137 0.44850001
0.087101482 -0.079161137 0.44850001
0.088033244 -0.079117015 0.44825003
0.089013562 -0.079117015 0.44825003
0.089993887 -0.079117015 0.44825003
0.090974197 -0.079117015 0.44825003
0.091954514 -0.079117015 0.44825003
0.092934832 -0.079117015 0.44825003
0.093967527 -0.079161137 0.44850001
0.094948389 -0.079161137 0.44850001
0.09592925 -0.079161137 0.44850001
0.096910112 -0.079161137 0.44850001
0.09783642 -0.079117015 0.44825003
0.098816738 -0.079117015 0.44825003
0.099741392 -0.079072885 0.44800001
0.10066496 -0.079028763 0.44775003
0.10164419 -0.079028763 0.44775003
0.10256611 -0.078984641 0.44750002
0.10354478 -0.078984641 0.44750002
0.10452346 -0.078984641 0.44750002
0.10550214 -0.078984641 0.44750002
0.10648081 -0.078984641 0.44750002
0.10745949 -0.078984641 0.44750002
0.10843816 -0.078984641 0.44750002
0.10947797 -0.079028763 0.44775003
0.1104572 -0.079028763 0.44775003
0.11143642 -0.079028763 0.44775003
0.11241565 -0.079028763 0.44775003
0.11339487 -0.079028763 0.44775003
0.11431023 -0.078984641 0.44750002
0.11528891 -0.078984641 0.44750002
0.11626758 -0.078984641 0.44750002
0.11724626 -0.078984641 0.44750002
0.11815888 -0.078940511 0.44725001
0.11913701 -0.078940511 0.44725001
0.12011515 -0.078940511 0.44725001
0.12109328 -0.078940511 0.44725001
0.12200318 -0.078896388 0.44700003
0.12298076 -0.078896388 0.44700003
0.12395834 -0.078896388 0.44700003
0.12493593 -0.078896388 0.44700003
0.1259135 -0.078896388 0.44700003
0.12682012 -0.078852259 0.44675002
0.12779717 -0.078852259 0.44675002
0.1287742 -0.078852259 0.44675002
0.12975124 -0.078852259 0.44675002
0.13072827 -0.078852259 0.44675002
0.1317053 -0.078852259 0.44675002
0.1326081 -0.078808136 0.44650003
0.13358459 -0.078808136 0.44650003
0.13456108 -0.078808136 0.44650003
0.13546169 -0.078764006 0.44625002
0.13643762 -0.078764006 0.44625002
0.13741356 -0.078764006 0.44625002
0.13831198 -0.078719884 0.44600001
0.13928737 -0.078719884 0.44600001
0.14018415 -0.078675762 0.44575003
0.141159 -0.078675762 0.44575003
0.14213385 -0.078675762 0.44575003
0.1431087 -0.078675762 0.44575003
0.14408356 -0.078675762 0.44575003
0.14513975 -0.078719884 0.44600001
0.14611515 -0.078719884 0.44600001
0.14700809 -0.078675762 0.44575003
0.14798294 -0.078675762 0.44575003
0.14887425 -0.078631632 0.44550002
0.14984855 -0.078631632 0.44550002
0.15082285 -0.078631632 0.44550002
0.15171199 -0.07858751 0.44525003
0.15268575 -0.07858751 0.44525003
0.15357322 -0.07854338 0.44500002
0.1544596 -0.078499258 0.44475001
0.15534489 -0.078455135 0.44450003
0.15622908 -0.078411005 0.44425002
0.1571122 -0.078366883 0.44400004
0.15808322 -0.078366883 0.44400004
0.15896469 -0.078322753 0.44375002
0.15993516 -0.078322753 0.44375002
0.16090563 -0.078322753 0.44375002
0.16196731 -0.078366883 0.44400004
0.16293833 -0.078366883 0.44400004
0.16390936 -0.078366883 0.44400004
0.16488038 -0.078366883 0.44400004
0.16575801 -0.078322753 0.44375002
0.16672848 -0.078322753 0.44375002
0.16760449 -0.078278631 0.44350001
0.1684794 -0.078234509 0.44325003
0.16944878 -0.078234509 0.44325003
0.17041816 -0.078234509 0.44325003
0.17138754 -0.078234509 0.44325003
0.17235692 -0.078234509 0.44325003
0.1733263 -0.078234509 0.44325003
0.17419738 -0.078190379 0.44300002
0.17506737 -0.078146249 0.44275001
0.17593625 -0.078102127 0.44250003
0.17680405 -0.078057997 0.44225001
0.17777124 -0.078057997 0.44225001
0.1786374 -0.078013875 0.44200003
0.17960405 -0.078013875 0.44200003
0.18057069 -0.078013875 0.44200003
0.18143466 -0.077969752 0.44175002
0.18229754 -0.077925622 0.44150001
0.18315932 -0.0778815 0.44125003
0.18402001 -0.07783737 0.44100001
0.18498446 -0.07783737 0.44100001
0.18605435 -0.0778815 0.44125003
0.18701935 -0.0778815 0.44125003
0.18809086 -0.077925622 0.44150001
0.18905641 -0.077925622 0.44150001
0.19012958 -0.077969752 0.44175002
0.19109568 -0.077969752 0.44175002
0.19195308 -0.077925622 0.44150001
0.1928094 -0.0778815 0.44125003
0.19366463 -0.07783737 0.44100001
0.19451876 -0.077793248 0.44075003
-0.089742348 -0.081100829 0.46525002
-0.088581823 -0.080970094 0.46450001
-0.087518841 -0.080926515 0.46425003
-0.086456947 -0.080882929 0.46400002
-0.085442185 -0.080882929 0.46400002
-0.084427424 -0.080882929 0.46400002
-0.08336772 -0.080839358 0.46375003
-0.082353503 -0.080839358 0.46375003
-0.081339292 -0.080839358 0.46375003
-0.080325074 -0.080839358 0.46375003
-0.079310857 -0.080839358 0.46375003
-0.078254431 -0.080795772 0.46350002
-0.077240765 -0.080795772 0.46350002
-0.076185979 -0.080752194 0.46325001
-0.075172856 -0.080752194 0.46325001
-0.074119717 -0.080708615 0.46300003
-0.073107138 -0.080708615 0.46300003
-0.072094567 -0.080708615 0.46300003
-0.071043611 -0.080665037 0.46275002
-0.069993749 -0.080621459 0.46250004
-0.068982266 -0.080621459 0.46250004
-0.067934044 -0.08057788 0.46225002
-0.066923112 -0.08057788 0.46225002
-0.065912172 -0.08057788 0.46225002
-0.064866133 -0.080534302 0.46200001
-0.063821197 -0.080490723 0.46175003
-0.062777348 -0.080447145 0.46150002
-0.061734587 -0.080403559 0.46125001
-0.060725838 -0.080403559 0.46125001
-0.059684727 -0.080359988 0.46100003
-0.05867653 -0.080359988 0.46100003
-0.057637047 -0.080316402 0.46075001
-0.056629393 -0.080316402 0.46075001
-0.055591565 -0.080272824 0.46050003
-0.054584455 -0.080272824 0.46050003
-0.053548262 -0.080229245 0.46025002
-0.052541696 -0.080229245 0.46025002
-0.051535137 -0.080229245 0.46025002
-0.050528575 -0.080229245 0.46025002
-0.049522016 -0.080229245 0.46025002
-0.048515454 -0.080229245 0.46025002
-0.047508892 -0.080229245 0.46025002
-0.046477072 -0.080185667 0.46000001
-0.045471057 -0.080185667 0.46000001
-0.044440877 -0.080142088 0.45975003
-0.043435413 -0.080142088 0.45975003
-0.042406868 -0.08009851 0.45950001
-0.041401949 -0.08009851 0.45950001
-0.040397029 -0.08009851 0.45950001
-0.03939211 -0.08009851 0.45950001
-0.038387191 -0.08009851 0.45950001
-0.037382267 -0.08009851 0.45950001
-0.036377348 -0.08009851 0.45950001
-0.035372425 -0.08009851 0.45950001
-0.034348808 -0.080054931 0.45925003
-0.033326279 -0.080011353 0.45900002
-0.032322455 -0.080011353 0.45900002
-0.031301565 -0.079967767 0.45875001
-0.030281778 -0.079924196 0.45850003
-0.029279042 -0.079924196 0.45850003
-0.02826089 -0.07988061 0.45825002
-0.027258703 -0.07988061 0.45825002
-0.026256517 -0.07988061 0.45825002
-0.025254332 -0.07988061 0.45825002
-0.024238914 -0.079837039 0.45800003
-0.023237273 -0.079837039 0.45800003
-0.022223495 -0.079793453 0.45775002
-0.021222401 -0.079793453 0.45775002
-0.020210264 -0.079749875 0.45750001
-0.01919922 -0.079706296 0.45725003
-0.01819922 -0.079706296 0.45725003
-0.017189816 -0.079662718 0.45700002
-0.016190363 -0.079662718 0.45700002
-0.0151826 -0.079619139 0.45675004
-0.014183694 -0.079619139 0.45675004
-0.01317757 -0.079575561 0.45650002
0.031957898 -0.077658072 0.44550002
0.03339421 -0.078747556 0.45175001
0.034382183 -0.078747556 0.45175001
0.035389729 -0.078791134 0.45200002
0.03637825 -0.078791134 0.45200002
0.037366766 -0.078791134 0.45200002
0.038355287 -0.078791134 0.45200002
0.039343804 -0.078791134 0.45200002
0.040332321 -0.078791134 0.45200002
0.041320838 -0.078791134 0.45200002
0.042309359 -0.078791134 0.45200002
0.043297876 -0.078791134 0.45200002
0.044286396 -0.078791134 0.45200002
0.045274913 -0.078791134 0.45200002
0.046237845 -0.078747556 0.45175001
0.047225814 -0.078747556 0.45175001
0.048213787 -0.078747556 0.45175001
0.049174532 -0.078703977 0.45150003
0.050161954 -0.078703977 0.45150003
0.051149379 -0.078703977 0.45150003
0.052107934 -0.078660399 0.45125002
0.053094815 -0.078660399 0.45125002
0.054051731 -0.07861682 0.45100003
0.055007555 -0.078573242 0.45075002
0.055962279 -0.078529656 0.45050001
0.056947514 -0.078529656 0.45050001
0.057900611 -0.078486077 0.45025003
0.058852602 -0.078442499 0.45000002
0.059803504 -0.078398921 0.44975004
0.0607871 -0.078398921 0.44975004
0.060877964 -0.077265866 0.44325003
0.061289217 -0.076568596 0.43925002
0.062214419 -0.076525018 0.43900001
0.06313853 -0.076481439 0.43875003
0.063951984 -0.076307118 0.43775001
0.064761057 -0.076132804 0.43675002
0.065716222 -0.076132804 0.43675002
0.066671386 -0.076132804 0.43675002
0.067626558 -0.076132804 0.43675002
0.068699494 -0.076263547 0.43750003
0.070293158 -0.07696081 0.44150001
0.071258709 -0.07696081 0.44150001
0.073328495 -0.07813745 0.44825003
0.074308805 -0.07813745 0.44825003
0.075331114 -0.078181021 0.44850001
0.076311976 -0.078181021 0.44850001
0.077335931 -0.078224607 0.44875002
0.078317337 -0.078224607 0.44875002
0.079342924 -0.078268185 0.44900003
0.080324881 -0.078268185 0.44900003
0.081306837 -0.078268185 0.44900003
0.082288802 -0.078268185 0.44900003
0.083270758 -0.078268185 0.44900003
0.084252715 -0.078268185 0.44900003
0.085187212 -0.078224607 0.44875002
0.08612062 -0.078181021 0.44850001
0.087101482 -0.078181021 0.44850001
0.088033244 -0.07813745 0.44825003
0.089013562 -0.07813745 0.44825003
0.089993887 -0.07813745 0.44825003
0.090974197 -0.07813745 0.44825003
0.092005797 -0.078181021 0.44850001
0.092986658 -0.078181021 0.44850001
0.093967527 -0.078181021 0.44850001
0.094948389 -0.078181021 0.44850001
0.09592925 -0.078181021 0.44850001
0.096910112 -0.078181021 0.44850001
0.097890981 -0.078181021 0.44850001
0.098816738 -0.07813745 0.44825003
0.099741392 -0.078093864 0.44800001
0.10072116 -0.078093864 0.44800001
0.10164419 -0.078050293 0.44775003
0.10262341 -0.078050293 0.44775003
0.10354478 -0.078006707 0.44750002
0.10452346 -0.078006707 0.44750002
0.10550214 -0.078006707 0.44750002
0.10648081 -0.078006707 0.44750002
0.10745949 -0.078006707 0.44750002
0.10843816 -0.078006707 0.44750002
0.10947797 -0.078050293 0.44775003
0.1104572 -0.078050293 0.44775003
0.11143642 -0.078050293 0.44775003
0.11235288 -0.078006707 0.44750002
0.11333156 -0.078006707 0.44750002
0.11431023 -0.078006707 0.44750002
0.11528891 -0.078006707 0.44750002
0.11626758 -0.078006707 0.44750002
0.11724626 -0.078006707 0.44750002
0.11822493 -0.078006707 0.44750002
0.1192036 -0.078006707 0.44750002
0.12011515 -0.077963129 0.44725001
0.12109328 -0.077963129 0.44725001
0.12207141 -0.077963129 0.44725001
0.12298076 -0.07791955 0.44700003
0.12395834 -0.07791955 0.44700003
0.12493593 -0.07791955 0.44700003
0.1259135 -0.07791955 0.44700003
0.12689109 -0.07791955 0.44700003
0.12786868 -0.07791955 0.44700003
0.12884626 -0.07791955 0.44700003
0.12975124 -0.077875972 0.44675002
0.13072827 -0.077875972 0.44675002
0.1317053 -0.077875972 0.44675002
0.13268234 -0.077875972 0.44675002
0.13358459 -0.077832393 0.44650003
0.13456108 -0.077832393 0.44650003
0.13553758 -0.077832393 0.44650003
0.13643762 -0.077788815 0.44625002
0.13741356 -0.077788815 0.44625002
0.13831198 -0.077745229 0.44600001
0.1392093 -0.077701658 0.44575003
0.14018415 -0.077701658 0.44575003
0.141159 -0.077701658 0.44575003
0.14213385 -0.077701658 0.44575003
0.1431087 -0.077701658 0.44575003
0.14408356 -0.077701658 0.44575003
0.14505841 -0.077701658 0.44575003
0.14611515 -0.077745229 0.44600001
0.14709054 -0.077745229 0.44600001
0.14806594 -0.077745229 0.44600001
0.14895779 -0.077701658 0.44575003
0.14993264 -0.077701658 0.44575003
0.15090749 -0.077701658 0.44575003
0.15179716 -0.077658072 0.44550002
0.15277146 -0.077658072 0.44550002
0.15365949 -0.077614501 0.44525003
0.15454642 -0.077570915 0.44500002
0.15543225 -0.077527337 0.44475001
0.15631701 -0.077483758 0.44450003
0.15720065 -0.07744018 0.44425002
0.15817222 -0.07744018 0.44425002
0.15905425 -0.077396601 0.44400004
0.16002527 -0.077396601 0.44400004
0.16108693 -0.07744018 0.44425002
0.1620585 -0.07744018 0.44425002
0.16303007 -0.07744018 0.44425002
0.16390936 -0.077396601 0.44400004
0.16488038 -0.077396601 0.44400004
0.1658514 -0.077396601 0.44400004
0.16672848 -0.077353023 0.44375002
0.16769896 -0.077353023 0.44375002
0.16857441 -0.077309437 0.44350001
0.16954434 -0.077309437 0.44350001
0.17041816 -0.077265866 0.44325003
0.17138754 -0.077265866 0.44325003
0.17235692 -0.077265866 0.44325003
0.1733263 -0.077265866 0.44325003
0.17429568 -0.077265866 0.44325003
0.17516622 -0.07722228 0.44300002
0.17603564 -0.077178702 0.44275001
0.17690399 -0.077135123 0.44250003
0.17787173 -0.077135123 0.44250003
0.17873843 -0.077091545 0.44225001
0.17970562 -0.077091545 0.44225001
0.18067282 -0.077091545 0.44225001
0.18153735 -0.077047966 0.44200003
0.18229754 -0.07696081 0.44150001
0.18305555 -0.076873653 0.44100001
0.18402001 -0.076873653 0.44100001
0.18498446 -0.076873653 0.44100001
0.18594892 -0.076873653 0.44100001
0.18701935 -0.076917231 0.44125003
0.18809086 -0.07696081 0.44150001
0.18916348 -0.077004388 0.44175002
0.19012958 -0.077004388 0.44175002
0.19120383 -0.077047966 0.44200003
0.19206178 -0.077004388 0.44175002
0.19302788 -0.077004388 0.44175002
0.19388419 -0.07696081 0.44150001
-0.089790575 -0.08012715 0.46550003
-0.088677183 -0.080041088 0.46500003
-0.087613098 -0.079998054 0.46475002
-0.086550109 -0.079955019 0.46450001
-0.085488223 -0.079911992 0.46425003
-0.084427424 -0.079868957 0.46400002
-0.083412655 -0.079868957 0.46400002
-0.082397901 -0.079868957 0.46400002
-0.081383139 -0.079868957 0.46400002
-0.080325074 -0.079825923 0.46375003
-0.079310857 -0.079825923 0.46375003
-0.078296639 -0.079825923 0.46375003
-0.077240765 -0.079782888 0.46350002
-0.076185979 -0.079739854 0.46325001
-0.075172856 -0.079739854 0.46325001
-0.074119717 -0.079696827 0.46300003
-0.073107138 -0.079696827 0.46300003
-0.072094567 -0.079696827 0.46300003
-0.071043611 -0.079653792 0.46275002
-0.070031576 -0.079653792 0.46275002
-0.069019549 -0.079653792 0.46275002
-0.067970783 -0.079610758 0.46250004
-0.066959307 -0.079610758 0.46250004
-0.065912172 -0.079567723 0.46225002
-0.064901233 -0.079567723 0.46225002
-0.063855745 -0.079524688 0.46200001
-0.062811352 -0.079481661 0.46175003
-0.061768048 -0.079438627 0.46150002
-0.060725838 -0.079395592 0.46125001
-0.059717093 -0.079395592 0.46125001
-0.05867653 -0.079352558 0.46100003
-0.057668321 -0.079352558 0.46100003
-0.056629393 -0.079309523 0.46075001
-0.055621739 -0.079309523 0.46075001
-0.054584455 -0.079266496 0.46050003
-0.053577349 -0.079266496 0.46050003
-0.052541696 -0.079223461 0.46025002
-0.051535137 -0.079223461 0.46025002
-0.050528575 -0.079223461 0.46025002
-0.049522016 -0.079223461 0.46025002
-0.048515454 -0.079223461 0.46025002
-0.047508892 -0.079223461 0.46025002
-0.046502329 -0.079223461 0.46025002
-0.045471057 -0.079180427 0.46000001
-0.044465043 -0.079180427 0.46000001
-0.043435413 -0.0791374 0.45975003
-0.042429943 -0.0791374 0.45975003
-0.041401949 -0.079094365 0.45950001
-0.040397029 -0.079094365 0.45950001
-0.03939211 -0.079094365 0.45950001
-0.038387191 -0.079094365 0.45950001
-0.037382267 -0.079094365 0.45950001
-0.036377348 -0.079094365 0.45950001
-0.035372425 -0.079094365 0.45950001
-0.034348808 -0.079051331 0.45925003
-0.033344433 -0.079051331 0.45925003
-0.032322455 -0.079008296 0.45900002
-0.031318627 -0.079008296 0.45900002
-0.030298289 -0.078965262 0.45875001
-0.029295007 -0.078965262 0.45875001
-0.028276309 -0.078922234 0.45850003
-0.027273575 -0.078922234 0.45850003
-0.026256517 -0.0788792 0.45825002
-0.025254332 -0.0788792 0.45825002
-0.024252145 -0.0788792 0.45825002
-0.023237273 -0.078836165 0.45800003
-0.022235634 -0.078836165 0.45800003
-0.021222401 -0.078793131 0.45775002
-0.020210264 -0.078750096 0.45750001
-0.019209716 -0.078750096 0.45750001
-0.01819922 -0.078707069 0.45725003
-0.01719922 -0.078707069 0.45725003
-0.016190363 -0.078664035 0.45700002
-0.01519091 -0.078664035 0.45700002
-0.014183694 -0.078621008 0.45675004
-0.013184787 -0.078621008 0.45675004
0.032388307 -0.077717312 0.45150003
0.03339421 -0.077760346 0.45175001
0.034401212 -0.077803381 0.45200002
0.035389729 -0.077803381 0.45200002
0.03639837 -0.077846415 0.45225003
0.037387434 -0.077846415 0.45225003
0.038376503 -0.077846415 0.45225003
0.039365564 -0.077846415 0.45225003
0.040354632 -0.077846415 0.45225003
0.041320838 -0.077803381 0.45200002
0.042309359 -0.077803381 0.45200002
0.043297876 -0.077803381 0.45200002
0.044286396 -0.077803381 0.45200002
0.045274913 -0.077803381 0.45200002
0.046263434 -0.077803381 0.45200002
0.047251951 -0.077803381 0.45200002
0.048213787 -0.077760346 0.45175001
0.049201757 -0.077760346 0.45175001
0.050189726 -0.077760346 0.45175001
0.051149379 -0.077717312 0.45150003
0.052136805 -0.077717312 0.45150003
0.053094815 -0.077674277 0.45125002
0.05408169 -0.077674277 0.45125002
0.055038065 -0.07763125 0.45100003
0.055993337 -0.077588215 0.45075002
0.056947514 -0.077545181 0.45050001
0.057900611 -0.077502146 0.45025003
0.058852602 -0.077459112 0.45000002
0.059836745 -0.077459112 0.45000002
0.0607871 -0.077416085 0.44975004
0.060534604 -0.0758669 0.44075003
0.061289217 -0.075608701 0.43925002
0.062214419 -0.075565666 0.43900001
0.063102551 -0.075479604 0.43850002
0.063915461 -0.075307474 0.43750003
0.064761057 -0.075178377 0.43675002
0.065678604 -0.075135343 0.43650001
0.066595063 -0.075092308 0.43625003
0.067587845 -0.075135343 0.43650001
0.06862098 -0.075221404 0.43700001
0.070253357 -0.075952969 0.44125003
0.071218364 -0.075952969 0.44125003
0.073369384 -0.077200919 0.44850001
0.074350253 -0.077200919 0.44850001
0.075331114 -0.077200919 0.44850001
0.076354511 -0.077243954 0.44875002
0.077335931 -0.077243954 0.44875002
0.078317337 -0.077243954 0.44875002
0.079342924 -0.077286988 0.44900003
0.080324881 -0.077286988 0.44900003
0.081352107 -0.077330016 0.44925001
0.082334615 -0.077330016 0.44925001
0.083270758 -0.077286988 0.44900003
0.084252715 -0.077286988 0.44900003
0.085187212 -0.077243954 0.44875002
0.086168624 -0.077243954 0.44875002
0.087101482 -0.077200919 0.44850001
0.088082343 -0.077200919 0.44850001
0.089063205 -0.077200919 0.44850001
0.090044074 -0.077200919 0.44850001
0.091024935 -0.077200919 0.44850001
0.092005797 -0.077200919 0.44850001
0.093038492 -0.077243954 0.44875002
0.094019912 -0.077243954 0.44875002
0.095001318 -0.077243954 0.44875002
0.09598273 -0.077243954 0.44875002
0.096964136 -0.077243954 0.44875002
0.097890981 -0.077200919 0.44850001
0.098871849 -0.077200919 0.44850001
0.099797055 -0.077157885 0.44825003
0.10072116 -0.07711485 0.44800001
0.10170094 -0.07711485 0.44800001
0.10262341 -0.077071823 0.44775003
0.10360263 -0.077071823 0.44775003
0.10458186 -0.077071823 0.44775003
0.10556109 -0.077071823 0.44775003
0.10654031 -0.077071823 0.44775003
0.10751953 -0.077071823 0.44775003
0.10849874 -0.077071823 0.44775003
0.10947797 -0.077071823 0.44775003
0.1104572 -0.077071823 0.44775003
0.11143642 -0.077071823 0.44775003
0.11235288 -0.077028789 0.44750002
0.11333156 -0.077028789 0.44750002
0.11431023 -0.077028789 0.44750002
0.11528891 -0.077028789 0.44750002
0.11626758 -0.077028789 0.44750002
0.11724626 -0.077028789 0.44750002
0.11822493 -0.077028789 0.44750002
0.1192036 -0.077028789 0.44750002
0.1201823 -0.077028789 0.44750002
0.12116097 -0.077028789 0.44750002
0.12207141 -0.076985754 0.44725001
0.12304953 -0.076985754 0.44725001
0.12402767 -0.076985754 0.44725001
0.1250058 -0.076985754 0.44725001
0.12598392 -0.076985754 0.44725001
0.12696205 -0.076985754 0.44725001
0.12794019 -0.076985754 0.44725001
0.12884626 -0.07694272 0.44700003
0.12982385 -0.07694272 0.44700003
0.13080142 -0.07694272 0.44700003
0.1317053 -0.076899685 0.44675002
0.13268234 -0.076899685 0.44675002
0.13365938 -0.076899685 0.44675002
0.13456108 -0.076856658 0.44650003
0.13553758 -0.076856658 0.44650003
0.13643762 -0.076813623 0.44625002
0.13741356 -0.076813623 0.44625002
0.13831198 -0.076770589 0.44600001
0.1392093 -0.076727562 0.44575003
0.14018415 -0.076727562 0.44575003
0.14107983 -0.076684527 0.44550002
0.14205413 -0.076684527 0.44550002
0.14302842 -0.076684527 0.44550002
0.14408356 -0.076727562 0.44575003
0.14505841 -0.076727562 0.44575003
0.14611515 -0.076770589 0.44600001
0.14709054 -0.076770589 0.44600001
0.14806594 -0.076770589 0.44600001
0.14904132 -0.076770589 0.44600001
0.15001673 -0.076770589 0.44600001
0.15090749 -0.076727562 0.44575003
0.15188235 -0.076727562 0.44575003
0.15277146 -0.076684527 0.44550002
0.15374577 -0.076684527 0.44550002
0.15463325 -0.076641493 0.44525003
0.15551963 -0.076598458 0.44500002
0.15640491 -0.076555423 0.44475001
0.15728912 -0.076512396 0.44450003
0.15826124 -0.076512396 0.44450003
0.15914381 -0.076469362 0.44425002
0.16020548 -0.076512396 0.44450003
0.16117759 -0.076512396 0.44450003
0.16214971 -0.076512396 0.44450003
0.16312182 -0.076512396 0.44450003
0.16400164 -0.076469362 0.44425002
0.1649732 -0.076469362 0.44425002
0.1658514 -0.076426327 0.44400004
0.16682242 -0.076426327 0.44400004
0.16769896 -0.076383293 0.44375002
0.16866945 -0.076383293 0.44375002
0.16963992 -0.076383293 0.44375002
0.17051427 -0.076340258 0.44350001
0.1714842 -0.076340258 0.44350001
0.17245412 -0.076340258 0.44350001
0.17342405 -0.076340258 0.44350001
0.17439398 -0.076340258 0.44350001
0.17526507 -0.076297231 0.44325003
0.17613505 -0.076254196 0.44300002
0.17700393 -0.076211162 0.44275001
0.17797221 -0.076211162 0.44275001
0.1789405 -0.076211162 0.44275001
0.1799088 -0.076211162 0.44275001
0.18077496 -0.076168127 0.44250003
0.18164001 -0.076125093 0.44225001
0.18219432 -0.075952969 0.44125003
0.18305555 -0.075909935 0.44100001
0.18391569 -0.0758669 0.44075003
0.18487962 -0.0758669 0.44075003
0.18594892 -0.075909935 0.44100001
0.18701935 -0.075952969 0.44125003
0.18809086 -0.075995997 0.44150001
0.18916348 -0.076039031 0.44175002
0.19023719 -0.076082066 0.44200003
0.19120383 -0.076082066 0.44200003
0.19227917 -0.076125093 0.44225001
0.19313712 -0.076082066 0.44200003
0.19410378 -0.076082066 0.44200003
0.19507042 -0.076082066 0.44200003
-0.088724852 -0.079067402 0.46525002
-0.087660223 -0.079024918 0.46500003
-0.086596698 -0.078982428 0.46475002
-0.085534252 -0.078939937 0.46450001
-0.084472917 -0.078897454 0.46425003
-0.083412655 -0.078854971 0.46400002
-0.082397901 -0.078854971 0.46400002
-0.081383139 -0.078854971 0.46400002
-0.080368377 -0.078854971 0.46400002
-0.079353608 -0.078854971 0.46400002
-0.078296639 -0.078812487 0.46375003
-0.077240765 -0.078769997 0.46350002
-0.076185979 -0.078727506 0.46325001
-0.075172856 -0.078727506 0.46325001
-0.074119717 -0.078685023 0.46300003
-0.073107138 -0.078685023 0.46300003
-0.072094567 -0.078685023 0.46300003
-0.071081996 -0.078685023 0.46300003
-0.070069417 -0.078685023 0.46300003
-0.069019549 -0.078642532 0.46275002
-0.068007521 -0.078642532 0.46275002
-0.066995494 -0.078642532 0.46275002
-0.065947816 -0.078600049 0.46250004
-0.064901233 -0.078557566 0.46225002
-0.063855745 -0.078515075 0.46200001
-0.062811352 -0.078472592 0.46175003
-0.061768048 -0.078430101 0.46150002
-0.060758755 -0.078430101 0.46150002
-0.059717093 -0.078387611 0.46125001
-0.058708347 -0.078387611 0.46125001
-0.057668321 -0.078345127 0.46100003
-0.056660123 -0.078345127 0.46100003
-0.055621739 -0.078302644 0.46075001
-0.054614086 -0.078302644 0.46075001
-0.053577349 -0.078260161 0.46050003
-0.052570239 -0.078260161 0.46050003
-0.051563133 -0.078260161 0.46050003
-0.050556023 -0.078260161 0.46050003
-0.049548917 -0.078260161 0.46050003
-0.048541807 -0.078260161 0.46050003
-0.0475347 -0.078260161 0.46050003
-0.046527591 -0.078260161 0.46050003
-0.045495771 -0.07821767 0.46025002
-0.044465043 -0.07817518 0.46000001
-0.043459028 -0.07817518 0.46000001
-0.042429943 -0.078132696 0.45975003
-0.041424476 -0.078132696 0.45975003
-0.040397029 -0.078090213 0.45950001
-0.03939211 -0.078090213 0.45950001
-0.038387191 -0.078090213 0.45950001
