# .PCD v0.7 - Point Cloud Data file format
VERSION 0.7
FIELDS x y z
SIZE 4 4 4
TYPE F F F
COUNT 1 1 1
WIDTH 1413
HEIGHT 1
VIEWPOINT 0 0 0 1 0 0 0
POINTS 1413
DATA ascii
0.58261627 0.05765212 0.055716272
0.59101874 0.057752904 0.055902217
0.59867853 0.057755418 0.054780595
0.60622376 0.057616107 0.053232871
0.61286241 0.060965598 0.052624825
0.61879045 0.061316546 0.051917486
0.41972893 0.06864775 0.049857214
0.4286623 0.067916162 0.050448392
0.43632504 0.067792356 0.05278261
0.44573128 0.06750156 0.054882821
0.45353872 0.066877171 0.055436615
0.46115306 0.066827051 0.055166665
0.46874475 0.066148639 0.055411279
0.48631665 0.065407149 0.05558506
0.49441984 0.06555336 0.055464063
0.50243992 0.06563843 0.055548288
0.51045758 0.065698497 0.055625673
0.51838559 0.069065638 0.05527455
0.52523613 0.066377692 0.055598345
0.54240918 0.065742783 0.055837777
0.59852749 0.065726526 0.055968042
0.60648829 0.065789767 0.054575596
0.61451119 0.065824993 0.053096764
0.62108487 0.066729575 0.052151419
0.62659544 0.068828888 0.050286382
0.4054592 0.077857502 0.049812522
0.41368327 0.078659162 0.050412051
0.42200422 0.074749276 0.050949391
0.42989713 0.075992279 0.054090653
0.43766916 0.075419985 0.054982603
0.44529575 0.074789807 0.055189185
0.45315227 0.074723259 0.055063564
0.46135899 0.074554719 0.054951038
0.46790585 0.07376045 0.055360384
0.47837636 0.073458545 0.055679109
0.48646358 0.073512681 0.055587918
0.49443933 0.073473185 0.055371936
0.50079769 0.075552545 0.055552531
0.50856692 0.074828528 0.055630159
0.51834911 0.076209873 0.055485282
0.52565712 0.073127925 0.055190645
0.53461748 0.073620915 0.055844091
0.55050755 0.073726349 0.055907872
0.61453062 0.073510744 0.053975578
0.62049961 0.074634515 0.051312651
0.6289342 0.075332478 0.050934523
0.6344015 0.076795071 0.04814887
0.40263277 0.084993377 0.050406303
0.41343218 0.084712334 0.052575469
0.42143279 0.083023548 0.05402806
0.42964152 0.08316502 0.05496712
0.43707877 0.082765475 0.054862589
0.44500521 0.082641341 0.054808997
0.45317844 0.082644902 0.05467454
0.46077418 0.082685061 0.05485953
0.47037271 0.08163058 0.055694692
0.47846606 0.081535101 0.055721469
0.48646405 0.081538491 0.055480264
0.49372393 0.08098045 0.055607494
0.49953535 0.082453057 0.055806484
0.51056308 0.081608109 0.055855207
0.51864958 0.081736982 0.055710968
0.52633983 0.081543334 0.055278473
0.53450781 0.081689477 0.055432469
0.54272312 0.081468672 0.055940781
0.55042821 0.081666619 0.05574178
0.61341178 0.083450936 0.05418843
0.62257791 0.081617199 0.053476777
0.62984306 0.082578771 0.052023921
0.6366089 0.083393693 0.049746487
0.64052647 0.087203205 0.049187507
0.40613735 0.090612046 0.050718289
0.41321343 0.091105364 0.0538316
0.42141017 0.091006294 0.055049073
0.42924282 0.090621971 0.055080142
0.43728966 0.090770468 0.054755956
0.44536015 0.09070906 0.054704532
0.45307979 0.090713218 0.054691043
0.45977968 0.090812147 0.055092014
0.47064665 0.089534052 0.055059519
0.47863862 0.089401528 0.055265404
0.48639485 0.089536235 0.054965623
0.49351263 0.090023927 0.055037346
0.49978042 0.088840149 0.055600848
0.51041889 0.089545757 0.055726703
0.51842451 0.089571819 0.055437591
0.52659374 0.08949066 0.055075102
0.53463173 0.089605458 0.055052374
0.54265624 0.089692585 0.055515893
0.55047792 0.089610651 0.055890616
0.59853071 0.08973176 0.055965569
0.60664541 0.08980412 0.055684324
0.62100148 0.091130368 0.051928014
0.63051814 0.089529395 0.052827843
0.63765168 0.090223238 0.051803861
0.64333445 0.09282352 0.050914787
0.40597448 0.099902138 0.050474714
0.41358611 0.098991886 0.053180046
0.42096651 0.098875485 0.054576181
0.42921969 0.098669551 0.054827932
0.43716305 0.098599471 0.054678593
0.44511306 0.098783799 0.054504577
0.45283341 0.098633081 0.054685507
0.4624911 0.097420402 0.054524872
0.47041088 0.097426407 0.05458153
0.47868294 0.097515747 0.054752558
0.48617482 0.099670313 0.054895204
0.49356025 0.097884052 0.05476198
0.50000143 0.097345017 0.055053517
0.51057535 0.097504929 0.055346213
0.51859277 0.09749525 0.055161513
0.52651072 0.097565785 0.055060633
0.53450322 0.097691007 0.055086486
0.54246205 0.097753458 0.055070516
0.55056328 0.097475357 0.055589233
0.60584092 0.097967416 0.055380672
0.61185193 0.098217696 0.054155901
0.62150335 0.099046566 0.052405365
0.62998909 0.098046906 0.050965808
0.63735712 0.10014156 0.050347302
0.64549154 0.098066032 0.051158253
0.65086609 0.10064047 0.049980782
0.36473063 0.1064639 0.049101148
0.37261102 0.10707198 0.048902426
0.39518777 0.10993609 0.052443713
0.41507667 0.10463853 0.052207761
0.42128313 0.10612165 0.053048048
0.42912701 0.10650145 0.054324072
0.43701813 0.10638843 0.054329891
0.4435899 0.10786916 0.05486374
0.45040929 0.10796046 0.054770682
0.46248296 0.1054272 0.054194573
0.47070283 0.1055249 0.054447945
0.47807354 0.1054496 0.054804415
0.48545697 0.10843921 0.054972943
0.49376863 0.10899407 0.054689791
0.50027329 0.10520051 0.054417107
0.51061672 0.10553562 0.054550685
0.51858497 0.10542916 0.054820426
0.52645636 0.1053388 0.054867156
0.53451115 0.1057704 0.054981537
0.5424996 0.10572261 0.054962896
0.55051136 0.1056421 0.055227127
0.55854511 0.10558008 0.055765748
0.57453203 0.10566098 0.05595047
0.58262324 0.10568511 0.055962943
0.59929651 0.11104936 0.055184074
0.60485995 0.10718799 0.055115968
0.61257684 0.10629679 0.054433286
0.62106276 0.10774627 0.054081213
0.63037229 0.1071927 0.052945234
0.63838869 0.10571186 0.053279765
0.6463142 0.10556138 0.051608048
0.65365642 0.106454 0.050565068
0.42255479 0.11326273 0.049901105
0.42746928 0.11622745 0.051671863
0.43591923 0.11629175 0.053844027
0.44313577 0.11582924 0.054854598
0.45517614 0.11250467 0.054285649
0.46319297 0.11612845 0.054178216
0.47066778 0.11360385 0.054045208
0.47838333 0.11333893 0.054047011
0.48547226 0.1144992 0.054136641
0.49528545 0.11514913 0.053936925
0.50196964 0.11364198 0.053984728
0.50787193 0.11663561 0.054004073
0.51842636 0.11363231 0.054799583
0.52646011 0.11345261 0.05521154
0.53457409 0.11384501 0.055086128
0.54250258 0.11358654 0.054940674
0.55045265 0.11371279 0.055191841
0.5584355 0.11371933 0.05540657
0.56659311 0.11359511 0.05558816
0.57458407 0.1137199 0.055649787
0.58259559 0.11367654 0.055842515
0.5904181 0.11372542 0.055503644
0.59759414 0.11566019 0.055327523
0.60519415 0.11494938 0.055037107
0.61304438 0.11467629 0.054806914
0.62152934 0.11528122 0.054357532
0.62892896 0.11470611 0.053284198
0.63827091 0.1145294 0.051680066
0.64570045 0.1152441 0.05021074
0.65452641 0.11347682 0.05125282
0.66107076 0.11449374 0.049857493
0.43010038 0.1223582 0.050091214
0.43520573 0.12466167 0.052320953
0.4415248 0.122671 0.05514193
0.4708302 0.12099802 0.053861354
0.47604659 0.12366955 0.05356336
0.48642036 0.12150801 0.053314094
0.49437481 0.12145846 0.053238563
0.50176215 0.12185127 0.053227063
0.50824773 0.1238912 0.053418756
0.51836067 0.12174309 0.054427885
0.52673715 0.12151741 0.055036031
0.53468329 0.12159766 0.054696534
0.54240447 0.12169863 0.05448788
0.55057973 0.12156951 0.055317316
0.55868906 0.12164851 0.055518538
0.56647682 0.12155313 0.055286821
0.57456487 0.12168652 0.05532584
0.58273321 0.12166101 0.05531428
0.59029198 0.12328732 0.055219207
0.59743226 0.12311434 0.054727647
0.60521758 0.12290914 0.054612726
0.61305714 0.1228122 0.05456242
0.62084675 0.12314229 0.054729544
0.62901282 0.12299335 0.054022949
0.63708276 0.12330271 0.052586742
0.64530247 0.12316334 0.051507559
0.65450883 0.12164105 0.052291594
0.66242617 0.12149466 0.050474115
0.66938925 0.12303226 0.049236618
0.43625587 0.13118869 0.051338557
0.47918078 0.12809844 0.053251777
0.48633006 0.12969942 0.052700844
0.49120092 0.13258371 0.052533329
0.50209469 0.12910746 0.052856691
0.50713974 0.13264042 0.053171515
0.51835591 0.12972255 0.053640369
0.52645302 0.1295533 0.054086514
0.53452927 0.12949644 0.054333083
0.54239553 0.12956214 0.054199331
0.55055803 0.12973641 0.054797582
0.55857986 0.12950735 0.055306464
0.56641215 0.12956654 0.055199675
0.57457089 0.12970729 0.055440418
0.58287281 0.13185649 0.055271093
0.58963221 0.13092467 0.0547355
0.59722131 0.13063967 0.054419436
0.60543513 0.13080819 0.054112993
0.61359668 0.13090567 0.054212555
0.62110531 0.13085002 0.054230317
0.62929726 0.13125345 0.053633526
0.63704264 0.13109687 0.053151168
0.64378595 0.13093537 0.052487731
0.65237856 0.13062975 0.050599661
0.6601882 0.13232225 0.050025616
0.67062616 0.12952226 0.051038031
0.67675924 0.13084684 0.049685583
0.43512219 0.13997036 0.05171714
0.49416161 0.13759874 0.052097533
0.49884903 0.14070855 0.052143876
0.51036793 0.13742392 0.053072605
0.51834124 0.13759553 0.053360794
0.52642292 0.13765933 0.053455718
0.53460699 0.13745312 0.053722061
0.54259616 0.13753484 0.054015465
0.55055195 0.13768041 0.054341916
0.55846554 0.13761228 0.054780658
0.56671357 0.13765694 0.055148564
0.5747146 0.13762949 0.054959066
0.58142519 0.1394645 0.054569393
0.589185 0.13865852 0.054256514
0.5975346 0.13876033 0.053972892
0.60560328 0.1388409 0.053850506
0.61316204 0.13878089 0.053818807
0.6210717 0.13869351 0.053790763
0.62948638 0.13909914 0.053505071
0.63765502 0.13879395 0.053162977
0.6466558 0.13817026 0.05181732
0.65348506 0.13918681 0.051626142
0.66151381 0.13899066 0.051191755
0.67054266 0.13766836 0.052647974
0.67792332 0.14061552 0.050113585
0.68254423 0.13747258 0.048056837
0.43154484 0.15109171 0.052451022
0.43299964 0.14696907 0.052771714
0.49501657 0.14430319 0.055886749
0.50140929 0.14684604 0.053635724
0.50599855 0.14951834 0.05282687
0.51519817 0.1449869 0.052522864
0.52623582 0.1454315 0.052882638
0.53441757 0.14564598 0.053214788
0.54239148 0.14562811 0.053610768
0.55054027 0.14557141 0.053959336
0.55855656 0.14558619 0.054194394
0.56646222 0.14566649 0.054544441
0.57436293 0.14711405 0.054558016
0.58138394 0.14702772 0.05403446
0.58936763 0.14694093 0.053894728
0.59742212 0.1467531 0.053692847
0.60576338 0.14695685 0.053750649
0.61366367 0.14694144 0.053469598
0.62149483 0.14674552 0.05313706
0.62919062 0.14648125 0.052993163
0.63718927 0.14689082 0.052923221
0.64557993 0.14725235 0.052548826
0.6530143 0.14671546 0.052172266
0.66108197 0.14682014 0.051082108
0.66792232 0.14799355 0.049375009
0.42915085 0.15692376 0.051563047
0.50949144 0.15419708 0.053311765
0.51618916 0.1559518 0.051355962
0.52644187 0.15347345 0.051794179
0.53450435 0.15343584 0.052495085
0.54254007 0.15364301 0.053181525
0.55059147 0.15357752 0.053626128
0.55853587 0.15352391 0.053715948
0.56641936 0.15613352 0.054461628
0.57343191 0.15481727 0.054180473
0.58135009 0.15465434 0.053795673
0.58920532 0.15483595 0.053410564
0.59749365 0.1550047 0.053411298
0.60525054 0.15517652 0.053533614
0.61281562 0.15482439 0.053146306
0.62124729 0.15484405 0.052713256
0.62933016 0.15482782 0.052629493
0.63717312 0.15458305 0.052564178
0.64521378 0.1550668 0.052089427
0.65275109 0.15462163 0.051105376
0.65959835 0.15482508 0.049137313
0.42604426 0.16450281 0.052557342
0.51643914 0.16139722 0.052571464
0.52525955 0.16266115 0.051083021
0.53426546 0.16145517 0.051800583
0.54228407 0.16151625 0.052357938
0.55042785 0.16149251 0.053056773
0.55892843 0.16398697 0.054410443
0.56549984 0.16309254 0.053779639
0.57297838 0.16306028 0.053649254
0.58101493 0.16252996 0.053522199
0.58907598 0.16308051 0.052807126
0.59706247 0.16278943 0.05283761
0.60522026 0.16252185 0.052784946
0.61316735 0.16300903 0.05249346
0.621243 0.1627637 0.05234715
0.62927908 0.16310455 0.052205425
0.63724828 0.16254546 0.051585063
0.64528042 0.16428156 0.050230037
0.65128034 0.16091794 0.04892379
0.42238739 0.17203082 0.050900135
0.51513606 0.1704257 0.05131302
0.52473634 0.17010079 0.050309453
0.53107917 0.17078215 0.050796136
0.54244369 0.1695434 0.051813271
0.55059606 0.16962463 0.05237148
0.55790454 0.17126653 0.053495806
0.56528229 0.17088127 0.053146217
0.57326669 0.17088084 0.052943379
0.58140522 0.17088574 0.052827265
0.58925718 0.17086864 0.0526217
0.59753573 0.17059532 0.052637864
0.60547614 0.17076091 0.052457087
0.61326408 0.17055336 0.052186571
0.62134176 0.17107558 0.051758889
0.62931192 0.17080809 0.051280022
0.63659704 0.17171244 0.049495649
0.3342393 0.17613111 0.05158814
0.41898128 0.18001255 0.052599661
0.51716495 0.17772205 0.051657673
0.52619416 0.17732812 0.049679603
0.53205615 0.17909938 0.050046775
0.54246712 0.1775216 0.051334802
0.5503763 0.17959039 0.053232189
0.55731195 0.17862706 0.052804388
0.5653469 0.17899773 0.052606329
0.57317388 0.17902975 0.05243668
0.58129364 0.17875628 0.052299023
0.58949745 0.17876466 0.05237104
0.59737194 0.17862408 0.052533858
0.60531765 0.17880706 0.052005559
0.61364275 0.1786778 0.051704533
0.62120295 0.17881288 0.051047631
0.62841666 0.17933412 0.04907525
0.3337681 0.18660687 0.049235102
0.33965415 0.19162819 0.05138031
0.41455337 0.18918037 0.051433712
0.41647381 0.18523449 0.052306198
0.51610702 0.18605264 0.051518563
0.52537107 0.18773746 0.049567357
0.53443903 0.1854887 0.050199684
0.54309428 0.18791735 0.05288361
0.54966098 0.18707393 0.052177727
0.55743313 0.18661752 0.051946294
0.56540185 0.18683988 0.051951941
0.57318771 0.1867705 0.051845577
0.58157706 0.18684681 0.052054871
0.58949834 0.18674326 0.052352622
0.59742725 0.18688533 0.052073482
0.60518408 0.1867893 0.051326282
0.61316478 0.18634249 0.050762679
0.61984944 0.18555878 0.049056433
0.34076917 0.19930482 0.050692461
0.41123626 0.19703673 0.053356431
0.51630002 0.19321643 0.05102675
0.52663738 0.19348526 0.049733195
0.53460687 0.19338618 0.050106518
0.54154348 0.19524136 0.051916037
0.54921317 0.19494329 0.051336907
0.55703783 0.1945686 0.051456034
0.56499493 0.19484416 0.051581092
0.57311845 0.19483547 0.05147516
0.58100998 0.1947239 0.051702492
0.58895737 0.19480029 0.051828172
0.59737235 0.19491437 0.051185802
0.6051318 0.19622885 0.049305294
0.61167842 0.19268927 0.048693117
0.33788157 0.20372352 0.048510626
0.34856799 0.20291544 0.054328322
0.40721184 0.20601712 0.05302716
0.40902928 0.20203616 0.053504705
0.51705152 0.20151724 0.05125704
0.52645153 0.20138775 0.049979504
0.53439468 0.20320159 0.052179065
0.54120976 0.20264097 0.050950155
0.54924297 0.20275125 0.050785657
0.55743259 0.20272404 0.051031385
0.56532437 0.20272215 0.051221292
0.57327384 0.20279881 0.051179565
0.58135092 0.20287754 0.051441748
0.58919501 0.20276774 0.051203333
0.59658098 0.20232166 0.049659956
0.34221312 0.20838359 0.049823496
0.35400483 0.20899452 0.055922385
0.40505216 0.21090768 0.053213652
0.51693916 0.20943215 0.051165871
0.526815 0.21141474 0.052065209
0.53344041 0.21073829 0.050976098
0.54116893 0.21075897 0.050463621
0.54915112 0.21075311 0.050696697
0.55695057 0.21061948 0.050796743
0.56510758 0.21070871 0.050696202
0.57325476 0.21059309 0.050782375
0.58124053 0.21069466 0.050486289
0.58902735 0.20985036 0.049282506
0.39946556 0.22248088 0.051351137
0.40159982 0.21805499 0.051651504
0.51562387 0.21907498 0.052569881
0.52588296 0.21894325 0.051160548
0.53322405 0.21872987 0.050592691
0.54105431 0.2186687 0.050426032
0.54931992 0.21875268 0.050505016
0.55741274 0.2186799 0.050475985
0.56528753 0.21867914 0.050252348
0.57321489 0.21879904 0.049816273
0.58035374 0.21764833 0.048656136
0.36027241 0.23162064 0.051662389
0.39697033 0.22769281 0.051530097
0.51634771 0.22663808 0.052314278
0.52495623 0.22683886 0.050596625
0.53307873 0.22669148 0.050362892
0.54130125 0.22680546 0.050317146
0.54910278 0.22676717 0.050391223
0.55716628 0.22667095 0.050313164
0.56499785 0.22671568 0.049428523
0.56964427 0.22550854 0.048715815
0.36620399 0.23972465 0.055955593
0.39064634 0.23987985 0.049595084
0.39354613 0.23522207 0.052824438
0.50983864 0.23693933 0.052038912
0.51793116 0.23613323 0.0495128
0.52498257 0.23486768 0.049883652
0.53309399 0.23478098 0.04994892
0.54121 0.23467802 0.050138641
0.54914099 0.23490775 0.050077941
0.55690163 0.23437725 0.049162526
0.5612852 0.23329149 0.048353709
0.35464981 0.24464625 0.050355859
0.36534739 0.247601 0.055317588
0.38940004 0.24377701 0.052879684
0.50237459 0.24600278 0.052778754
0.50504607 0.24259923 0.051954132
0.52547503 0.24262646 0.049178123
0.53309625 0.24272549 0.049966965
0.54104877 0.24297644 0.049861271
0.54887176 0.24253976 0.049019236
0.55285054 0.24030933 0.048533257
0.36178857 0.24842855 0.053348117
0.38378578 0.25496861 0.048960354
0.38571236 0.25162986 0.052488633
0.49891511 0.25103262 0.052095771
0.52709717 0.24915349 0.048744276
0.53308016 0.25063473 0.049288332
0.54092509 0.25019264 0.048793893
0.54419607 0.24856438 0.048680998
0.37016252 0.25835994 0.051750302
0.38176894 0.26042199 0.051837452
0.4922967 0.25974306 0.050717846
0.36455619 0.26401684 0.048897058
0.36838233 0.26996759 0.051497795
0.37723565 0.26735419 0.053931646
0.4148398 0.27067363 0.054342892
0.42055562 0.26755479 0.052498754
0.42815587 0.2672331 0.051267378
0.43299893 0.26967862 0.052744929
0.48474547 0.26830903 0.051211495
0.4887237 0.26507065 0.050548639
0.366878 0.27506039 0.049491659
0.37425926 0.27666196 0.052673738
0.37650961 0.2740308 0.054205269
0.4130078 0.27613437 0.054462492
0.41978842 0.27625203 0.051602691
0.42818159 0.27596995 0.051492482
0.43344313 0.27427325 0.05400259
0.47707969 0.27689344 0.052726634
0.48108295 0.27509502 0.051526304
0.3656621 0.28096136 0.048084054
0.37309492 0.28431243 0.051047496
0.37949303 0.28451514 0.053625524
0.38863868 0.28539088 0.055508249
0.41404054 0.28398189 0.05492533
0.41970685 0.28459337 0.054514177
0.42665339 0.28257585 0.054389656
0.47199419 0.28598329 0.055967398
0.47405151 0.28246078 0.051076934
0.3725166 0.29203105 0.050211612
0.38124141 0.2903229 0.052269906
0.38854855 0.29132551 0.054877028
0.4673852 0.29213271 0.05145143
0.37438023 0.29663137 0.048645794
0.38067463 0.29952177 0.050279614
0.38873652 0.29962599 0.051163923
0.39594057 0.29976225 0.055194583
0.40308449 0.30111572 0.05563638
0.46193254 0.30049539 0.050815705
0.38392904 0.30412683 0.04892474
0.38876393 0.3060689 0.051256604
0.39666298 0.30729911 0.052559525
0.4035089 0.30909199 0.055264499
0.45486283 0.31038344 0.054111686
0.45752659 0.30690038 0.050942779
0.399064 0.3130945 0.050865266
0.40503114 0.31424156 0.052634131
0.41099983 0.31675127 0.052765153
0.41714597 0.31893969 0.051906358
0.45154944 0.31561074 0.05196254
0.40739673 0.3213208 0.049615473
0.4136132 0.32130885 0.053224005
0.41980159 0.32311958 0.053620253
0.42719394 0.32590875 0.050715081
0.43376401 0.32737413 0.048394665
0.44450098 0.32492125 0.051778227
0.4482148 0.32178804 0.050244715
0.41541144 0.32844627 0.049227357
0.42193988 0.33047092 0.050908469
0.42936277 0.32957253 0.054409828
0.43624222 0.33353877 0.051658612
0.44197559 0.32961583 0.050215542
0.42759067 0.33734667 0.04897362
0.52227396 -0.020653037 0.057879917
0.51346582 -0.0020167695 0.057219472
0.53497624 0.0019072191 0.056362845
0.52667207 0.0095417053 0.056787875
0.53447443 0.0093790898 0.056424439
0.51841193 0.017447574 0.056311462
0.52664155 0.017547993 0.056882136
0.53455114 0.017791511 0.056840777
0.54252005 0.017331427 0.056323472
0.49956927 0.02509341 0.056799654
0.51037127 0.025685105 0.056361206
0.51872164 0.025463047 0.056497701
0.52661157 0.025594624 0.056671973
0.53440994 0.025791321 0.056673471
0.54076433 0.025007682 0.056815062
0.54673332 0.026939997 0.056628499
0.48883745 0.033710063 0.057636175
0.50248641 0.033631001 0.056508146
0.51048636 0.033691604 0.056485824
0.51849073 0.033636186 0.056280758
0.52650851 0.033415172 0.056309793
0.53438705 0.033585876 0.056115143
0.54258794 0.033734005 0.056237765
0.575284 0.034397509 0.056027677
0.48238891 0.044278916 0.058370028
0.48807809 0.040748801 0.061788507
0.50247914 0.041360568 0.05601225
0.5105049 0.041399363 0.056093898
0.51855898 0.041603055 0.056038674
0.52662331 0.041526679 0.056088153
0.54744565 0.0421413 0.056106273
0.57466006 0.041449726 0.056514803
0.58157891 0.042093132 0.056084685
0.47781163 0.053710308 0.059366763
0.48299691 0.050281588 0.063926078
0.50244421 0.049283348 0.056027409
0.51034093 0.049621895 0.056223217
0.51827478 0.052408636 0.056203671
0.52956372 0.052498784 0.056001
0.55060238 0.049780838 0.056149904
0.55884618 0.049678914 0.05644127
0.47058624 0.057488773 0.056225412
0.47668937 0.057263553 0.056657933
0.50994277 0.056819793 0.056222551
0.51516515 0.059997331 0.056164924
0.52674633 0.057841949 0.056062989
0.53449875 0.057766233 0.056098644
0.54249483 0.057582948 0.056017246
0.5503853 0.057575401 0.056023858
0.55857307 0.05766046 0.056766752
0.5667004 0.057692084 0.05692298
0.57436562 0.05761179 0.056039475
0.47070593 0.065794177 0.056559499
0.47604913 0.065185279 0.058224443
0.53461701 0.065556161 0.056041721
0.55054569 0.065627225 0.056125764
0.55851692 0.065684311 0.056442823
0.56663746 0.065446742 0.057035659
0.57464916 0.06575755 0.057032079
0.58239931 0.065840453 0.056348082
0.59054393 0.065674894 0.056034438
0.4686856 0.073447473 0.059281491
0.54251784 0.073643036 0.056083024
0.55858159 0.073432185 0.056184672
0.56646419 0.073716402 0.056628402
0.57468635 0.073659562 0.057180669
0.5825457 0.073812269 0.056461904
0.590491 0.073653869 0.056101598
0.59836966 0.073563345 0.056282666
0.60666817 0.073670126 0.056098226
0.60973859 0.075565375 0.063556127
0.42522076 0.085520566 0.056018118
0.46300432 0.08203128 0.056167014
0.46523076 0.081607796 0.059944507
0.55857104 0.08144182 0.05601728
0.56650788 0.081708215 0.056231029
0.57462001 0.081654839 0.056772862
0.58281565 0.081625432 0.057201199
0.59045404 0.08173918 0.056324847
0.59869057 0.081636108 0.056157999
0.6065678 0.081638761 0.056340165
0.46115205 0.089245334 0.058807757
0.55844402 0.089580126 0.05610574
0.56656808 0.089749455 0.056157324
0.5745697 0.089671738 0.056289557
0.58294386 0.089662082 0.057514872
0.59053636 0.089795411 0.05695292
0.61474156 0.08985471 0.056191213
0.45480293 0.099391833 0.056565765
0.45772985 0.097327918 0.059591047
0.55865008 0.097624406 0.056098942
0.56671637 0.097849317 0.056272954
0.57455963 0.097663216 0.056195412
0.58261353 0.097812824 0.056629896
0.59071249 0.097563997 0.056992408
0.59907621 0.0990014 0.05793732
0.60122782 0.097787015 0.058572821
0.37328765 0.11104286 0.058478352
0.42007807 0.10953867 0.057917859
0.42951286 0.11037616 0.058818847
0.43515566 0.109459 0.056544449
0.45244652 0.10701393 0.058914099
0.56656951 0.10578083 0.056014631
0.59063536 0.10562633 0.056162722
0.59794706 0.10785766 0.056898609
0.38165548 0.11235105 0.060208734
0.39050215 0.11328869 0.06074547
0.39738131 0.11368567 0.060198393
0.40574768 0.11406887 0.060090549
0.42243117 0.11282574 0.061433919
0.43861192 0.11254359 0.059901122
0.44670156 0.11514261 0.057935864
0.45167071 0.1157591 0.059561614
0.45743111 0.11859135 0.061174069
0.58902025 0.11620907 0.062789075
0.59298086 0.11575155 0.057708476
0.44437504 0.12346552 0.058889922
0.46293357 0.12087382 0.057977226
0.46838143 0.12422211 0.057059884
0.47257036 0.12725984 0.057409581
0.58797747 0.1221518 0.058729641
0.43897864 0.13177162 0.056460563
0.44141752 0.13110679 0.060332034
0.47820142 0.1312332 0.056730933
0.48204195 0.13423622 0.059696369
0.58113879 0.13119401 0.059606906
0.58540416 0.12830044 0.056573026
0.43686798 0.13961549 0.059212033
0.48642185 0.13742179 0.056191597
0.49354091 0.14255992 0.060476072
0.57552058 0.13916256 0.059763201
0.57638884 0.13801248 0.059271518
0.43386561 0.14750224 0.060649514
0.50503629 0.15077168 0.062822469
0.56533796 0.15178658 0.061824385
0.57064039 0.14613952 0.059581101
0.4303861 0.15580182 0.059920363
0.51060605 0.15482758 0.063526265
0.51467085 0.15890612 0.061645202
0.55927092 0.15910186 0.063843675
0.56347638 0.15700088 0.058658335
0.42702433 0.16426142 0.060046025
0.51825613 0.16216527 0.063413896
0.55571741 0.16614746 0.06101346
0.56078577 0.16264747 0.056724541
0.34325951 0.17132317 0.057507839
0.35259074 0.16815403 0.063201346
0.42236254 0.1749884 0.058883496
0.42468169 0.17009093 0.060702112
0.51787186 0.16977228 0.058984581
0.5508399 0.17368558 0.060436305
0.55579954 0.16969219 0.056867357
0.35035247 0.17802009 0.059940547
0.42008775 0.1807151 0.060965445
0.52031833 0.17794529 0.061507639
0.54678386 0.18061474 0.059337761
0.34900296 0.18809223 0.057154987
0.35277578 0.19135319 0.058523677
0.4153257 0.19081742 0.060390409
0.41713613 0.18687929 0.06020809
0.52040434 0.18620776 0.06134617
0.54036325 0.18962267 0.060015436
0.54490113 0.18613708 0.056635909
0.35077602 0.19852215 0.056118842
0.3597801 0.19996966 0.060718231
0.41274312 0.19617738 0.06021709
0.51994342 0.19428 0.061049819
0.53489 0.19670595 0.061389264
0.53820711 0.19559111 0.05676413
0.36612061 0.20335567 0.063567407
0.40964887 0.20315371 0.061349545
0.51960021 0.20227394 0.061363522
0.53119653 0.20372656 0.059147187
0.35657337 0.20922014 0.057374295
0.36541897 0.21365854 0.060757272
0.36879233 0.20988896 0.063742049
0.40541095 0.21188201 0.060295854
0.51850039 0.2101437 0.061303131
0.5252251 0.21194051 0.05949951
0.36517882 0.21635249 0.059904192
0.40181282 0.2197316 0.059417196
0.51650155 0.22024138 0.061879221
0.52142197 0.21953903 0.056493547
0.36229315 0.22583781 0.05651829
0.37254918 0.2295011 0.05949337
0.39846084 0.2275078 0.060285483
0.51068336 0.23111019 0.061634097
0.5133639 0.22692519 0.059944093
0.37388301 0.23576787 0.058948927
0.3810418 0.23218526 0.063181274
0.39498118 0.23526789 0.060527716
0.50740469 0.23545142 0.060474772
0.5126555 0.23229966 0.056085788
0.37132609 0.24246083 0.05919987
0.37802765 0.2452645 0.062377628
0.39025953 0.2449819 0.059656449
0.39242274 0.24064539 0.060188945
0.50257778 0.24309376 0.060085651
0.50558949 0.24072371 0.057779282
0.37329131 0.25049183 0.058227871
0.38007212 0.25064683 0.061397865
0.38724157 0.25190946 0.0605992
0.494147 0.25416616 0.059605621
0.49826622 0.24996413 0.059559509
0.3829644 0.26156613 0.060251527
0.38498977 0.2586101 0.061007004
0.48749116 0.26283884 0.059641056
0.49114048 0.25886557 0.059713874
0.38149166 0.26862893 0.061074134
0.38661525 0.2673361 0.061639208
0.41313595 0.2697759 0.06066668
0.42015988 0.26768598 0.059895571
0.42773077 0.26936981 0.059889875
0.43265444 0.27106199 0.057175901
0.48362827 0.2674607 0.059925895
0.37591392 0.27838537 0.056319594
0.38093075 0.27525079 0.057926327
0.38752988 0.27429593 0.060231999
0.39644247 0.27629676 0.063422881
0.40539044 0.27724895 0.061721716
0.40959603 0.2743257 0.058726903
0.43120044 0.27300787 0.062470384
0.43352729 0.27564594 0.059818931
0.47651067 0.27590129 0.059902817
0.48125976 0.27242902 0.057918731
0.37576392 0.28133532 0.056078725
0.38065794 0.28302267 0.057129536
0.38957438 0.28250289 0.058781687
0.39720261 0.28280318 0.061097767
0.4048304 0.28287202 0.061777588
0.40968794 0.28326854 0.056428071
0.42353159 0.28792068 0.056454185
0.42981103 0.28525147 0.058896743
0.43269607 0.2821615 0.061147746
0.47121903 0.28371733 0.060404092
0.47405595 0.28158626 0.059969101
0.38930619 0.2910744 0.057132185
0.3974205 0.29062214 0.058054242
0.40397787 0.29259205 0.058787882
0.41295499 0.29094267 0.060220454
0.41981518 0.29252106 0.061131768
0.42660594 0.29169086 0.061106145
0.46665728 0.29068425 0.059067611
0.39116734 0.29700854 0.05625046
0.3964937 0.29934266 0.057544257
0.40515867 0.29878449 0.058611061
0.41139218 0.30061382 0.059404302
0.42002723 0.29953325 0.062420383
0.42472929 0.29717377 0.063454561
0.46038416 0.30013046 0.058307204
0.39870837 0.30592284 0.05650112
0.40432426 0.30791494 0.057863034
0.41299635 0.30726022 0.059873696
0.42103311 0.30743963 0.062381852
0.42478329 0.31140938 0.063639663
0.45325306 0.30984923 0.061039742
0.45649099 0.30602294 0.059097618
0.40632513 0.31383392 0.05688196
0.41374061 0.31425935 0.057640132
0.42130324 0.31491923 0.060253318
0.42759919 0.31592798 0.062445875
0.43320346 0.31284595 0.063901663
0.44699526 0.31830117 0.060802218
0.45071331 0.31473356 0.058821246
0.41438797 0.32118258 0.056977477
0.42187312 0.32272437 0.057568483
0.42927375 0.32287514 0.060658753
0.43675119 0.32476956 0.062195625
0.44390711 0.32255402 0.060256757
0.42361644 0.32836965 0.057514552
0.42848331 0.33015504 0.059177615
0.43722039 0.33042422 0.058494944
0.44049829 0.32815543 0.058111422
0.50939077 0.0076868422 0.068220071
0.49609661 0.035645962 0.070903622
0.48029876 0.054753691 0.06432014
0.47317594 0.069437973 0.065944128
0.61338925 0.068586059 0.066579424
0.47033957 0.076803327 0.06824822
0.47225505 0.073300786 0.069036581
0.4666917 0.084040731 0.067867689
0.46218115 0.093158156 0.067287318
0.59677118 0.092002705 0.071644954
0.45825118 0.1016385 0.067602433
0.45441586 0.10991526 0.06792479
0.58678299 0.10892774 0.070598729
0.38181537 0.11690079 0.071090244
0.39032701 0.11686666 0.069475599
0.3969242 0.11769487 0.070266716
0.40632433 0.11883349 0.07127326
0.41503614 0.11804651 0.067675143
0.42735758 0.11701768 0.066717274
0.4395929 0.11657979 0.066962175
0.44536948 0.11835653 0.068450227
0.45095965 0.11756529 0.068727382
0.5852657 0.11474002 0.068421938
0.44611141 0.12687422 0.067646891
0.44874328 0.12215699 0.068495058
0.45973665 0.12132502 0.067164332
0.4689588 0.12519111 0.067000449
0.4726668 0.12748002 0.065662622
0.57867676 0.12733577 0.068991117
0.44351956 0.13247775 0.068071447
0.47842354 0.13121136 0.065999202
0.48295754 0.13407868 0.066904135
0.57740736 0.13098805 0.067485206
0.43862295 0.14193548 0.067281604
0.44106314 0.13759589 0.068155997
0.48721796 0.13726157 0.065313779
0.49218562 0.14076991 0.065339297
0.57158428 0.13930102 0.067697711
0.4355748 0.14835614 0.067557238
0.50177628 0.14790523 0.064876735
0.566643 0.14641629 0.067509942
0.43033618 0.15860932 0.066919632
0.4331834 0.15461813 0.069835432
0.51150537 0.15323001 0.071511321
0.51502985 0.1576155 0.065406702
0.55729824 0.15757118 0.071949519
0.56142735 0.15388645 0.067551076
0.3630195 0.16533349 0.069478504
0.42806748 0.16429496 0.067960121
0.5226534 0.16203579 0.07110925
0.55434394 0.1636551 0.068381377
0.35746986 0.17172515 0.065154485
0.36123663 0.17507197 0.066506535
0.42357585 0.17420934 0.066744559
0.42570156 0.16974309 0.068799563
0.52564442 0.1705935 0.068394668
0.54839832 0.17181168 0.069131166
0.36555153 0.17981678 0.067814805
0.42105764 0.18061969 0.068562247
0.52573377 0.17855598 0.068029948
0.54171187 0.18210436 0.067823261
0.54495245 0.17814375 0.066601209
0.36365852 0.18951859 0.06478519
0.37717962 0.19083244 0.071808077
0.41779584 0.18845895 0.06913995
0.52527338 0.18602481 0.067391187
0.53594261 0.18966578 0.069239087
0.53860289 0.18786851 0.065671451
0.41415304 0.19635129 0.068276525
0.52466351 0.19379774 0.067484044
0.5322268 0.19621357 0.067542545
0.37565231 0.20258154 0.06876003
0.37878016 0.20773397 0.069566876
0.41002825 0.20488045 0.06749513
0.5243724 0.20350777 0.068477929
0.52843165 0.20395532 0.064724408
0.38042784 0.21184468 0.069455162
0.40607002 0.21324337 0.067445822
0.40824372 0.21008727 0.070737951
0.51882362 0.21377574 0.07193201
0.52129036 0.21113898 0.068349309
0.37421232 0.22315286 0.064713113
0.37882221 0.21872889 0.067006327
0.40263245 0.22061755 0.067566641
0.51581508 0.21935432 0.068194412
0.38552669 0.22478917 0.070301004
0.3987788 0.22958516 0.06868314
0.40069193 0.22544315 0.068959601
0.50972915 0.22884054 0.068469219
0.5120554 0.22727075 0.065036528
0.39519754 0.23534185 0.069467224
0.50313401 0.23877929 0.067241572
0.50570726 0.23523633 0.067708306
0.38267115 0.24115559 0.064610071
0.39159557 0.24607767 0.067165039
0.39328781 0.24297453 0.069773585
0.50034201 0.24433281 0.066912495
0.39007095 0.25282729 0.068688937
0.39505807 0.25056764 0.070537589
0.49291807 0.25244513 0.068770088
0.49658683 0.24944514 0.067336239
0.39019275 0.2583549 0.065788925
0.3967787 0.26098368 0.068348937
0.40306172 0.25986078 0.070448413
0.48592257 0.26189399 0.068941325
0.4905014 0.25805622 0.067148775
0.3894234 0.26707387 0.065223247
0.3960067 0.26716557 0.066339314
0.40345213 0.26810065 0.068101898
0.4127931 0.2685056 0.070362724
0.42000052 0.26983869 0.068027742
0.42597628 0.27115777 0.06564527
0.4786 0.27102157 0.070077069
0.48310974 0.2667264 0.067297779
0.39086765 0.27315509 0.064265572
0.39652827 0.27527669 0.065399416
0.40487865 0.27479559 0.066077664
0.41479182 0.27456042 0.069262318
0.42275497 0.27375293 0.071403079
0.42870426 0.27536705 0.068596415
0.43254083 0.27833161 0.064683311
0.47537652 0.2754319 0.067458905
0.41419128 0.28282931 0.065114915
0.42300084 0.281739 0.068750747
0.43060091 0.28328812 0.070379026
0.43237212 0.28330219 0.065949105
0.46893343 0.28488585 0.067217521
0.47225526 0.28163698 0.065776132
0.42293379 0.28928038 0.065877683
0.43112126 0.2910805 0.068850711
0.43767142 0.29275659 0.071139984
0.46258539 0.2936286 0.068868011
0.46519113 0.29038224 0.067324698
0.42311341 0.30230507 0.064947762
0.42815521 0.29854357 0.066679448
0.43630978 0.30057257 0.070367515
0.44280168 0.29873529 0.071580537
0.45465016 0.3036567 0.069983728
0.45891881 0.29941002 0.067193486
0.42225701 0.3063066 0.064612262
0.42965773 0.30701566 0.065703876
0.43764266 0.30718973 0.06872981
0.444419 0.30870187 0.070484437
0.45211655 0.30733484 0.0685772
0.42960268 0.31533006 0.064868748
0.43760827 0.3154186 0.066196769
0.44558075 0.31526303 0.067575894
0.44855124 0.31435537 0.065049112
0.43195599 0.32055211 0.064259164
0.43639189 0.3227677 0.065381378
0.44132379 0.32181492 0.066105247
0.52150589 -0.010843596 0.075440101
0.51570535 -0.00010372787 0.074110366
0.50354576 0.021227686 0.07376159
0.4992153 0.030303895 0.075073659
0.48302266 0.059912268 0.072994031
0.61292356 0.062460307 0.079710893
0.47808078 0.067810826 0.073391646
0.48179889 0.064354092 0.076230407
0.61142546 0.068369009 0.074785165
0.47167784 0.077640116 0.073396079
0.47359586 0.075424559 0.074314594
0.46504688 0.090584561 0.073966719
0.59693903 0.089889817 0.076222502
0.46107575 0.099679649 0.075887091
0.45729595 0.10776879 0.076475449
0.5834356 0.1106149 0.076811574
0.37533969 0.11881561 0.075374641
0.45381618 0.11522085 0.076904185
0.57689023 0.11986423 0.078638829
0.39380759 0.12086613 0.078581803
0.4083297 0.12238818 0.079481713
0.42491099 0.12213891 0.075526066
0.43273333 0.12358953 0.077571757
0.44518486 0.12244179 0.075824581
0.45278499 0.12265357 0.075321674
0.46303096 0.12539464 0.076622106
0.46897891 0.12580799 0.072392292
0.47209316 0.12786727 0.07517916
0.57678628 0.12520234 0.072852649
0.44592193 0.13177437 0.076433025
0.47842833 0.13087898 0.073944725
0.48356146 0.13388647 0.074659318
0.44187051 0.13972838 0.075254746
0.48791391 0.13660829 0.07327994
0.49416021 0.14069305 0.072914355
0.49790484 0.14325844 0.072586142
0.568681 0.13750042 0.075688265
0.37532943 0.14697467 0.079069935
0.4373388 0.14890946 0.075083904
0.50285578 0.14681633 0.072464205
0.50782436 0.15014607 0.073591016
0.563936 0.14687012 0.074330397
0.37674072 0.15618481 0.078772418
0.4338071 0.15596546 0.074611969
0.51781291 0.15677021 0.076010577
0.52250379 0.15933268 0.078586541
0.55756354 0.15551345 0.076005392
0.3745603 0.1602162 0.077050485
0.42995784 0.16475926 0.076336078
0.43282634 0.1601785 0.079140149
0.5278089 0.16336231 0.078536384
0.54910588 0.16701463 0.077161349
0.55358869 0.16134237 0.075384103
0.37099195 0.17211129 0.072431117
0.3805103 0.16927482 0.078205459
0.42616728 0.17238033 0.076095134
0.53249842 0.17050312 0.076732293
0.54464918 0.17347974 0.076915838
0.37801617 0.17922863 0.074730039
0.42250878 0.17983876 0.07585644
0.5326038 0.178625 0.076614529
0.54074842 0.17985129 0.075302698
0.38824221 0.19054511 0.077824742
0.41884282 0.18814529 0.076329716
0.53287578 0.18710797 0.077077173
0.53775954 0.18562725 0.07214281
0.38183001 0.19537467 0.073368929
0.39222211 0.1949361 0.079032719
0.41492027 0.19711687 0.075834565
0.41690347 0.19233774 0.075704426
0.52677584 0.19851412 0.078560062
0.52975595 0.19472007 0.076076269
0.38776523 0.20237315 0.075201638
0.41194004 0.20403434 0.075762741
0.52347934 0.20398778 0.076744169
0.39013985 0.20970617 0.075138845
0.4072316 0.21369866 0.07377594
0.40924829 0.2109742 0.077358477
0.51845276 0.21213984 0.0765673
0.390636 0.21805438 0.073433697
0.39726451 0.21910796 0.076570913
0.40479472 0.22035347 0.076102018
0.44622615 0.22208473 0.079175495
0.45193142 0.22132218 0.078623585
0.45620918 0.2233831 0.079532512
0.51075548 0.2233133 0.076312043
0.51454014 0.21860164 0.076241888
0.39671901 0.22853078 0.073575884
0.40240338 0.22923848 0.076480955
0.44518572 0.2279065 0.078889899
0.45191652 0.22786394 0.078838296
0.45636845 0.22578825 0.079691552
0.50793284 0.22908308 0.076190084
0.39807957 0.23686171 0.075629689
0.40458927 0.23547144 0.077090308
0.44510126 0.23335743 0.079577811
0.50121826 0.23756209 0.07569591
0.50501543 0.23374076 0.074512318
0.39726529 0.24378794 0.073632136
0.4056896 0.24357265 0.077164471
0.4123525 0.24438705 0.079717547
0.49487233 0.24679054 0.075073659
0.49893069 0.24353017 0.075860567
0.39675614 0.25149584 0.07332433
0.40466341 0.2521148 0.074434057
0.41156229 0.25093746 0.077274255
0.49277386 0.25268918 0.075231865
0.39861301 0.25820288 0.072569586
0.4040511 0.25985673 0.073419392
0.41249725 0.25999916 0.07470192
0.4196243 0.2593179 0.077486336
0.42424726 0.26387095 0.079981238
0.48523089 0.25961211 0.076481335
0.48843104 0.25927186 0.0757479
0.40770811 0.26481009 0.072201908
0.41264847 0.26694402 0.073659115
0.42028823 0.26695767 0.074609093
0.42907229 0.26796794 0.078155033
0.43660301 0.2684004 0.079785667
0.47764012 0.2695899 0.077505939
0.48210785 0.26598179 0.075174883
0.4234049 0.27235112 0.073271744
0.42741436 0.27435711 0.074528582
0.43557024 0.27551419 0.077538408
0.44230324 0.27783132 0.079873562
0.47036165 0.27903202 0.077750511
0.47460154 0.27452734 0.075341396
0.43133956 0.2823174 0.07379248
0.43597159 0.28275985 0.074705847
0.44501454 0.2838839 0.078555048
0.45208335 0.28663847 0.078830831
0.46376535 0.2862927 0.079447389
0.46759251 0.2833364 0.075401209
0.4318023 0.29556063 0.07208547
0.43590352 0.29177323 0.074399807
0.4436965 0.29110968 0.075060494
0.45316407 0.29249313 0.078373209
0.46003011 0.29037377 0.077336274
0.46459359 0.2883226 0.073561601
0.43195012 0.29681906 0.072183937
0.43641284 0.29893121 0.073070586
0.44553623 0.29942384 0.073777482
0.45139295 0.29988968 0.076542966
0.45779157 0.29773048 0.074304633
0.44517869 0.30644265 0.072890274
0.44978616 0.30586889 0.073587142
0.51038259 0.013467423 0.083901644
0.50608331 0.021134553 0.081804641
0.4974494 0.036518693 0.080994315
0.49319959 0.04659966 0.085316598
0.47930172 0.071940608 0.083980851
0.48214906 0.065916657 0.084957525
0.60740668 0.07156793 0.080659442
0.47693798 0.075744279 0.081192426
0.46973258 0.091966331 0.087712362
0.46095607 0.10225295 0.080838911
0.45865014 0.10887025 0.084763415
0.58223194 0.10889708 0.084887035
0.45481303 0.11589353 0.083443277
0.38385057 0.1234728 0.082687683
0.39068931 0.12418936 0.084572658
0.40400839 0.1236458 0.083384134
0.42007044 0.12443698 0.082196422
0.43917328 0.12765758 0.085770011
0.44109958 0.12536909 0.080189727
0.44960082 0.12635972 0.084037244
0.45600936 0.12550169 0.080531426
0.46414205 0.12794502 0.082592733
0.56985289 0.1265211 0.087989688
0.38431847 0.13039549 0.085974462
0.44658825 0.13234049 0.081659682
0.45639899 0.1283098 0.085036032
0.47128841 0.12983793 0.082129903
0.47803989 0.13349538 0.084592059
0.48239967 0.13565348 0.083692983
0.5677011 0.1312374 0.084741578
0.38336885 0.13946484 0.08492212
0.44347745 0.13978355 0.083875075
0.48754528 0.13756055 0.081589408
0.49387398 0.14190656 0.083560325
0.49783796 0.14353347 0.083626039
0.38735428 0.14649622 0.085779093
0.43897724 0.14912273 0.083222724
0.44059992 0.14566277 0.083215348
0.50314021 0.14740692 0.08449617
0.50882882 0.15001018 0.083216086
0.55462438 0.15095012 0.087189764
0.38600108 0.15626656 0.08365161
0.43583086 0.15584463 0.083242595
0.51563698 0.15490684 0.083644569
0.55383903 0.15446395 0.084861226
0.38715985 0.16085424 0.083763786
0.43113893 0.16533791 0.082657881
0.43297011 0.16297622 0.085712962
0.52733523 0.1627906 0.087286577
0.53246975 0.16597766 0.084073305
0.54887629 0.16364075 0.084781855
0.55255264 0.16106313 0.080099784
0.39498588 0.17135145 0.085667431
0.42843914 0.17161216 0.08396738
0.54067552 0.17177938 0.085154958
0.38979512 0.17865622 0.081263281
0.40105289 0.17874494 0.087339707
0.42316383 0.18236755 0.083305083
0.42535278 0.17819835 0.084133573
0.53551555 0.18268527 0.086631231
0.53736889 0.17952409 0.0852952
0.39552954 0.18660697 0.082582332
0.42060587 0.18816406 0.083980173
0.53190184 0.18808 0.085101403
0.40336487 0.19654955 0.084627874
0.41557837 0.1987488 0.083456904
0.41762775 0.19468965 0.08428216
0.52574259 0.19779319 0.083646707
0.52815914 0.19430284 0.085476384
0.39859277 0.2031412 0.080809541
0.41092497 0.2035462 0.084932499
0.51972347 0.20579353 0.085202515
0.52319044 0.2023866 0.084003218
0.40536845 0.21250463 0.08141657
0.41152081 0.2117852 0.085713677
0.51641703 0.21299721 0.084424078
0.40680569 0.22093119 0.082762904
0.41132972 0.21989505 0.085001796
0.43917462 0.22303227 0.085910365
0.44426888 0.22112085 0.083851568
0.45192558 0.22140086 0.083808973
0.45661327 0.22331861 0.081990965
0.51003081 0.21991982 0.084682345
0.51303154 0.21945378 0.084761731
0.40619239 0.2266852 0.082179248
0.41392878 0.22736207 0.085543953
0.41759545 0.22994176 0.087455161
0.43026802 0.23117581 0.087017246
0.43613985 0.2273353 0.084513605
0.44086 0.22838722 0.080520086
0.45536515 0.2259333 0.085870981
0.4578495 0.22776088 0.083934255
0.5017423 0.23064981 0.087243572
0.50692672 0.22729145 0.08456549
0.4051556 0.23537835 0.081686087
0.41391203 0.23552194 0.082575731
0.42021707 0.23741356 0.084430844
0.42788684 0.23552763 0.086206198
0.43509227 0.23575041 0.082682811
0.44383886 0.23679103 0.080697067
0.45242792 0.23608717 0.081856124
0.45735312 0.23542127 0.085473329
0.50161648 0.23530738 0.083862372
0.40732598 0.24067952 0.080448516
0.41246626 0.24360003 0.08175046
0.42063034 0.2438585 0.082770795
0.42798766 0.24312377 0.084025152
0.43729746 0.24361627 0.084634118
0.44421536 0.24403702 0.08289168
0.45190546 0.24349497 0.085221179
0.49364859 0.24406692 0.0846214
0.49806061 0.24224101 0.083825149
0.41418904 0.2504786 0.080631055
0.42175996 0.25120342 0.081241027
0.42835897 0.25267959 0.082616195
0.43583977 0.25127342 0.084165007
0.44557488 0.25176603 0.086654596
0.45019889 0.249864 0.087274507
0.48708627 0.2536321 0.084195822
0.49179193 0.25165913 0.083615176
0.42113516 0.25843701 0.080772191
0.4291555 0.26009113 0.081463061
0.43621048 0.25897658 0.083455212
0.44526908 0.25990069 0.086681373
0.48415396 0.26138869 0.083672449
0.42924622 0.26604903 0.081080012
0.43563271 0.26813367 0.082453094
0.44405571 0.26693797 0.083949022
0.45227069 0.26898625 0.086987093
0.45963696 0.27031639 0.087836511
0.47717962 0.26894584 0.083527535
0.43771484 0.27462193 0.08114621
0.44598758 0.27537683 0.082303077
0.45365945 0.27573037 0.084888078
0.46087623 0.27706325 0.086638071
0.46879867 0.27736732 0.084943064
0.4725405 0.2745741 0.082920238
0.44544294 0.28211042 0.080760591
0.45292345 0.28281432 0.081401691
0.4597227 0.28407893 0.08496166
0.46623898 0.28217864 0.082572326
0.45324999 0.28974089 0.08088506
0.46010205 0.28939337 0.080806531
0.51954693 0.012201747 0.09017621
0.5099712 0.019545315 0.090595961
0.52323699 0.027358068 0.095026895
0.50146395 0.033134133 0.090901025
0.49660724 0.04317439 0.092325106
0.48837465 0.058996677 0.092925854
0.48260552 0.070941992 0.095111027
0.4736796 0.08475247 0.092115924
0.4701758 0.093201108 0.095897928
0.465857 0.10110544 0.094587892
0.46160385 0.11003394 0.094772965
0.58006841 0.11010318 0.090375252
0.45592302 0.11746155 0.090375431
0.45675892 0.11457408 0.088333055
0.40376878 0.12644814 0.089163192
0.41525033 0.12672967 0.08884538
0.41961712 0.12696588 0.088479392
0.45438045 0.12236841 0.093609758
0.56941104 0.12539095 0.092526019
0.39072487 0.13201012 0.089427367
0.41488338 0.12942694 0.094414622
0.43191391 0.1287709 0.090260133
0.44497395 0.13211848 0.092429794
0.44953084 0.12984101 0.090977728
0.46036911 0.13175499 0.090861402
0.47158334 0.13301258 0.090129316
0.39647219 0.14079426 0.091835454
0.4443841 0.14075083 0.091350719
0.48445544 0.13989674 0.091675855
0.49079299 0.14385177 0.091014437
0.55793142 0.14263608 0.093154088
0.4021194 0.14806439 0.093628958
0.44096589 0.14800464 0.091387719
0.49595454 0.14577328 0.089087442
0.50093365 0.15102591 0.093851455
0.39566368 0.1543498 0.089012265
0.40599966 0.15483165 0.094485566
0.43722507 0.15594606 0.09132833
0.50891745 0.15481421 0.092681192
0.51450354 0.15657741 0.090008415
0.55020064 0.15582429 0.090832703
0.40285853 0.16197807 0.091931999
0.43179113 0.16650133 0.088044375
0.43378183 0.16376211 0.092195317
0.51996952 0.16265143 0.095211238
0.52460068 0.16301394 0.091257587
0.54419899 0.16291024 0.095243409
0.4064233 0.17041399 0.09214253
0.42988139 0.17205316 0.091618128
0.53602743 0.17200623 0.093944497
0.41173494 0.17943676 0.092940323
0.42646405 0.17996582 0.092428319
0.5344075 0.18083337 0.093872406
0.40603945 0.18707658 0.088118903
0.41498423 0.18674442 0.092956178
0.42244428 0.18865646 0.091953278
0.4242945 0.18489705 0.09263701
0.53120613 0.18686174 0.093042374
0.41167107 0.19595006 0.089140333
0.41881138 0.19478965 0.09280289
0.42465398 0.19664349 0.09569639
0.52483422 0.19688034 0.093648069
0.41528934 0.20481174 0.08988259
0.42103872 0.2035435 0.094371013
0.51801008 0.20529555 0.092447333
0.52165693 0.20254 0.090879865
0.4136574 0.21254352 0.090806298
0.42069387 0.21147132 0.092352867
0.42644316 0.21215311 0.094342224
0.51502305 0.21168347 0.092218362
0.41337657 0.21946155 0.089167774
0.4216857 0.21947737 0.090603143
0.42968011 0.2198382 0.093568675
0.43619755 0.22226012 0.093548588
0.44397828 0.22256745 0.092261679
0.44995505 0.22322443 0.091411956
0.50968766 0.21979193 0.092809036
0.41549852 0.22530255 0.088164523
0.4221397 0.22715975 0.08887621
0.42904794 0.22837758 0.090136483
0.43555525 0.22636408 0.091966368
0.45375773 0.22649363 0.092683032
0.45667458 0.2301216 0.090877958
0.50146419 0.2287638 0.092569403
0.50713944 0.22676547 0.092287742
0.42291066 0.23242354 0.088260241
0.42522055 0.23298702 0.088348083
0.43898702 0.23618898 0.088981599
0.44426972 0.23415056 0.091744125
0.45488471 0.23574045 0.09517514
0.45735711 0.23566797 0.092545755
0.4946093 0.23850691 0.092317268
0.49965996 0.23710606 0.091939226
0.44565865 0.24396279 0.088530488
0.45290557 0.2436859 0.090872347
0.45967171 0.24378446 0.094549999
0.48736027 0.2468548 0.095898509
0.49076584 0.24388181 0.092424862
0.49698377 0.24353245 0.092061162
0.45310512 0.2512354 0.090506673
0.46164706 0.2523793 0.09450765
0.46417454 0.25599572 0.095456138
0.48483354 0.25262877 0.091939121
0.49087033 0.25065556 0.090695895
0.44695634 0.26059079 0.088397391
0.45364103 0.26040909 0.089506038
0.46165511 0.2599161 0.09277425
0.46846038 0.26080897 0.095020056
0.47821543 0.26259208 0.094547831
0.48358226 0.26002628 0.091228098
0.45282766 0.26710084 0.088905707
0.46044981 0.26681122 0.089931965
0.46795914 0.26786187 0.093049832
0.47508168 0.26706555 0.091995038
0.45552155 0.27200511 0.088416107
0.46079522 0.27472949 0.088766187
0.46617699 0.27421212 0.089091249
0.47208235 0.27317455 0.088982016
0.50525022 0.036992371 0.096672684
0.4988558 0.043566946 0.097160995
0.50824857 0.0412581 0.098312616
0.50178999 0.060234938 0.10359477
0.48110348 0.076305062 0.10182179
0.47692734 0.083815031 0.10014421
0.46834561 0.098717898 0.099253051
0.4662731 0.10469962 0.10272079
0.57137829 0.11643027 0.10095765
0.45398644 0.12695861 0.10138159
0.45723245 0.12014021 0.10180147
0.56596255 0.12720247 0.09986455
0.56877953 0.12326597 0.098556593
0.40623716 0.13248681 0.09655346
0.41861102 0.1348388 0.1022861
0.4240551 0.13254581 0.099795468
0.43270916 0.13239239 0.098848097
0.4444257 0.13421033 0.10060626
0.45250499 0.13275553 0.09781234
0.46402955 0.13507229 0.096972056
0.40723461 0.14165226 0.097491316
0.41624185 0.13843058 0.10229152
0.4461489 0.14121252 0.10023487
0.45945576 0.13605537 0.10094608
0.46587637 0.13689278 0.10040856
0.47535253 0.14005956 0.10084916
0.48001668 0.14025049 0.097640209
0.55775267 0.14035816 0.099506885
0.41606733 0.14776701 0.10131652
0.44242305 0.14798807 0.099451415
0.4928343 0.14852026 0.098689191
0.41966844 0.15630083 0.10158648
0.43850878 0.15625866 0.098981686
0.44037417 0.15231778 0.099276356
0.50142533 0.15476149 0.10133784
0.50643349 0.15639223 0.098641872
0.54795736 0.15525888 0.09943188
0.41336077 0.16300197 0.09735655
0.42102692 0.16289662 0.10140001
0.43561476 0.16298121 0.099623032
0.51557362 0.16278414 0.10114915
