# .PCD v0.7 - Point Cloud Data file format
VERSION 0.7
FIELDS x y z
SIZE 4 4 4
TYPE F F F
COUNT 1 1 1
WIDTH 1364
HEIGHT 1
VIEWPOINT 0 0 0 1 0 0 0
POINTS 1364
DATA ascii
-0.033517946 0.35395023 0.013137096
-0.030733423 0.3574824 0.010691007
-0.028375551 0.36405572 0.01265094
-0.025315445 0.37004271 0.013942595
-0.022273332 0.37322554 0.013438777
-0.028392926 0.38290882 0.0085356105
-0.018306695 0.37961295 0.014431975
-0.012860586 0.38237491 0.011053021
-0.007714197 0.38398084 0.0083459681
-0.010965029 0.38741267 0.012892068
-0.0054639652 0.38793498 0.0088736527
-0.011486636 0.39672294 0.01236038
-0.0063321292 0.39506763 0.0088938773
-0.01043649 0.40324503 0.014299145
-0.0066047013 0.40396395 0.010273269
-0.0068685026 0.41233546 0.012369311
-0.003704435 0.42048755 0.011819814
0.00138475 0.42309356 0.0082881972
-0.0028301887 0.42541933 0.014634067
0.0041279057 0.42851877 0.011966447
0.0071869716 0.43382847 0.014867289
0.0093119591 0.43358058 0.012229122
-0.062988147 0.2710636 0.01780151
-0.06534154 0.27692622 0.021990035
-0.061596513 0.27450794 0.018097842
-0.075219668 0.29312578 0.017564395
-0.070974708 0.29575539 0.017780449
-0.072868437 0.29674914 0.021306831
-0.067601465 0.29986176 0.020172467
-0.062406678 0.30163601 0.017260388
-0.066186264 0.30483553 0.023552485
-0.06095013 0.30865029 0.019585462
-0.05804953 0.31474453 0.020540137
-0.053402286 0.31849173 0.019642241
-0.049620122 0.32110268 0.020421783
-0.043947533 0.3244243 0.020240422
-0.039222211 0.32719392 0.017738417
-0.040819421 0.3294141 0.023304876
-0.038107865 0.33196136 0.020454731
-0.040685244 0.34322414 0.019177403
-0.038390622 0.33826578 0.020820348
-0.041645516 0.34749499 0.021719275
-0.038331389 0.34894246 0.018013204
-0.040541977 0.35226536 0.023555525
-0.035967231 0.35576928 0.020083668
-0.026861235 0.35989928 0.022127142
-0.032494187 0.36117223 0.018467866
-0.031120468 0.36459193 0.017176639
-0.023850664 0.36185843 0.023807995
-0.027589656 0.37249771 0.018728897
-0.023236051 0.37499911 0.016107298
-0.025257409 0.37745363 0.021605784
-0.02089305 0.38077956 0.018998461
-0.01799476 0.38606077 0.021699373
-0.013543205 0.38953 0.019665129
-0.012457782 0.39483553 0.020929137
-0.012645535 0.40275615 0.019032259
-0.0038288422 0.40371388 0.022751361
0.00035281479 0.40649003 0.023289945
-0.0093331784 0.40839002 0.016554246
-0.0054809102 0.41209117 0.018203175
0.0024849921 0.41199136 0.022957124
-0.0036060761 0.41883984 0.019037252
-0.0036820234 0.42898208 0.019458173
0.0001784116 0.43143743 0.017553613
-0.0010811776 0.43451753 0.021945616
0.0037691817 0.43601999 0.019188782
0.00885351 0.4376232 0.016931884
0.005741924 0.44015697 0.021063972
-0.022763699 0.49311659 0.023225334
-0.0090216547 0.50245118 0.022383897
-0.0254758 0.51134157 0.019298358
-0.025676116 0.51378053 0.022278739
-0.0099368691 0.51823831 0.023980806
-0.005273541 0.52227306 0.02087984
0.0033593774 0.52329266 0.022571741
-0.067533493 0.27999711 0.024982624
-0.066976972 0.28479728 0.02756571
-0.063353583 0.28756222 0.025983175
-0.06670697 0.28901401 0.030504877
-0.06298288 0.29126263 0.0299401
-0.072609976 0.29882923 0.024232429
-0.069925383 0.30229875 0.024983963
-0.052556545 0.30266348 0.030886775
-0.066555128 0.30656609 0.025270088
-0.050823987 0.30670488 0.031232947
-0.058255374 0.31803796 0.026339065
-0.051321812 0.32082388 0.027393568
-0.045543879 0.32522416 0.027771279
-0.041785989 0.33146513 0.02858719
-0.03995879 0.33287197 0.024021512
-0.040375099 0.33684626 0.028550902
-0.038546208 0.34019795 0.027981378
-0.043450106 0.35041532 0.025510611
-0.041953359 0.35416672 0.026570726
-0.038929418 0.35712433 0.025357297
-0.026028965 0.35313368 0.029570352
-0.020249004 0.3543002 0.029098401
-0.014134288 0.35619682 0.030064898
-0.020607777 0.36571676 0.025755292
-0.013888851 0.36014053 0.0305009
-0.018017923 0.37106338 0.029571796
-0.014816185 0.37414393 0.028757406
-0.012930254 0.37934989 0.030359531
-0.017125063 0.38891125 0.024821982
-0.013276523 0.3888765 0.029847506
-0.011586173 0.39623821 0.02760344
-0.0088050887 0.40168816 0.030045109
-0.0049831197 0.40481913 0.027853606
0.00052915514 0.40780586 0.025301913
-0.0013974011 0.40866372 0.028923485
0.0036816769 0.41227019 0.028516531
0.0071986467 0.41686991 0.031228801
0.0083778352 0.41880733 0.03015768
0.0050673336 0.42808467 0.02911225
-0.00038152933 0.43776456 0.02513732
0.0035277903 0.43673384 0.02708606
0.0017174333 0.4419587 0.02559701
-0.016592324 0.48683983 0.030681472
-0.014533669 0.48893678 0.030948337
-0.020555923 0.49892303 0.026702553
-0.011390209 0.50282776 0.02501877
-0.0023847222 0.50080442 0.029224416
0.001536727 0.50165999 0.026874702
-0.0029987991 0.50472867 0.029505976
-0.010143618 0.5182271 0.027731195
-0.0079613328 0.51318228 0.026577251
-0.0094625847 0.5206821 0.030185124
-0.0042079487 0.5234561 0.027971333
0.0012166699 0.52478975 0.025099635
-0.067502022 0.29200563 0.035535883
-0.061573334 0.29487649 0.033700425
-0.058787558 0.2993131 0.036535624
-0.055100307 0.30136645 0.032973383
-0.057017926 0.3077662 0.038643554
-0.053513635 0.30829349 0.034688186
-0.051871642 0.31655151 0.036247652
-0.048785083 0.32144418 0.036138341
-0.044706177 0.32415062 0.03681805
-0.041786987 0.33096781 0.035210751
-0.03849322 0.33424389 0.036539853
-0.035169087 0.33847502 0.036999445
-0.030861598 0.34260336 0.037693363
-0.034327924 0.34890172 0.032575496
-0.027654445 0.34820619 0.037200745
-0.026541576 0.35482791 0.035186786
-0.019331671 0.35683864 0.036138266
-0.014403755 0.3585214 0.034702431
-0.018124267 0.3676402 0.034280248
-0.013287658 0.36132753 0.036898188
-0.019988718 0.37298346 0.034369711
-0.01804449 0.37915608 0.036145993
-0.014874429 0.38108772 0.033444338
-0.017259464 0.38798815 0.038509797
-0.014546148 0.38818163 0.03468759
-0.016323924 0.39289534 0.039025243
-0.013126128 0.39651483 0.035969708
-0.0093705077 0.4021287 0.035846513
-0.0059402213 0.40610307 0.036130216
-0.0021126487 0.41119033 0.036074497
0.0020672753 0.41454101 0.033863477
-0.001019448 0.41634026 0.03965627
0.0041665882 0.41967347 0.036579166
0.0091942651 0.42151651 0.033204168
0.0064832591 0.42735016 0.038602103
0.010297 0.42811528 0.035469767
0.010493565 0.43376991 0.038264535
-0.018195897 0.49213207 0.037187506
-0.013991816 0.49320152 0.035056755
-0.021827444 0.50116068 0.03857509
-0.010413788 0.49829847 0.038484819
-0.0052522272 0.50320911 0.037249375
-0.021381229 0.50543892 0.039140433
-0.0034997351 0.50795698 0.0368471
-0.00085282326 0.51411504 0.039852541
-0.0087913051 0.52343434 0.034570914
-0.0066021383 0.5259093 0.033963889
-0.066482365 0.29522523 0.0422878
-0.059651002 0.29850379 0.044552322
-0.055092979 0.3024562 0.044600949
-0.057785362 0.30654117 0.040724784
-0.053346924 0.30774167 0.046367548
-0.057766814 0.31580439 0.042469297
-0.055179354 0.31848517 0.041392963
-0.056147456 0.32074583 0.044573072
-0.051872194 0.32163709 0.044137176
-0.044332325 0.32481572 0.043781355
-0.041431326 0.33175093 0.044107798
-0.039582983 0.33444542 0.040939823
-0.041590612 0.33996058 0.046019573
-0.037365209 0.34091839 0.04195457
-0.040785521 0.34644765 0.047502652
-0.035979968 0.34758055 0.044892538
-0.02837459 0.34901959 0.041847352
-0.034044817 0.35295457 0.047909651
-0.027558332 0.35499191 0.045478318
-0.022133505 0.35792646 0.042518143
-0.019722329 0.36367893 0.044243094
-0.015424952 0.36378902 0.04059948
-0.018423233 0.37126306 0.046095014
-0.014450106 0.37298393 0.043026049
-0.01160311 0.37866092 0.046258241
-0.017735302 0.38844126 0.041509818
-0.012439549 0.39003614 0.046050549
-0.017307531 0.39550656 0.042313848
-0.014844745 0.39886311 0.042040754
-0.011696752 0.40394491 0.044256594
-0.0071132556 0.4069348 0.042113215
-0.0080287755 0.40914002 0.046299193
-0.0047902511 0.4119451 0.043684639
-0.0025250453 0.41973761 0.044558417
0.00079336762 0.42136264 0.040969197
-0.0005646944 0.42463401 0.04594218
0.0034756598 0.42773414 0.04357757
0.0066466928 0.43529949 0.042858288
0.0085129142 0.43465501 0.040496953
-0.017572006 0.48388597 0.046490166
-0.02227629 0.49444199 0.042041924
-0.024927288 0.50377977 0.040052876
-0.021441698 0.5000897 0.044638317
-0.010964289 0.50026143 0.040239349
-0.025382131 0.50566792 0.04186387
-0.021935806 0.50741494 0.040908135
-0.011146165 0.50784767 0.044269878
-0.0064798715 0.50923216 0.041897237
-0.0097201169 0.51216805 0.046509121
-0.0042246664 0.51444209 0.043285783
-0.064692318 0.29809922 0.051015105
-0.060605634 0.3015303 0.050913617
-0.057934619 0.30753613 0.053125344
-0.054660488 0.3091746 0.049269296
-0.056057081 0.31441358 0.055037085
-0.053607211 0.3161543 0.051990975
-0.049923301 0.32244295 0.052815668
-0.046303995 0.3254464 0.050796375
-0.042696595 0.33064058 0.052095369
-0.036692075 0.33460626 0.054360028
-0.0304415 0.33804768 0.055135719
-0.041427299 0.34835881 0.049097165
-0.03875728 0.35109556 0.048914067
-0.035597079 0.35443747 0.051691316
-0.02989989 0.35836816 0.051927667
-0.02587964 0.36367339 0.051437128
-0.022803836 0.36629927 0.048520982
-0.025252689 0.3704477 0.054209888
-0.021863151 0.37316611 0.05125254
-0.017929573 0.377424 0.052267551
-0.012986421 0.38100776 0.051547192
-0.0095608085 0.3858791 0.053044949
-0.0063884035 0.38987836 0.052845325
-0.0057003051 0.39333087 0.05494184
-0.014274528 0.40552729 0.051765274
-0.010402933 0.40968513 0.052268419
-0.005354098 0.41227365 0.052037597
0.0033620477 0.41313249 0.05373811
0.0055206418 0.41679841 0.055474136
-0.0011510998 0.42510462 0.051057953
0.0032302113 0.42846888 0.051903639
0.0098868683 0.4304992 0.049888235
0.0066959411 0.43405518 0.055128288
0.011964018 0.43426847 0.051954828
0.0061896741 0.45252284 0.055200957
-0.01785931 0.4866136 0.048734099
-0.012790203 0.48669475 0.054034598
-0.016773552 0.48869595 0.050374925
-0.012826443 0.49290127 0.052429322
-0.012021204 0.50041759 0.052482005
-0.0068864026 0.50209647 0.053339016
-0.020916343 0.50595838 0.055341005
-0.0084149987 0.50447673 0.053075284
-0.0032007347 0.50737596 0.053763017
0.0014377832 0.50835901 0.050906152
-0.027086243 0.51405901 0.054852996
-0.052417189 0.29458016 0.061396509
-0.051999539 0.29814681 0.061958335
-0.059810329 0.30937475 0.058975898
-0.057750549 0.31513345 0.060380623
-0.054610133 0.3187755 0.058679275
-0.051249143 0.32328138 0.060471926
-0.047300007 0.32736352 0.057929207
-0.043893419 0.33256087 0.060264584
-0.038367495 0.33540082 0.057880975
-0.040209115 0.33703232 0.062240865
-0.035527792 0.33855221 0.060461629
-0.029605227 0.34128612 0.05905195
-0.029000208 0.34580395 0.06267523
-0.033610374 0.35655305 0.060318846
-0.030381462 0.35891652 0.058843393
-0.027126491 0.36319745 0.060283467
-0.023934729 0.36554408 0.058279775
-0.025135001 0.3690691 0.061175853
-0.022363763 0.37278277 0.060569782
-0.018750843 0.37914947 0.060254987
-0.015285581 0.38214052 0.057088394
-0.016887337 0.38423735 0.062559769
-0.012421365 0.38824919 0.059901476
-0.0097886678 0.39501172 0.061448503
-0.007220313 0.39318913 0.057672653
-0.016485631 0.4032858 0.057530656
-0.014185721 0.40488714 0.059844695
-0.010749599 0.41033322 0.059557728
-0.0046128118 0.41410646 0.059625156
0.0021774024 0.41523963 0.056328408
-0.0015190125 0.41882315 0.062380724
0.0025750697 0.42019773 0.059240632
0.0034374781 0.42761803 0.060655296
0.0045911944 0.43562937 0.058363728
-0.0038246629 0.44434246 0.059892341
0.0045404285 0.44211316 0.057996787
0.0085275173 0.44317353 0.057393704
-0.0028014332 0.45014715 0.060997549
0.0016519844 0.45156941 0.057892054
-0.0011367798 0.4570964 0.06092776
-0.010405809 0.48380435 0.056808591
-0.013640851 0.49182063 0.059558224
-0.028338322 0.50233507 0.061852243
-0.018361151 0.50055104 0.057987656
-0.012782611 0.49961448 0.056975465
-0.025672246 0.50581151 0.061500005
-0.010551995 0.50796384 0.058424197
-0.0059256754 0.50935978 0.05689308
-0.029358944 0.51695484 0.058249839
-0.019430339 0.51601714 0.062509745
-0.013331528 0.51464564 0.060767606
-0.0067133009 0.51356322 0.059323922
-0.032104671 0.52007043 0.062233757
-0.029838353 0.52199435 0.062583491
-0.052086573 0.29948553 0.066459604
-0.057973027 0.3084484 0.069088049
-0.058752194 0.31598073 0.066078484
-0.05215973 0.31503493 0.071094133
-0.047957629 0.318425 0.070086546
-0.056626096 0.32031846 0.066271901
-0.052499477 0.32249847 0.065077059
-0.044176333 0.32298619 0.069828898
-0.04533102 0.33253902 0.067110516
-0.042278074 0.3396177 0.06849619
-0.036796581 0.34233755 0.065223336
-0.04078643 0.34663153 0.071352795
-0.036778048 0.34760797 0.067898698
-0.03123603 0.34852147 0.065090761
-0.035915066 0.35622188 0.068328328
-0.03407196 0.3626326 0.068812929
-0.030327035 0.36540273 0.066083848
-0.032374248 0.36909431 0.07082592
-0.027404632 0.3717292 0.068333633
-0.022702551 0.37511906 0.065779366
-0.024935439 0.37705314 0.071731776
-0.020428689 0.38018212 0.068007872
-0.017301735 0.38679916 0.068407282
-0.014484313 0.390212 0.066689178
-0.011085323 0.3948414 0.068642862
-0.012515549 0.40546456 0.067217328
-0.009690119 0.41002643 0.069078363
-0.0067539918 0.4142029 0.067500308
-0.0037858125 0.42000845 0.067977779
-0.0018317252 0.42786133 0.069032975
0.0012527183 0.42885101 0.064977013
-0.0012655824 0.4354907 0.069962122
0.00093247369 0.4359329 0.067207702
0.0036986857 0.44413465 0.067523316
0.014958903 0.44335419 0.0703509
0.016652316 0.44772822 0.070686579
0.017575204 0.45130014 0.071451545
-0.019595727 0.49022424 0.066538334
-0.033478558 0.5025211 0.065497622
-0.031207949 0.503672 0.064867951
-0.028698266 0.50790238 0.065860949
-0.021009207 0.51963359 0.064831413
-0.03235656 0.52177441 0.064122036
-0.017191499 0.52100503 0.064048141
-0.057444293 0.31069714 0.074376598
-0.048488542 0.31188858 0.079001315
-0.05195912 0.3166382 0.075285345
-0.047243848 0.31938195 0.072171181
-0.048859354 0.32101789 0.078190148
-0.04394003 0.32389572 0.076175027
-0.039048642 0.32716298 0.075677685
-0.037294716 0.32892221 0.078597449
-0.044947982 0.34101617 0.075101845
-0.042046115 0.3474136 0.07536491
-0.039108157 0.35031512 0.075854242
-0.04069227 0.35415494 0.076366723
-0.038555112 0.35628757 0.074824952
-0.026956806 0.35473347 0.078639127
-0.023228019 0.35852775 0.077430435
-0.037155703 0.36066675 0.072805867
-0.02118098 0.3630175 0.07800968
-0.02672933 0.37491307 0.074627906
-0.025996123 0.37859982 0.075751193
-0.022386143 0.38205108 0.075554803
-0.019645104 0.38824132 0.075581685
-0.01799549 0.39446813 0.077375263
-0.012594083 0.39702636 0.075204
-0.010724584 0.4039771 0.077357069
-0.0093555646 0.41215983 0.074271634
-0.0038857162 0.41143399 0.078688063
0.002020292 0.41473192 0.078830093
-0.0060367635 0.41958773 0.073396772
0.00404419 0.41660231 0.079121299
-0.0024584141 0.42756 0.076155774
0.00064889342 0.43142021 0.078015879
-0.0029282719 0.43367675 0.073016405
0.0045104125 0.43563044 0.077088028
0.0096956491 0.43757948 0.074442424
0.021551704 0.43620953 0.078024186
0.02619045 0.43854418 0.076917447
0.010886043 0.44029459 0.076660037
0.027361363 0.44241899 0.078991093
0.018905997 0.45452628 0.072387844
-0.021685094 0.49373221 0.072197102
-0.017952114 0.49656636 0.073358431
-0.011807382 0.49953467 0.075699553
-0.049151566 0.30892703 0.083249249
-0.047145791 0.31061035 0.08231841
-0.049363721 0.31504285 0.086266704
-0.046781175 0.31431505 0.084111713
-0.050022583 0.32195824 0.08407189
-0.044494312 0.32565486 0.083823033
-0.039701968 0.32775712 0.083108544
-0.035734478 0.33098999 0.084453247
-0.041635383 0.34533715 0.08248128
-0.036349416 0.34913167 0.083810173
-0.031736225 0.35189718 0.082771853
-0.02669237 0.35503218 0.084366135
-0.023230946 0.35877761 0.082456164
-0.020028606 0.36368072 0.084244296
-0.015342891 0.36766142 0.087048717
-0.017841935 0.37073356 0.082868814
-0.012094818 0.36985976 0.087129667
-0.020194761 0.37858418 0.082570359
-0.019600492 0.38641271 0.084126398
-0.024502849 0.39765361 0.084200263
-0.020947356 0.39737484 0.081714608
-0.019405277 0.40347546 0.085328668
-0.01352267 0.40465078 0.082132749
-0.010905601 0.41034976 0.084900126
-0.0050057117 0.41288888 0.08214502
0.0050695119 0.41020089 0.086505577
0.0087267086 0.41350403 0.087042019
-0.0013257116 0.4199312 0.084993333
0.0042399764 0.4189716 0.083550133
-0.0010185093 0.42992431 0.081398875
0.004799217 0.42513004 0.086293742
-0.00037872046 0.43364826 0.084648564
0.0027408784 0.43673435 0.083713524
0.020264257 0.43865791 0.081426233
0.0057710856 0.44127089 0.085042134
0.011113867 0.44406623 0.084636442
0.020756181 0.44427687 0.084600836
0.025942653 0.44318715 0.081833884
-0.0095309913 0.48746309 0.082826056
-0.011405776 0.49272481 0.085994057
-0.0046715317 0.49321017 0.082497574
-0.028454334 0.50363863 0.086128272
-0.010410234 0.49940699 0.08622767
-0.0052449284 0.49933904 0.085300729
-0.026341684 0.50597465 0.086910307
-0.020235121 0.50848359 0.085715413
-0.01135993 0.5092752 0.08283937
-0.017326057 0.51227188 0.086869165
-0.011824201 0.51495457 0.084957421
-0.050413877 0.31697056 0.09032362
-0.049112424 0.32186946 0.091464043
-0.044959441 0.32567364 0.092167921
-0.041366734 0.32893676 0.093213193
-0.036306143 0.3312867 0.091415457
-0.0288151 0.33424452 0.093422331
-0.027745819 0.33868083 0.092465967
-0.021070028 0.33998561 0.095113255
-0.031144977 0.35048726 0.08866708
-0.028613063 0.35601166 0.090070739
-0.034035068 0.36422306 0.094137788
-0.027837496 0.36395779 0.090650856
-0.021312635 0.36627954 0.089107044
-0.027754029 0.37036392 0.09402363
-0.019653589 0.3703202 0.092367515
-0.011769786 0.37279284 0.09193249
-0.0081125349 0.37709653 0.094698437
-0.017657097 0.38975677 0.090271167
-0.012972906 0.3964096 0.093641102
-0.020548075 0.40639192 0.088639334
-0.012498856 0.40358049 0.093773626
-0.017140109 0.41119635 0.092805907
-0.012851195 0.41294497 0.090531394
-0.0024602413 0.41110235 0.092924803
0.0034898196 0.41289273 0.092109479
0.0086241513 0.41568038 0.089747131
0.0024652404 0.42130139 0.09317559
-0.021590531 0.42864624 0.095586494
0.0045646429 0.42758498 0.092386223
0.0038020809 0.43653312 0.092059381
0.0053886599 0.44380563 0.090223432
0.0081231892 0.44727778 0.089159407
0.0079052746 0.44886506 0.090931751
0.012182653 0.44990548 0.089283131
-0.02023346 0.49334493 0.092071496
-0.014695823 0.49323076 0.08803194
-0.01851801 0.4987824 0.095047273
-0.015669972 0.50290436 0.093854114
-0.02790539 0.50724745 0.088986427
-0.022024393 0.51092237 0.088992879
-0.014718264 0.50706792 0.095311247
-0.018945843 0.5150817 0.089964502
-0.014546216 0.51895243 0.088842928
-0.014861971 0.52355492 0.094526984
-0.048112705 0.31816781 0.096042901
-0.047373295 0.31908444 0.098078169
-0.048067614 0.3219738 0.096505679
-0.046054766 0.32456979 0.10036683
-0.042118359 0.33021921 0.10046212
-0.036322977 0.33328864 0.099834293
-0.030420637 0.33497378 0.09785191
-0.032958865 0.33718669 0.10338935
-0.027628159 0.33969536 0.10044543
-0.022588614 0.34144598 0.097277664
-0.024777539 0.34594467 0.10243492
-0.02102446 0.34688303 0.09939716
-0.037510455 0.36553121 0.09857668
-0.03401513 0.37086731 0.099299304
-0.027951712 0.37426785 0.098244891
-0.019680817 0.37482125 0.10032604
-0.014447577 0.3747063 0.097289041
-0.027460083 0.37608862 0.10054743
-0.016351014 0.37701625 0.10241139
-0.012151211 0.37985048 0.10004654
-0.0075064152 0.38206649 0.097152568
-0.01056171 0.38766265 0.1016189
-0.00731574 0.38869914 0.098768935
-0.0087724626 0.39399126 0.10279238
-0.005351339 0.39669317 0.10111397
-0.0094961971 0.4046914 0.09695667
-0.0020029619 0.40325564 0.10193467
0.00048580766 0.4063921 0.10092616
-0.02501452 0.415925 0.10212664
-0.0013222322 0.41266251 0.099905074
0.00072790682 0.41193566 0.10022406
-0.024334252 0.41604373 0.10094324
-0.015502453 0.4222689 0.1037431
-0.0013509125 0.41878924 0.10153971
0.0020614252 0.42077577 0.097855836
-0.021896631 0.42772719 0.098302379
0.0052981242 0.42752811 0.099951409
0.011814187 0.43049446 0.10116648
0.018398374 0.43134704 0.10098335
0.025221676 0.42983314 0.10237443
0.038130194 0.43155333 0.10364434
-0.020220974 0.43593168 0.1018723
-0.012341708 0.43743357 0.099478871
-0.0068013072 0.43542847 0.096084476
0.019674283 0.43523854 0.099862352
0.028656671 0.43831864 0.098099887
0.040624589 0.43225488 0.10322872
-0.010644436 0.44080332 0.098702326
0.03012988 0.44404468 0.10273658
0.033424407 0.44299126 0.09941604
-0.018640378 0.50147629 0.099552579
-0.018178547 0.50860071 0.10033209
-0.015148968 0.50840437 0.096425809
-0.018687546 0.51275241 0.10229108
-0.012550652 0.51564735 0.098970115
-0.0077907145 0.51856339 0.099135973
-0.0049962699 0.52058762 0.10065374
-0.044392191 0.32601514 0.10816556
-0.041730702 0.33028406 0.10712564
-0.037800826 0.33426335 0.10748047
-0.034799032 0.339174 0.10869932
-0.030084604 0.34232628 0.10606366
-0.027010405 0.34711456 0.10825007
-0.023101524 0.34998801 0.10818908
-0.026040636 0.35691747 0.10794909
-0.02495287 0.36209047 0.11023702
-0.022360364 0.36520949 0.10858812
-0.024436653 0.37264138 0.10479588
-0.019653931 0.37170112 0.10935855
-0.018421926 0.37951061 0.10701036
-0.015971884 0.38214672 0.10478587
-0.018078918 0.38776776 0.10863873
-0.014473793 0.38880223 0.10587444
0.0042953342 0.39195058 0.1118196
-0.017206647 0.39403716 0.11128169
-0.011945697 0.39533588 0.10744051
-0.0057133622 0.39842844 0.10632025
0.0048452206 0.39685801 0.10811043
0.0090634972 0.39352953 0.11091677
0.006564796 0.40227389 0.10907596
-0.0045106933 0.41389799 0.10730915
-0.012484808 0.42025736 0.10784159
-0.0030832577 0.4182328 0.1055221
-0.0010154247 0.42561087 0.11017402
0.0038294762 0.42848223 0.10762889
0.0099199666 0.43131617 0.10540077
0.022296682 0.43152869 0.10535108
0.028035246 0.43091732 0.10548389
0.034384668 0.43049905 0.10426886
-0.013717353 0.43468392 0.11069888
0.012428473 0.43340474 0.10845491
0.020374617 0.43378145 0.10852264
0.028325005 0.43468913 0.1098112
0.034945365 0.43347886 0.10649822
0.040212452 0.43396613 0.1048701
0.021306977 0.44499114 0.10876874
0.025297374 0.44381857 0.10548311
-0.011394352 0.49401975 0.11065904
-0.017888576 0.50207603 0.10592328
-0.011510635 0.50190496 0.11006041
-0.011078298 0.50584096 0.10772137
-0.0034405787 0.50726986 0.11053655
0.0023404211 0.50976729 0.109132
-0.014556229 0.51928782 0.1119148
0.0016902089 0.51246607 0.11172044
-0.010884513 0.52221137 0.11041453
-0.0071075857 0.52362871 0.10704178
-0.044731319 0.32672128 0.1140241
-0.042419881 0.33029881 0.11632763
-0.038180694 0.33373401 0.11549548
-0.035413008 0.33993915 0.11632288
-0.033037912 0.34611771 0.1167425
-0.028318135 0.34930015 0.11523256
-0.022415459 0.35189533 0.11297847
-0.025898688 0.35346246 0.1179819
-0.021601833 0.35651213 0.11619496
-0.025300477 0.36524785 0.11606024
-0.023918778 0.36731216 0.11250967
-0.026811223 0.37064126 0.11755936
-0.019515779 0.37339687 0.11551563
-0.016896293 0.37674016 0.11993329
-0.01311024 0.37985203 0.11670407
-0.0098296106 0.38536644 0.11872778
-0.0055577699 0.38927481 0.11739124
-0.0030196174 0.39555195 0.11734466
0.0039693476 0.3962881 0.11458616
0.0098213404 0.39654019 0.11267451
-0.0029881697 0.40189174 0.11937332
0.0017979762 0.40384409 0.11687658
-0.0084751099 0.41577005 0.11520436
-0.016324103 0.42097789 0.11345833
-0.0082337782 0.41765743 0.11798862
-0.0050456696 0.42011857 0.11545458
0.0071965903 0.41682971 0.11913547
0.0098910183 0.41943553 0.1190125
-0.0014098436 0.42523408 0.1128569
0.0044741202 0.42997837 0.11532014
-0.012413546 0.43584073 0.11251062
0.0071496875 0.43376032 0.11735962
0.011525791 0.43615413 0.11581517
0.020516606 0.43704537 0.11508077
0.026069656 0.43799284 0.11443825
0.014163613 0.44018766 0.119942
0.020708092 0.4417522 0.11772836
0.02683196 0.44247738 0.11741342
-0.016443223 0.50038582 0.11680453
-0.013064504 0.50086623 0.11408625
-0.011820033 0.50608385 0.11651624
-0.0045993091 0.50922108 0.11298522
-0.017038813 0.51832467 0.11416506
-0.010556251 0.51231492 0.11993295
-0.017023593 0.52124226 0.11623359
-0.013545327 0.52373129 0.1152581
-0.041746967 0.3333883 0.12357388
-0.039735854 0.33588392 0.12397286
-0.037965707 0.33992726 0.12378673
-0.035448045 0.3480235 0.1241048
-0.030438572 0.35181549 0.12054527
-0.033054247 0.35272121 0.12503564
-0.027620567 0.35635075 0.12389903
-0.023987561 0.35995841 0.12118389
-0.026091695 0.36363149 0.12426982
-0.023562908 0.36770287 0.1270536
-0.015007824 0.36644554 0.12747023
-0.028667834 0.37157813 0.12181123
-0.018194864 0.37208885 0.12326995
-0.013760905 0.37022009 0.12636639
-0.018628722 0.38066357 0.1239735
-0.015530407 0.38167375 0.12111777
-0.020815413 0.38650858 0.12549609
-0.012036302 0.38820755 0.12200611
-0.0079835355 0.38974607 0.12059271
-0.017395267 0.3950406 0.12722607
-0.012851781 0.3957392 0.12485102
-0.0068063168 0.3958002 0.12149384
-0.01085645 0.40284002 0.12582093
-0.0041662189 0.40568644 0.12301625
-0.0011124611 0.40858459 0.12583184
0.001996598 0.4118962 0.12552273
-0.02168867 0.42154929 0.12306526
-0.0070414096 0.41881901 0.12023568
0.0056716786 0.41919124 0.12448544
0.0090759769 0.4214679 0.12172604
-0.021589825 0.4262782 0.12362186
-0.013599287 0.42714325 0.1234783
-0.0064490438 0.42604357 0.12388054
0.0068274327 0.42708483 0.12582278
0.0087333815 0.42609045 0.12521289
0.0053402754 0.43645081 0.12326336
0.010391198 0.43913022 0.1205823
0.022180766 0.43887621 0.12755749
0.027730063 0.43774956 0.12424284
0.0064391592 0.44094038 0.12639938
0.010732006 0.44252083 0.12413224
0.016892582 0.44207361 0.12139423
0.0275776 0.44177222 0.12679155
0.032973945 0.44788501 0.12773949
0.02568987 0.45559394 0.12688398
-0.01367476 0.50870752 0.12396294
-0.0098575307 0.51506412 0.12546931
-0.0069194078 0.51644212 0.12341827
-0.010676488 0.52410507 0.12721913
-0.0068814456 0.52079129 0.12598251
-0.041586801 0.33508116 0.12929831
-0.040951919 0.33839688 0.1317617
-0.039443981 0.34215948 0.13155648
-0.037558816 0.34839791 0.13199766
-0.034628134 0.3542662 0.13160013
-0.027574174 0.35632649 0.13201465
-0.02287424 0.35905343 0.13255346
-0.01935841 0.36289379 0.13250536
-0.015105546 0.36665156 0.13059552
-0.013667314 0.37141898 0.13240601
-0.021494627 0.38300112 0.13229996
-0.012600582 0.37851208 0.13352793
-0.021539673 0.38923612 0.12977281
-0.014626145 0.38839194 0.13111417
-0.019565793 0.39569968 0.13022219
-0.009852875 0.39653307 0.13495168
-0.0071009099 0.39866099 0.13323346
-0.017373428 0.40133309 0.12986284
-0.012452696 0.40460396 0.1289349
-0.0031407017 0.40306425 0.13208841
0.00057142973 0.40728194 0.13124968
-0.0083077252 0.41165659 0.13420102
-0.00033463538 0.40804902 0.13573304
0.0037386073 0.41055316 0.13216935
0.011149144 0.4144125 0.13421023
-0.00015830994 0.42372546 0.12965003
0.0058668852 0.41882125 0.12958533
0.015146211 0.41710669 0.13565966
0.017193154 0.41814423 0.13509203
-0.012705922 0.43072379 0.13026781
-0.0055740476 0.42747626 0.13272025
0.0026940499 0.42731333 0.12997247
0.0090133622 0.43110237 0.13051578
-0.010787606 0.43681884 0.13534077
-0.0042347908 0.4399811 0.13537577
0.0070922822 0.43333015 0.13558473
0.010487099 0.43648615 0.13325146
0.018025488 0.43954229 0.12982896
0.013188859 0.44187322 0.13280207
0.019271143 0.44310915 0.13133523
0.026331762 0.44464597 0.12871824
0.022778422 0.44951731 0.12982279
0.02716139 0.44857585 0.13007264
0.015877843 0.46092966 0.13454618
0.019921103 0.4618192 0.13153762
0.015886188 0.46943718 0.13551588
0.01692757 0.46426117 0.13539571
0.010653466 0.47540614 0.13549951
-0.0038952529 0.49559072 0.12960435
-0.0034953952 0.49801332 0.13343003
-0.016560614 0.51082826 0.13586394
-0.013247763 0.51033092 0.1321889
-0.011117552 0.51453954 0.13216485
-0.017025897 0.52492994 0.13219534
-0.013644606 0.52433002 0.12977955
-0.014026277 0.52896631 0.13399751
-0.036058918 0.34065992 0.14024197
-0.030343048 0.34289694 0.14197667
-0.013959661 0.34350803 0.14361919
-0.037477199 0.34841329 0.13701376
-0.029047931 0.34455776 0.14350186
-0.034534998 0.35323822 0.13694885
-0.026868943 0.35800281 0.13782218
-0.024246439 0.3610948 0.13999584
-0.021108964 0.36471319 0.13972524
-0.017406631 0.3710494 0.13991065
-0.015388668 0.37453797 0.13874847
-0.013547262 0.37971243 0.13914616
-0.0026898296 0.38065147 0.14268981
0.00092065334 0.38331324 0.14271167
-0.021137208 0.3873741 0.13717553
-0.011381388 0.38795963 0.13692422
0.0020942539 0.38633537 0.14359275
-0.011100918 0.3974497 0.13716309
-0.010848741 0.4044272 0.14064026
-0.0052007982 0.40546989 0.13753609
-0.01326935 0.4090381 0.14034604
-0.0042848205 0.41007289 0.14131708
0.0036142787 0.41216317 0.1398644
0.0098415464 0.41466531 0.13781008
0.012060314 0.41816407 0.14056461
0.016787842 0.41982639 0.13670544
-0.007370919 0.42453265 0.13634665
0.0063753277 0.43195951 0.13763671
0.010389328 0.4277949 0.14160562
-0.018168718 0.43268627 0.1389551
-0.011247635 0.43644083 0.1370621
0.0065089972 0.43378806 0.14065476
0.011022165 0.43643925 0.14036928
0.018879682 0.4385671 0.14222372
-0.017600223 0.44202399 0.14111438
-0.0091311336 0.44214961 0.14021178
0.0026865005 0.44604692 0.13959573
0.013248364 0.44341734 0.13706546
0.02192577 0.44117242 0.14267527
0.015092254 0.45211685 0.1369991
0.013970478 0.46062514 0.14069603
0.015795156 0.46575308 0.14079045
0.016651517 0.46772367 0.14058059
0.015694797 0.47212675 0.14393683
-0.0096015632 0.50229943 0.1404503
-0.0056565255 0.49901545 0.13678297
-0.01837083 0.51615596 0.1407693
-0.013784155 0.51649642 0.13775834
-0.01695776 0.52123368 0.14368486
-0.012378472 0.52362192 0.14091215
-0.010184422 0.5289489 0.13996428
-0.035286058 0.34294638 0.14525858
-0.018855462 0.34224749 0.14594786
-0.015945554 0.34250146 0.14416988
-0.035639543 0.34818655 0.14855652
-0.029378969 0.34751558 0.14680307
-0.019380998 0.34749207 0.14810376
-0.014526511 0.34781224 0.14576302
-0.035146061 0.35355082 0.15055043
-0.028229028 0.35358188 0.15012091
-0.02013942 0.35605952 0.14902128
-0.018172299 0.36270863 0.14876266
-0.017911512 0.37225118 0.14720179
-0.017108887 0.37675101 0.15120836
-0.012748215 0.37933478 0.1482452
-0.0057121632 0.38206375 0.14643219
-0.0036943532 0.38728601 0.14934506
0.00057655573 0.38756853 0.14542505
-0.0030951886 0.39500761 0.14960501
-0.0080679506 0.40238875 0.15060712
-0.011945647 0.41197741 0.14730018
-0.0052184984 0.41362217 0.14565937
0.002667293 0.41491908 0.14670165
-0.0084495693 0.41602385 0.14904398
-0.0037596151 0.41853443 0.14997518
0.0056516435 0.41868851 0.1491349
0.0093164239 0.42021814 0.14586413
0.0062255496 0.42785081 0.15006645
0.0090593779 0.42846528 0.14593868
0.0075185299 0.43349165 0.15098424
0.011400553 0.43619233 0.14807788
0.016649187 0.43900099 0.14529264
-0.01138863 0.44353327 0.14798918
-0.0064780116 0.4414773 0.14741839
0.014517223 0.44179377 0.15043576
0.019813869 0.44414341 0.1476648
-0.010281146 0.44888738 0.1506952
0.022232186 0.45161971 0.14988799
0.012390018 0.46077093 0.14439267
0.023593366 0.45657206 0.15043913
0.0247114 0.45911115 0.1504311
0.015722126 0.464964 0.14473613
0.017472804 0.46901307 0.14760917
0.013598293 0.47533265 0.14501777
0.016999394 0.47212666 0.15101042
-0.001963824 0.49733275 0.15066458
-0.024118543 0.51990378 0.1471377
-0.022601351 0.51866829 0.14512298
-0.011249989 0.51871538 0.15173113
-0.0055242926 0.51891899 0.150078
-0.024548888 0.52169013 0.14885104
-0.019654151 0.52240121 0.1464996
-0.014232635 0.52476692 0.14445947
-0.0030191243 0.52247107 0.14881589
0.00041332841 0.52319741 0.15152113
-0.010995954 0.53093028 0.14408238
-0.039816663 0.35171622 0.15217903
-0.030987034 0.34986344 0.15905245
-0.04067865 0.35369566 0.15361591
-0.036452387 0.35655206 0.15378717
-0.027670134 0.35748634 0.15589559
-0.022212878 0.35895061 0.15282992
-0.024815693 0.36052698 0.15802564
-0.020146748 0.36395454 0.15570483
-0.016887158 0.37099066 0.15588556
-0.014664697 0.37220567 0.15678717
-0.01705496 0.37806422 0.1529396
-0.012694868 0.3812646 0.15561981
-0.0091820434 0.38504076 0.15638764
-0.0048707528 0.38751778 0.15622011
0.0018700162 0.38855639 0.15817726
-0.0042148083 0.39544195 0.15367964
-0.008951541 0.40550601 0.15685382
-0.0069133141 0.40552214 0.15538932
-0.0035473118 0.41161603 0.15682326
0.00093913823 0.4145242 0.15403861
-0.0011865124 0.41827267 0.15946095
0.0021982577 0.42021593 0.15568754
-0.0087140203 0.42855963 0.15514307
-0.0013469309 0.43096542 0.15601827
0.0035925324 0.42753232 0.15648815
0.0065755374 0.43489099 0.15372808
0.008311972 0.43760243 0.15262751
-0.0056827664 0.44157267 0.15388389
0.0072295964 0.44185451 0.15783101
0.012505906 0.444511 0.15578805
0.018237403 0.44714594 0.15334272
0.028049037 0.4476378 0.15767311
0.033829194 0.44609997 0.15842812
0.020092759 0.44964769 0.15604012
0.027017305 0.45396933 0.15375999
0.029073089 0.45794675 0.15540345
0.016376197 0.47402468 0.15258196
-0.0054285824 0.49787238 0.1574318
-0.013180569 0.50779939 0.15286824
-0.016853854 0.51826102 0.15590647
-0.015037571 0.51625472 0.15422107
-0.017387867 0.52082086 0.1584862
-0.012252721 0.52340746 0.15686832
-0.0046169162 0.52327466 0.15391949
0.00019580126 0.52477169 0.15328296
-0.013713844 0.53248399 0.15820463
-0.015634835 0.53733855 0.15631552
-0.021260051 0.34727934 0.16612108
-0.029524684 0.3566384 0.16121349
-0.01735805 0.35232824 0.16742091
-0.02575339 0.36144507 0.16228889
-0.021057889 0.36555517 0.16326718
-0.017315663 0.37138462 0.16478086
-0.015580866 0.3740575 0.1617782
-0.013302276 0.38011286 0.16391486
-0.009220466 0.38493079 0.1628402
-0.0036490362 0.38707504 0.16392095
0.0016532242 0.39071292 0.16361828
0.0024714284 0.39495245 0.16638266
-0.0035127476 0.4009656 0.16392745
-0.0090631973 0.41207448 0.16363943
-0.006491554 0.41296726 0.16257897
-0.0085265785 0.41623718 0.16772191
-0.003864958 0.41979018 0.16421913
0.0002862215 0.42378467 0.1615755
-0.00054801005 0.42580548 0.16459452
0.0039147628 0.42935219 0.16197179
0.0043417178 0.43467301 0.16242364
0.0087436102 0.43808907 0.16466302
0.01179522 0.44400123 0.16378242
0.016073018 0.44726405 0.16661021
0.02925982 0.44649425 0.16527645
0.035933431 0.44656616 0.16323765
0.019018359 0.44950455 0.16285951
0.035997972 0.45085976 0.16563801
0.041576445 0.44891602 0.16215131
0.033736169 0.45770833 0.16452599
0.021222994 0.46856779 0.16521019
-0.010049229 0.50119227 0.16267295
-0.0069120377 0.49958771 0.16432878
-0.010492669 0.50784063 0.1658577
-0.0065607578 0.50697017 0.16299419
-0.0095674545 0.51569176 0.166095
-0.017056212 0.52411765 0.1607013
-0.0099985152 0.52349865 0.16526839
-0.0069680065 0.52514076 0.16677402
-0.012995233 0.52956611 0.16257267
-0.0054431558 0.52900088 0.16627288
-0.014677823 0.5361346 0.16158247
-0.02123611 0.35034451 0.16942284
-0.024349734 0.35546458 0.17539585
-0.019939378 0.35573697 0.17199433
-0.018517666 0.36343512 0.17221713
-0.017360127 0.3709397 0.17175794
-0.014778167 0.37335423 0.17587176
-0.017131591 0.37862161 0.17243387
-0.013520352 0.38202775 0.17039897
-0.0045507103 0.38307184 0.16867915
-0.016038194 0.38448367 0.17544688
-0.011047199 0.38570204 0.17400195
-0.003236444 0.38718897 0.17272915
0.0014501488 0.3893567 0.17049865
-0.0004234612 0.39286512 0.17546813
0.0031996518 0.39577433 0.17284347
0.0041231737 0.40155995 0.17476535
-0.0097469315 0.41523951 0.16938743
-0.0088861473 0.418547 0.17134136
-0.0061847195 0.42035431 0.17039765
0.00509765 0.41740713 0.17301308
0.0099538015 0.42104277 0.17280111
0.013450235 0.42657059 0.17394137
0.0056981258 0.43682247 0.16943729
0.011995937 0.43649897 0.17228323
0.013135063 0.44332409 0.17132187
0.017201077 0.44726482 0.17206764
0.027143508 0.44739068 0.16822541
0.020879734 0.44959155 0.17268147
0.0281121 0.45094654 0.17186745
0.033150434 0.4524993 0.16910549
0.027652055 0.45855105 0.17141664
0.014466748 0.46494743 0.17525135
0.01832056 0.4682703 0.17294531
-0.0096439421 0.50099403 0.16983902
-0.013542195 0.51001567 0.16911077
-0.012873418 0.51714063 0.17086369
-0.016155839 0.52029431 0.17532346
-0.012178793 0.52391654 0.1718462
-0.017200291 0.53154433 0.17557137
-0.011308842 0.53156596 0.17250487
-0.007166028 0.52889979 0.1688123
-0.015683025 0.53610349 0.17599322
-0.024933524 0.35788804 0.17772028
-0.023200609 0.35905468 0.17710704
-0.025244646 0.36077794 0.18095376
-0.021672765 0.36462849 0.18003151
-0.017715309 0.370152 0.17998806
-0.013585848 0.37399986 0.18047583
-0.010301194 0.37826413 0.18153794
-0.0078641996 0.38156101 0.18203631
-0.012178148 0.38875607 0.17835291
-0.0056015523 0.3900525 0.17834702
-0.0093703866 0.39228004 0.18072855
-0.0039949138 0.39555195 0.18046057
0.00059148669 0.39769268 0.17704837
-0.0011357516 0.40260282 0.18252033
0.0015482618 0.40432206 0.17935532
-0.00014473498 0.40963328 0.18390849
0.0030315912 0.41275898 0.18058811
0.0066268062 0.4172633 0.1801988
0.010435277 0.42087176 0.17973597
0.022426307 0.42273855 0.18367685
0.013677819 0.42707247 0.17837436
0.017254837 0.43111932 0.17811833
0.025977828 0.42574921 0.18329258
0.020187341 0.43578428 0.18021466
0.014569461 0.44622049 0.17747894
0.021830447 0.44264621 0.18308569
0.019307038 0.45228785 0.17915784
0.024493903 0.45627522 0.17600778
0.01324447 0.46819988 0.17854884
0.016996711 0.47104532 0.17711264
0.014461711 0.47308755 0.1810043
-0.016355902 0.51816201 0.17738283
-0.01466419 0.51469558 0.18117806
-0.017935593 0.52519274 0.17912695
-0.015281916 0.52224475 0.17917486
-0.019016091 0.5319792 0.17995735
-0.010919139 0.52988946 0.18282849
-0.0049688816 0.53115427 0.18304266
-0.017286077 0.53742039 0.17795047
-0.014597148 0.53954053 0.17690213
0.66993165 0.046929389 0.19190414
0.67378622 0.053814307 0.19168052
-0.021885609 0.36556879 0.18765293
-0.018157108 0.37057704 0.18777288
-0.015440921 0.37434208 0.18826632
-0.012485895 0.38025066 0.18785822
-0.0079910606 0.38363776 0.18449788
-0.0095960749 0.38794309 0.18919444
-0.0067760227 0.38910252 0.18606271
-0.008702904 0.39456058 0.19095409
-0.0055753505 0.3968896 0.18767966
-0.0021557447 0.40357921 0.18777753
0.0015587807 0.40637496 0.1908337
-0.0025360456 0.41307908 0.18770698
0.00087936223 0.41448799 0.18550408
-0.0013569245 0.41675183 0.18991156
0.0039147255 0.41855973 0.18830052
0.012373681 0.42135626 0.18797
0.01861749 0.42269593 0.18616207
0.020490531 0.42759073 0.18898813
0.024949923 0.42856535 0.18550768
0.02248547 0.43507805 0.19004747
0.021661468 0.44300976 0.1876213
0.024950847 0.44690594 0.18950677
0.027415445 0.45097846 0.1883672
0.022674754 0.45958155 0.1849412
0.03012298 0.45704669 0.18998054
-0.017250948 0.51327336 0.1887604
-0.014956604 0.51472735 0.18684773
-0.024170578 0.52511585 0.19040109
-0.020629333 0.52532774 0.1875021
-0.010204718 0.52692181 0.18860729
-0.018389471 0.52921855 0.18891583
-0.0057839975 0.53158313 0.18758725
0.67418051 0.03047201 0.19818169
0.67746562 0.036083795 0.19796635
0.68549842 0.037733532 0.19892423
0.68970287 0.038265921 0.19769008
0.67525375 0.043424375 0.19508556
0.68576396 0.042528927 0.1988145
0.69091719 0.045031998 0.19747998
0.69649994 0.045857906 0.19649716
0.6704849 0.049664937 0.19284365
0.6751895 0.054019075 0.19294676
0.69316334 0.051435482 0.19792958
0.69822925 0.053298719 0.19534099
0.70697057 0.055779368 0.19581498
0.67766249 0.05770731 0.19479734
0.68266404 0.060620368 0.19412817
0.69237417 0.060701575 0.19767687
0.6997999 0.060053624 0.19641766
0.70629102 0.061320804 0.19464508
0.68285656 0.064689092 0.19494091
0.70089871 0.065745942 0.19698256
-0.010348454 0.35970056 0.19746463
-0.020587884 0.36718136 0.19246723
-0.009051403 0.36319667 0.19849364
-0.0076472536 0.36447096 0.19851536
-0.016952075 0.37067866 0.19295546
-0.012471497 0.37154809 0.19602644
-0.014133896 0.37997848 0.19568305
-0.011344834 0.38702929 0.19579321
-0.000306651 0.38817355 0.19988453
-0.01057055 0.39545828 0.19402431
-0.0038310438 0.39849186 0.19565067
0.0021459758 0.39893252 0.19953384
-0.0094608516 0.40037161 0.19518594
-0.0031681284 0.40335053 0.1948657
0.0016468987 0.40656433 0.19556855
0.0025667548 0.41112161 0.19708896
0.012139648 0.4153614 0.19856112
-0.0020929612 0.41779897 0.19398932
0.002470721 0.42027077 0.19456865
0.013763495 0.4192625 0.19592632
0.016613819 0.42017275 0.19735256
0.015529971 0.42481577 0.19436361
0.017693292 0.42849842 0.19600116
0.020343641 0.43523356 0.19578411
0.022107899 0.44275728 0.1957597
0.025245428 0.44680408 0.19564879
0.036043644 0.44481725 0.19902551
0.029555976 0.44923249 0.19398355
0.032793537 0.45184839 0.19416231
-0.01373136 0.51276791 0.1944678
-0.024158418 0.52647042 0.19219363
-0.017007947 0.52137601 0.19594327
-0.011897445 0.52305436 0.19717817
-0.0073384941 0.52749747 0.19278438
0.0052208006 0.52590859 0.19925994
-0.020431958 0.53004187 0.19340296
-0.015194178 0.5300402 0.19472313
-0.0043957136 0.53170961 0.19244282
0.67777562 0.027298123 0.20044927
0.6851505 0.027408283 0.20262992
0.68932426 0.029731236 0.20140202
0.6849004 0.037316263 0.20013018
0.69179094 0.034257188 0.20115152
0.69700968 0.037537366 0.20057102
-0.010755769 0.3658452 0.20231779
-0.011188607 0.37157667 0.20402229
0.0028166771 0.37468863 0.20766325
-0.012745457 0.38000464 0.20248537
0.0051307082 0.37881944 0.20662339
-0.011037581 0.385245 0.20178117
-0.0021487388 0.38823226 0.20247708
0.0017320415 0.38834965 0.20406568
-0.0018261349 0.39601874 0.20504619
0.0012067432 0.39525104 0.20152771
-0.0029514537 0.40308127 0.20601189
0.0023374364 0.40457588 0.20219044
-0.0010613278 0.40991622 0.20719363
0.004278332 0.41165036 0.20399871
0.0096985353 0.4147515 0.20190834
0.0048066764 0.41769728 0.20685554
0.012300394 0.41949579 0.20405971
0.017089 0.4217076 0.20144629
0.015025824 0.42597371 0.20711717
0.01735878 0.42834151 0.20361294
0.020303626 0.43577272 0.20440556
0.026398301 0.43827569 0.20237674
0.021778047 0.44229254 0.20726721
0.028447069 0.44303739 0.20555891
0.034123685 0.44462034 0.20301011
0.029699961 0.45246896 0.20695388
0.033928171 0.44906345 0.2061938
0.0030815527 0.50020707 0.20488515
-0.0058901012 0.5084064 0.20013948
-0.0055524209 0.51503605 0.20433746
0.0059404471 0.51917464 0.20330685
0.0089061856 0.51950622 0.20143187
-0.010971817 0.52609754 0.2036179
0.0054148436 0.52159297 0.20655258
0.010159918 0.52306181 0.20511237
-0.009999916 0.52969635 0.20701924
-0.0076084435 0.52847427 0.20387752
-0.010475332 0.37044802 0.21145986
-0.0046825376 0.37356597 0.21159467
0.0010562167 0.37423718 0.20904487
-0.0044871359 0.3780736 0.21445608
0.002689413 0.37937677 0.21039225
-0.016618028 0.38620535 0.21484607
-0.011570932 0.38799709 0.21438777
-0.0046526147 0.38958916 0.21178401
-0.0022919504 0.39425069 0.21271354
0.0016269386 0.39797813 0.214689
-0.0055631138 0.40584165 0.20918792
0.0050189346 0.40192905 0.21552297
-0.003384918 0.41256914 0.21012777
-0.0023611374 0.42024744 0.21285582
0.0029171519 0.42141056 0.20955604
0.01017452 0.42343915 0.20849302
-0.00096209347 0.42473137 0.21528871
0.0046009109 0.42679629 0.21350747
0.012563725 0.42852873 0.21122487
0.016742637 0.43664888 0.21027654
0.015705356 0.44507697 0.21313083
0.01856057 0.44490382 0.20981395
0.02693817 0.44763869 0.2083694
0.014746159 0.44919357 0.21410167
0.020193558 0.4518463 0.21263394
0.026149115 0.45378202 0.21094821
0.027628742 0.45811599 0.21311001
0.027482405 0.46782994 0.21446562
0.02090764 0.47840819 0.21414261
0.0051813223 0.50192386 0.21260214
0.0082340539 0.49807084 0.21198449
0.0016131997 0.50826645 0.21084586
-0.012893856 0.51955593 0.21449515
-0.0064438581 0.51610637 0.21188673
-0.017848283 0.52780205 0.21067214
-0.014397532 0.52225214 0.21585293
-0.0014519691 0.52570546 0.21268576
0.0035507812 0.52488339 0.21007562
0.0083350837 0.52532256 0.20825517
-0.018892666 0.53259689 0.21364471
-0.014302896 0.53177816 0.21064617
-0.0022369127 0.52962989 0.2150137
0.0031484615 0.53063977 0.21341909
-0.017463267 0.53661251 0.21524499
-0.01536718 0.53767496 0.21466373
-0.0096038356 0.37376684 0.21691921
-0.0048000216 0.37057084 0.22169423
-0.011160065 0.37990892 0.22035946
-0.017944107 0.38857299 0.21784835
-0.012065345 0.38938457 0.21970476
-0.0077643543 0.39187908 0.21622899
-0.0097052576 0.39330673 0.22115767
-0.0045504333 0.39644951 0.21982659
0.00073118013 0.39905071 0.2177196
0.0044161733 0.40345851 0.22002532
0.0067960322 0.41326398 0.2215181
0.0085323378 0.40931359 0.22298546
-0.0024734065 0.41884217 0.21670017
0.00097576779 0.42228246 0.22046657
0.02192229 0.42266703 0.22232239
0.026573723 0.42251182 0.21812929
-0.0011922941 0.4249171 0.21740237
0.0032201905 0.4291763 0.21969295
0.0098901838 0.43143743 0.21613252
0.023989692 0.42609218 0.22363938
0.028524328 0.42736137 0.22092998
0.006706126 0.43208146 0.21935394
0.028526166 0.43572792 0.22302826
0.01851362 0.44456834 0.21781188
0.026669249 0.44210163 0.22350983
0.020973856 0.4520812 0.21879506
0.025196021 0.4548437 0.22121926
0.029341277 0.45861199 0.22037174
0.032936949 0.46086982 0.21782504
0.025965862 0.46956193 0.22040319
0.021487206 0.47681087 0.21949854
-0.017799269 0.52496165 0.22140773
-0.015097693 0.52622199 0.22002894
-0.021655321 0.53448749 0.21640751
-0.012033373 0.53054392 0.22205937
-0.0048237243 0.53357613 0.21973093
0.0012041926 0.53559822 0.21621209
-0.018926248 0.53780371 0.21718779
-0.0025214911 0.5377987 0.22064181
0.00036266446 0.5377084 0.21773914
-0.0018393875 0.37279087 0.22799525
1.077354e-05 0.37505746 0.22904545
-0.0035347305 0.37900987 0.22872031
0.00065552193 0.37990153 0.23052865
-0.003316192 0.38694993 0.22678851
0.0042811427 0.38911408 0.23012555
0.0095793409 0.39091215 0.22681956
-0.0071129054 0.39782277 0.22449277
0.007431969 0.39269531 0.23186992
0.010957445 0.39455429 0.22946174
0.0063935239 0.40551493 0.22653143
0.0083020404 0.40574318 0.23079738
0.00991794 0.41123468 0.22799636
0.0044067316 0.42194253 0.2262454
0.0083169937 0.42354089 0.23010309
0.017962873 0.42334083 0.22519031
0.005150178 0.42642626 0.22622912
0.0135166 0.42684746 0.22988231
0.01974182 0.42765418 0.22653534
0.025329659 0.4305549 0.22531147
0.01533819 0.43385631 0.23081481
0.019573919 0.43666723 0.22890148
0.025598109 0.4360798 0.22542109
0.021511663 0.44316047 0.22988768
0.025725663 0.4449434 0.22699976
0.027324796 0.45202875 0.22867821
0.029848099 0.45911217 0.22761056
0.028250486 0.47055286 0.22841239
0.026434436 0.47366679 0.2252485
-0.017734915 0.52673966 0.22675851
-0.015800506 0.52299106 0.22463278
-0.017494043 0.53080016 0.22889303
-0.012561061 0.53332496 0.22767363
-0.0058923289 0.53514802 0.22647294
-0.0033967386 0.53752857 0.22883917
0.0013191601 0.53908807 0.22602616
-0.0031652618 0.38133612 0.2340733
0.00079126656 0.38310641 0.23202011
-0.0085419267 0.38810718 0.2390902
-0.0030741107 0.38767031 0.23708232
0.0025139044 0.38976148 0.23436366
0.004687367 0.39528546 0.2369069
0.009139318 0.39695042 0.2331872
0.0064616413 0.40413079 0.23682888
0.0085587054 0.4051303 0.2324273
0.0071728355 0.41068348 0.23838937
0.0095730266 0.41293898 0.23487081
0.011108144 0.41985017 0.23599632
0.012908636 0.42790782 0.23599117
0.013529524 0.43607149 0.23481041
0.014930588 0.44150454 0.23655896
0.018589832 0.44536623 0.23535775
0.022268441 0.45005041 0.23721303
0.026560647 0.45356753 0.23555493
0.029897865 0.45952979 0.23560655
0.028645903 0.46739066 0.23558046
0.035396367 0.46720716 0.23645055
0.023775578 0.47475359 0.23678799
-0.011581615 0.52483112 0.23788154
-0.017945161 0.53344184 0.23355824
-0.012224841 0.53329813 0.23730814
-0.010144835 0.53707069 0.23444179
-0.0035572993 0.53904748 0.23680936
0.00057158869 0.54037958 0.23660894
-0.009225592 0.39054427 0.24131241
-0.0055285394 0.39114007 0.24114038
0.0060966215 0.38705957 0.24735592
-0.0094344616 0.39261371 0.24364305
-0.002506122 0.39307943 0.2429181
0.0020133753 0.39696577 0.24311441
0.0041851657 0.40370297 0.24402162
0.0058594765 0.412312 0.24390735
0.0077130995 0.4167693 0.24467075
0.011217742 0.42074603 0.24365814
0.015358828 0.42464715 0.24482855
0.019470541 0.42698613 0.2437357
0.02590383 0.42751476 0.24662869
0.022930413 0.43505815 0.244828
0.025290351 0.4369964 0.24365731
0.027665934 0.44167399 0.24631554
0.021673327 0.45002618 0.24157035
0.026226044 0.45319125 0.24343719
0.02973156 0.45907992 0.2449123
0.036472019 0.46737733 0.24499154
0.04060515 0.46952224 0.24451827
-0.016324177 0.53281975 0.24637553
-0.013645264 0.53319985 0.242937
-0.011077477 0.53965151 0.24438687
-0.0053898469 0.54222918 0.24144238
-0.010706164 0.54784054 0.24599357
-0.0052640638 0.54669303 0.2429464
-0.01605472 0.55623621 0.24798593
-0.01442036 0.55770004 0.2473141
0.0057346006 0.38775203 0.25148231
0.0080063939 0.39131713 0.25101036
0.0048891255 0.39606336 0.2525028
0.0043717902 0.40378082 0.25158036
0.0067491196 0.40992996 0.25115141
0.010433793 0.41287795 0.25279802
0.013573254 0.41784328 0.25110734
0.019391926 0.4209083 0.25292286
0.014840677 0.42440721 0.24806622
