# .PCD v0.7 - Point Cloud Data file format
VERSION 0.7
FIELDS x y z
SIZE 4 4 4
TYPE F F F
COUNT 1 1 1
WIDTH 561
HEIGHT 1
VIEWPOINT 0 0 0 1 0 0 0
POINTS 561
DATA ascii
-0.030872116 -0.070564419 0.92875004
-0.024126703 -0.073022313 0.92660302
-0.015271011 -0.07400883 0.92708331
-0.0085338969 -0.07060241 0.92925006
-0.041734993 -0.061137032 0.92941672
-0.034037028 -0.06354139 0.9275527
-0.024692345 -0.064250067 0.92548019
-0.014749448 -0.064467885 0.9262085
-0.0085216528 -0.066445351 0.92791671
-0.043980289 -0.053742025 0.92782903
-0.034967069 -0.054846581 0.92444056
-0.024500811 -0.054260749 0.9247396
-0.017232599 -0.055448256 0.92715007
-0.052462671 -0.042411365 0.92890632
-0.04524928 -0.044613749 0.92626148
-0.034581773 -0.045795545 0.92384368
-0.025971821 -0.045093808 0.92563158
-0.06241405 -0.031016197 0.92962503
-0.054761872 -0.034799103 0.9281528
-0.04468083 -0.03559177 0.92573923
-0.035842963 -0.037343752 0.926
-0.062279813 -0.025477124 0.92930561
-0.055188041 -0.025884205 0.92774004
-0.045458701 -0.026319511 0.92686367
-0.038986281 -0.02894865 0.92850006
-0.061389122 -0.019840326 0.92950004
-0.055271916 -0.018817712 0.92917508
-0.048484366 -0.019150611 0.92891669
0.038372509 -0.14024723 0.93325007
0.044548869 -0.14224367 0.93430007
0.037547424 -0.13419282 0.9353056
0.041887593 -0.13549912 0.93427503
0.038629491 -0.12886788 0.93950003
-0.032648973 -0.072528005 0.93310004
-0.02798933 -0.076087177 0.93425006
-0.010588896 -0.074824505 0.93125004
-0.0086073652 -0.073258407 0.93725002
-0.043132335 -0.062552638 0.93033338
-0.037452105 -0.067055985 0.93075007
-0.010588896 -0.060579028 0.93125004
-0.0073743425 -0.065072909 0.93725002
-0.05267277 -0.051753547 0.9311251
-0.048423499 -0.055641346 0.93035001
-0.013586788 -0.055147156 0.93505561
-0.062936194 -0.041633595 0.93233329
-0.056527395 -0.044923604 0.93101567
-0.020749751 -0.046283804 0.93025005
-0.018846076 -0.048654292 0.93675005
-0.072740912 -0.031786598 0.93430007
-0.06588535 -0.034422562 0.93145245
-0.059404209 -0.037136108 0.93025005
-0.035581049 -0.033144385 0.93237501
-0.028887533 -0.038152274 0.93025005
-0.08087375 -0.022692062 0.9354167
-0.074705228 -0.024816198 0.93329996
-0.067574762 -0.024950385 0.93068761
-0.042461716 -0.023097035 0.93800008
-0.039395668 -0.02617819 0.93825006
-0.090815015 -0.011841393 0.93950003
-0.083524056 -0.015274731 0.93605012
-0.074899144 -0.015840467 0.93317509
-0.065726027 -0.015631586 0.93092704
-0.05567348 -0.013913919 0.93105358
-0.047422756 -0.017912768 0.93475008
-0.090839177 -0.0097909011 0.93975002
-0.084353574 -0.0056619793 0.93614
-0.07488291 -0.0056427168 0.93298757
-0.065704159 -0.005640402 0.93306023
-0.057704214 -0.0063853152 0.9357143
-0.090808973 0.0056090741 0.93943751
-0.084407866 0.0045715831 0.93676013
-0.07477238 0.0047574057 0.93465489
-0.066203013 0.0038865737 0.93601179
-0.059272572 0.0011608894 0.93891668
-0.091334857 0.012283474 0.9395625
-0.084602021 0.012789253 0.93895
-0.075078815 0.011956375 0.93797511
-0.068177298 0.010736948 0.93900007
0.033508137 -0.13362491 0.94410723
0.028042158 -0.12569222 0.94875002
0.033000104 -0.12686996 0.9465
-0.013237029 -0.081806444 0.94610006
-0.0087175695 -0.080419578 0.94925004
-0.023029123 -0.079657108 0.94025004
-0.011759023 -0.078891754 0.94337505
-0.0072967638 -0.075547226 0.94445843
-0.04500052 -0.064800024 0.94831252
-0.0065829745 -0.062232517 0.94087505
-0.054224342 -0.055356123 0.94634998
-0.012812054 -0.052690905 0.94493759
-0.008646396 -0.058158237 0.94150007
-0.060537696 -0.049238615 0.94800007
-0.02251309 -0.04230395 0.94737512
-0.016521297 -0.046055652 0.94811547
-0.076656021 -0.030408006 0.94225007
-0.033072866 -0.032841783 0.94652778
-0.026416063 -0.035137933 0.94897056
-0.082319327 -0.02541624 0.948125
-0.078946449 -0.028431639 0.94500005
-0.042400833 -0.020842811 0.94425005
-0.035244461 -0.024073388 0.94666296
-0.028233066 -0.025241474 0.94930011
-0.091781646 -0.014042381 0.94950002
-0.088539109 -0.01712928 0.948125
-0.051913977 -0.011872903 0.94200003
-0.045238122 -0.014573358 0.94435298
-0.036107987 -0.015282229 0.94779164
-0.10208368 -0.0015914276 0.94875002
-0.094552591 -0.0045547779 0.94256943
-0.053393032 -0.0047601867 0.94168186
-0.045866653 -0.0057133613 0.94482011
-0.038204625 -0.0075773778 0.94833344
-0.10370563 0.0057176286 0.94461542
-0.095942758 0.0043967837 0.94178569
-0.061571181 0.0073478506 0.94266671
-0.05485522 0.0046104295 0.94413167
-0.047625106 0.0011685338 0.9455418
-0.11293042 0.016245592 0.9461875
-0.10546046 0.015081388 0.94335413
-0.09573625 0.015357884 0.94073814
-0.084775992 0.017955765 0.94090003
-0.074482329 0.016702602 0.94460726
-0.065551333 0.013086832 0.94804174
-0.058495265 0.010845575 0.94850004
-0.12071009 0.028460182 0.94837505
-0.11510099 0.02551206 0.94622362
-0.10559294 0.025207767 0.94300002
-0.09514226 0.025173921 0.94166994
-0.085667841 0.0248123 0.94562495
-0.078602359 0.021916136 0.94916677
-0.12071327 0.035716072 0.94840014
-0.11483584 0.035928898 0.94656825
-0.1054234 0.035310645 0.94471747
-0.095518462 0.035607692 0.94541001
-0.087988339 0.033874426 0.94841671
-0.11403883 0.043697193 0.94861543
-0.1055446 0.043332439 0.94877785
-0.097933501 0.041948091 0.94875002
0.02370975 -0.12213694 0.9510501
0.017136393 -0.11395324 0.95207149
0.023555337 -0.1164635 0.95063245
0.0072556175 -0.10266834 0.95683336
0.014066855 -0.10593927 0.95306253
0.020378554 -0.10963419 0.95075005
-0.0018103762 -0.092875265 0.95645839
0.0045563448 -0.096158281 0.95750004
0.010744191 -0.09919221 0.95691675
-0.010802096 -0.084635206 0.95000005
-0.004582312 -0.085246235 0.95348805
0.0023722921 -0.088683002 0.9563334
-0.036949765 -0.073596954 0.95481253
-0.0045944313 -0.077791706 0.95525002
-0.0066922973 -0.060131326 0.95650005
-0.010819152 -0.052539378 0.95150006
-0.0087680798 -0.055848468 0.95475006
-0.066094279 -0.044301216 0.95331252
-0.014570971 -0.042794786 0.9521001
-0.080157802 -0.030964693 0.95950007
-0.074796706 -0.036148049 0.95800006
-0.022088826 -0.033339459 0.95035726
-0.017896462 -0.035707362 0.9517501
-0.085912429 -0.0224363 0.95350003
-0.023423919 -0.023894288 0.95073336
-0.019143831 -0.024468863 0.95155013
-0.093957052 -0.011980036 0.95050007
-0.031595096 -0.013018331 0.95050001
-0.025998237 -0.015540346 0.95158821
-0.10152714 -0.0047220532 0.95325005
-0.097139105 -0.0088700261 0.95112503
-0.034809388 -0.0055869874 0.9531458
-0.028891684 -0.0092317797 0.95275003
-0.11116863 0.0088375565 0.95550007
-0.106694 0.0036054163 0.95287502
-0.051545884 0.0077836029 0.95425004
-0.044259828 0.0021525379 0.95475006
-0.11751151 0.017202482 0.95608336
-0.071128398 0.01918707 0.95100003
-0.064717777 0.016958654 0.95527774
-0.056821153 0.011618778 0.95525008
-0.12277412 0.026607554 0.95637506
-0.11971493 0.021399464 0.95700002
-0.082177207 0.028870277 0.95050001
-0.075585566 0.025525954 0.95484221
-0.068948098 0.022148712 0.95925003
-0.12495648 0.035713054 0.95343184
-0.084271319 0.035877794 0.95266676
-0.07907743 0.032482464 0.95491672
-0.13249227 0.046908949 0.95481253
-0.12567604 0.044556446 0.95250016
-0.11563556 0.047663558 0.95050007
-0.10362061 0.047058824 0.95145017
-0.094724253 0.044478692 0.9544546
-0.087215759 0.041242421 0.956375
-0.14103019 0.05815712 0.95962507
-0.13502313 0.054991044 0.95539486
-0.12546118 0.054630488 0.95295
-0.11517695 0.054440495 0.95264596
-0.10670657 0.052201971 0.95508331
-0.13307455 0.062725544 0.95846426
-0.12579133 0.062652707 0.95690912
-0.11767029 0.061161529 0.95741671
0.016386334 -0.11705546 0.96050006
0.015443534 -0.10202476 0.96725005
0.0069849775 -0.093595088 0.96750003
0.011224672 -0.097898677 0.96825004
-0.00042043981 -0.083862729 0.96500003
-0.0046349131 -0.073215127 0.96366674
-0.010952756 -0.05003069 0.96325004
-0.013140718 -0.041869886 0.96925002
-0.016241599 -0.034316137 0.96487504
-0.088782176 -0.020534044 0.96200007
-0.017297707 -0.024801152 0.96465003
-0.023715898 -0.011675837 0.9683125
-0.019323893 -0.018403038 0.96050006
-0.10572302 -0.0016153306 0.96300006
-0.032127243 -0.0028295256 0.96664286
-0.026111685 -0.0061236038 0.96881253
-0.11019202 0.0047089988 0.96525007
-0.10799705 0.0025976114 0.96450007
-0.051176921 0.008943921 0.96700007
-0.044170626 0.0064364439 0.96698445
-0.036552437 0.0039095012 0.96746165
-0.06206787 0.018688982 0.96100003
-0.055953372 0.014585483 0.96737504
-0.044934299 0.012141596 0.96919996
-0.038577568 0.01108284 0.96925002
-0.072576888 0.029189566 0.96100003
-0.065901779 0.025476554 0.9622795
-0.13138694 0.037427738 0.96587503
-0.129124 0.034222413 0.96475005
-0.080523297 0.037353788 0.96387506
-0.075243443 0.034426417 0.96500009
-0.068080433 0.031477999 0.96683341
-0.094591789 0.047753014 0.96550006
-0.085703328 0.042679373 0.96525002
-0.11100109 0.059421457 0.96312505
-0.10474054 0.05524518 0.9636749
-0.098732024 0.051194523 0.96675003
-0.14138842 0.064614438 0.9620626
-0.13570966 0.066835888 0.96189064
-0.12424142 0.067436405 0.96235418
-0.1154272 0.064551435 0.96637505
-0.14204057 0.070190184 0.96650004
-0.13539593 0.072772004 0.96432507
-0.12545586 0.072455376 0.96541667
0.0049225576 -0.10533614 0.97837508
-0.013211896 -0.086817905 0.97450006
0.0027715389 -0.087860145 0.97425002
-0.015335241 -0.035689611 0.97400004
-0.083456405 -0.029289102 0.97350007
-0.10069511 -0.010163367 0.97550005
-0.095186666 -0.015461746 0.97368753
-0.021739561 -0.011218222 0.97462505
-0.018420801 -0.013930995 0.97447228
-0.10288122 -0.0080357166 0.97600007
-0.023876786 -0.0037701197 0.9751429
-0.019686028 -0.0080562998 0.97850007
-0.10970462 0.00049762795 0.97975004
-0.032215886 0.0049751396 0.97562504
-0.026784828 0.0019204711 0.97729176
-0.11751104 0.013257881 0.97341675
-0.053751573 0.017942846 0.9710834
-0.046068337 0.016004687 0.97414291
-0.037862465 0.012254302 0.9781251
-0.12551786 0.02399959 0.97775006
-0.061942574 0.025929652 0.97000003
-0.057571396 0.022488052 0.97391677
-0.13069664 0.032505266 0.97650003
-0.12790278 0.030215802 0.97150004
-0.074929088 0.037364695 0.97333336
-0.13638477 0.045425843 0.97137499
-0.092869252 0.049335733 0.97175002
-0.085702814 0.045875017 0.97485006
-0.07966613 0.041156657 0.97925007
-0.14284243 0.054659232 0.97193754
-0.10217862 0.057078891 0.97340012
-0.094943807 0.053637743 0.97622734
-0.14545189 0.064427137 0.97520006
-0.11330487 0.067147627 0.97755003
-0.10773785 0.062016577 0.97745001
-0.14376338 0.074645519 0.97640628
-0.13506207 0.077373698 0.97720003
-0.12440188 0.075253263 0.97735006
-0.11770568 0.070813529 0.97508335
-0.00042980711 -0.10082181 0.98650002
0.0017162726 -0.1022991 0.98000002
-0.0025898931 -0.098766029 0.98750007
-0.0047242921 -0.0703362 0.98225003
-0.0047242921 -0.067116424 0.98225003
-0.0079384549 -0.057398595 0.98125005
-0.011154586 -0.048808828 0.98100007
-0.015504496 -0.033931535 0.98475003
-0.015541889 -0.022149883 0.98712504
-0.014011404 -0.013287814 0.98592502
-0.0090803234 -0.010301414 0.98875004
-0.021887334 -0.0016459429 0.98125005
-0.015288956 -0.004713736 0.98578954
-0.0081564141 -0.0053644492 0.98914289
-0.11430997 0.0069402182 0.98250008
-0.031648509 0.0091069378 0.98462504
-0.025273547 0.0037417875 0.98768759
-0.015543464 0.0005014881 0.98735011
-0.0090872105 0.00050258014 0.98950005
-0.050064147 0.019908352 0.98675007
-0.034987237 0.012012895 0.9875834
-0.061556883 0.02728891 0.98075008
-0.05582748 0.024225511 0.98691672
-0.13523671 0.037139792 0.98625004
-0.073695019 0.038541932 0.98533344
-0.067067944 0.032720137 0.98291677
-0.1421347 0.049843434 0.98175007
-0.13843726 0.043595064 0.98600006
-0.083613902 0.046916924 0.98800004
-0.078355774 0.041597959 0.98975003
-0.14563331 0.054238487 0.98362505
-0.094879486 0.057127286 0.98155004
-0.088345185 0.05192266 0.98050004
-0.11087826 0.068582952 0.98383331
-0.10482224 0.063951656 0.9842
-0.09947104 0.060740221 0.98450005
-0.14687234 0.078090757 0.98290628
-0.12260908 0.077022485 0.98360002
-0.11612175 0.073677734 0.98485714
-0.1434443 0.081623271 0.98337507
-0.13892867 0.080509961 0.98950005
0.0060655521 -0.092549063 0.99025005
-0.013493216 -0.040818114 0.99525005
-0.015685558 -0.032150678 0.99625003
-0.015677685 -0.027782867 0.99575001
-0.012411284 -0.01690295 0.99575007
-0.0053760824 -0.012345291 0.99506819
-0.10668349 -0.0059966003 0.99150002
-0.0029337036 -0.0046715522 0.99298084
0.0031095089 -0.0054856595 0.99712503
-0.11838485 0.0092375809 0.99875003
-0.023500109 0.0063141268 0.99675006
-0.017927105 0.0026925472 0.99975002
-0.0047719497 0.00050452712 0.99333334
-0.12387431 0.017814966 0.99025005
-0.044899896 0.0178442 0.99187505
-0.034643956 0.013528129 0.99331254
-0.028816011 0.011414439 0.99825007
-0.1315562 0.02889522 0.99925005
-0.061193384 0.028692801 0.99225003
-0.054835606 0.025513986 0.99491674
-0.048173156 0.020019317 0.99225003
-0.064734384 0.032087989 0.99662507
-0.14287829 0.04722802 0.99437499
-0.092763856 0.058031395 0.99337506
-0.088374913 0.053663261 0.9928751
-0.10431974 0.066810809 0.99487507
-0.097167909 0.06132634 0.99400008
-0.15291072 0.078862265 0.99600005
-0.11255994 0.074958533 0.99233341
-0.1081536 0.072263658 0.99506253
-0.1516789 0.083136797 0.99506253
-0.14512469 0.084753826 0.99487501
-0.13544202 0.08145006 0.99570006
-0.12930612 0.081262581 0.99875003
-0.011450222 -0.091913924 1.0070001
-0.0026272659 -0.082678199 1.00175
-0.0048204856 -0.065197669 1.0022501
-0.11430173 0.002696587 1.00125
-0.02126264 0.0092722662 1.0025001
-0.01478816 0.0057434863 1.0036347
-0.0057753981 0.003020939 1.0050714
-0.042261377 0.018107308 1.0065
-0.034464829 0.014767457 1.0035001
-0.026797011 0.01221794 1.0044168
-0.12988871 0.024626069 1.00325
-0.054336064 0.027439274 1.006
-0.047770455 0.021409374 1.0066251
-0.13901065 0.037874673 1.0057501
-0.071053065 0.037997063 1.0090001
-0.064108923 0.033419654 1.003875
-0.059146266 0.032043647 1.0066667
-0.14121021 0.042270418 1.0057501
-0.082798399 0.047694139 1.00425
-0.078318417 0.043256845 1.0031251
-0.14933728 0.055209521 1.00125
-0.08613541 0.051011138 1.00475
-0.15255609 0.064394221 1.0080501
-0.10303743 0.067756243 1.0088751
-0.099764489 0.064472735 1.00925
-0.15278733 0.073694818 1.0047501
-0.12126324 0.079535283 1.0045
-0.11475255 0.079151466 1.0052001
-0.10724875 0.073128685 1.007
-0.15313618 0.087229267 1.0046251
-0.146975 0.087633781 1.0050834
-0.1394944 0.084322423 1.00925
-0.12538332 0.081554137 1.0023335
-0.0048794039 -0.099249467 1.0145
0.0084348666 -0.097056381 1.01475
-0.0093374653 -0.055031363 1.0167501
-0.011515602 -0.04817535 1.01275
-0.013791484 -0.021713365 1.0172501
-0.011552556 -0.019466409 1.016
-0.0048794588 -0.015005257 1.0146251
-0.11184353 -0.0039351271 1.0187501
0.0051041944 -0.0028096673 1.0145001
-0.012606366 0.0093555078 1.0115001
-0.0055075549 0.0062127449 1.0140001
0.0017775682 0.00051553192 1.0150001
0.019612897 0.0071980483 1.0190001
0.022745077 0.0067564584 1.01955
-0.122229 0.01157738 1.0125
-0.023344869 0.012328261 1.0136666
-0.12909472 0.020463184 1.01425
-0.13625108 0.031662054 1.018
-0.14526343 0.045043074 1.0187501
-0.073895037 0.040550664 1.01775
-0.14847024 0.051290378 1.0102501
-0.091228455 0.058042478 1.0125
-0.088992156 0.055816069 1.0122501
-0.094514519 0.061338276 1.012125
-0.15624988 0.076136209 1.01775
-0.10794464 0.076082289 1.0170001
-0.15772294 0.085565567 1.0152918
-0.11187098 0.08068338 1.0190001
-0.00044560083 -0.08664643 1.02275
0.0018020862 -0.08942461 1.029
-0.0071803131 -0.060030885 1.02625
-0.0049178815 -0.016239233 1.0225
-0.11977823 0.0050224443 1.0295
-0.0038206042 0.0078284713 1.028875
0.0018033996 0.0027733438 1.02975
0.025580751 0.0072051124 1.0200001
-0.12588748 0.013950036 1.02425
-0.040756699 0.018422142 1.024
-0.034129027 0.016230484 1.0269166
-0.025123235 0.013970465 1.02575
-0.015011974 0.011718167 1.0248125
-0.0083210422 0.01176176 1.028625
-0.052884012 0.028966064 1.0275835
-0.047614764 0.02296528 1.0270001
-0.064463474 0.036432814 1.0270625
-0.057055391 0.033742636 1.02715
-0.082307652 0.048703343 1.0255001
-0.077605747 0.044099078 1.022625
-0.15398154 0.056511942 1.024875
-0.086835213 0.053211063 1.026
-0.10225496 0.068712994 1.0231251
-0.098886386 0.065351106 1.023
-0.016295662 -0.092207834 1.0350001
-0.00838139 -0.097956859 1.036
-0.023086259 -0.089946039 1.0350001
0.0074399784 -0.0017287643 1.0306251
-0.0011996616 0.0087770997 1.0300834
0.0055622132 0.0054036169 1.0306112
0.014017008 0.0058292244 1.0316175
0.027417367 0.0065474659 1.0331668
-0.026537158 0.015259018 1.0371251
-0.0027016478 0.011780341 1.0302501
0.005188968 0.011789631 1.0310626
0.019877544 0.011808927 1.03275
0.02327968 0.011816074 1.033375
-0.13632868 0.027680572 1.0355
-0.14082395 0.03446091 1.0352501
-0.05360705 0.036765523 1.036341
-0.14729589 0.044545233 1.033
-0.05385733 0.041402318 1.039125
-0.091146082 0.059432629 1.0367501
-0.088878714 0.057167012 1.0367501
0.0041145249 -0.093076453 1.0447501
-0.0050116698 -0.065506369 1.0420001
0.038497578 -0.0040471451 1.04775
0.041552801 -0.0025208904 1.0477501
0.02924093 0.0073781759 1.0445
0.034980979 0.0067310492 1.0453393
0.041515041 0.0031998486 1.0467917
-0.13019155 0.01644912 1.04075
-0.039222494 0.018759459 1.04275
-0.024476891 0.015387079 1.045625
-0.015285206 0.014209663 1.0433125
-0.0050181625 0.014210174 1.04335
0.0052564046 0.014224985 1.0444375
0.014378849 0.011932563 1.0435627
0.028115183 0.01195043 1.045125
0.033851471 0.011957576 1.04575
-0.13526165 0.023361642 1.0447501
-0.043783456 0.02103819 1.04275
-0.14498848 0.037210997 1.049
-0.071063943 0.039220951 1.0415001
-0.048228517 0.039173879 1.0402501
-0.08057908 0.048568539 1.0467501
-0.075803138 0.043880206 1.044
-0.051108696 0.043753296 1.041
-0.045980062 0.045457315 1.0452501
-0.15591665 0.054213032 1.0453751
0.01103996 -0.10286921 1.0515001
-0.11801855 -0.0017679733 1.054
-0.1252005 0.0074611763 1.0562501
0.045687601 0.0056992988 1.0591153
0.050526801 0.0040120804 1.0597501
-0.037438001 0.019011326 1.0567501
-0.00046128564 0.016733611 1.05875
0.0053109624 0.016690148 1.056
0.015012291 0.016227022 1.055775
0.023372134 0.015909659 1.0548613
0.036447119 0.014694315 1.0545714
0.042775039 0.013653409 1.0590833
-0.051122539 0.028148375 1.0530001
-0.045814861 0.023579523 1.0545834
0.020392409 0.021376133 1.0595001
-0.064900354 0.03962766 1.0523001
-0.051102299 0.032737851 1.0525833
-0.047696069 0.038526718 1.0536251
-0.15007584 0.044235259 1.0525
0.056573391 -0.011090625 1.0645001
0.061339118 -0.01111016 1.066375
0.036219813 -0.0045641474 1.0616001
0.045659222 -0.0046109371 1.0603334
0.055037022 -0.0050815665 1.0620264
0.063777782 -0.0051633012 1.0628864
0.048220512 0.0098040914 1.0600001
0.055605981 0.0052747778 1.0605109
0.064230248 0.0046496512 1.0622885
-0.13523602 0.01911477 1.0625
-0.035550717 0.019240703 1.0695001
-0.025968228 0.016757319 1.06025
-0.012106875 0.016828442 1.0647501
-0.0062716962 0.016783003 1.0618751
0.0065409909 0.019216714 1.0681667
0.012341459 0.019155249 1.0647501
0.027404442 0.017942356 1.0617918
0.034772165 0.018337991 1.0623333
0.045949403 0.016771233 1.061075
0.054298423 0.015201723 1.0626719
0.061294608 0.013348784 1.0656251
-0.14077204 0.026246127 1.0692501
-0.040219281 0.021572847 1.0692501
0.016999142 0.021484576 1.0648751
0.025642315 0.022754418 1.0637223
0.036208317 0.024003631 1.0646669
0.051630437 0.022296647 1.0665833
-0.14550605 0.035324953 1.061125
0.05487448 -0.012396375 1.0768126
0.06315475 -0.012796211 1.0775
0.029968806 -0.0017956503 1.0705
0.033087671 -0.0041345176 1.0704166
0.047710314 -0.0088477274 1.074625
0.067805454 -0.0076871961 1.0765001
0.07019233 -0.0041597649 1.077
-0.12959293 0.0099289548 1.0735
0.027634088 0.00054384803 1.07075
0.067522012 0.0075724311 1.072
0.070314527 0.0017272214 1.0788751
-0.033304896 0.019294675 1.0725001
-0.02277646 0.016970687 1.07375
-0.016900698 0.016965419 1.0734167
0.062906742 0.014617041 1.0732501
0.049414653 -0.01131723 1.0862501
0.05405369 -0.013662661 1.0840001
0.044766214 -0.0089640217 1.08875
-0.12371986 0.00055045093 1.08375
0.047461253 -0.011418811 1.0960001
0.056240622 -0.015407993 1.0958334
0.065362975 -0.014396654 1.09475
0.034154054 -0.0072008455 1.0920625
0.041260801 -0.0089784302 1.0905
