# .PCD v0.7 - Point Cloud Data file format
VERSION 0.7
FIELDS x y z
SIZE 4 4 4
TYPE F F F
COUNT 1 1 1
WIDTH 554
HEIGHT 1
VIEWPOINT 0 0 0 1 0 0 0
POINTS 554
DATA ascii
-0.11233084 -0.012621469 0.86946881
-0.10830931 -0.01238606 0.86962509
-0.11333928 -0.0054571368 0.86923701
-0.10587242 -0.0044129095 0.86913896
-0.099261284 -0.0014584942 0.86950004
-0.11141882 0.0019616794 0.86940002
-0.1047072 0.0050220755 0.86843103
-0.096799701 0.0058513056 0.86874998
-0.10317884 0.014212109 0.86912507
-0.095413409 0.015636174 0.86909997
-0.089779161 0.018498134 0.86975002
-0.091681294 0.02134914 0.86975002
-0.089779161 0.02134914 0.86975002
-0.1212647 -0.011636369 0.87275004
-0.11584987 -0.013441811 0.87175
-0.10470274 -0.012647046 0.87128133
-0.099974781 -0.011037893 0.87575006
-0.1223364 -0.0052703498 0.87131667
-0.11804505 -0.0046286019 0.870125
-0.10268461 -0.0074427971 0.87089294
-0.09553694 -0.0048134387 0.87461454
-0.087920062 -0.0021088922 0.87650007
-0.1218348 0.0023549057 0.87357146
-0.11519635 0.005681118 0.87135416
-0.10883176 0.0099479714 0.87000006
-0.092056938 0.0037064014 0.8720358
-0.085392833 0.0057621486 0.87425882
-0.07778848 0.0068371012 0.87754172
-0.11260842 0.012372949 0.87343752
-0.10638271 0.016446982 0.87175006
-0.084716611 0.015285746 0.87168968
-0.075239986 0.01496742 0.87616372
-0.068497375 0.017736116 0.87910718
-0.10183735 0.022924565 0.87531251
-0.095144212 0.024693912 0.87119734
-0.084921859 0.025299972 0.87038815
-0.074835174 0.025241327 0.87298012
-0.066038661 0.025798285 0.87715912
-0.059335228 0.028619258 0.87900001
-0.09188623 0.032579847 0.87530005
-0.084297329 0.034411669 0.87127006
-0.074737139 0.034736749 0.87181991
-0.065440908 0.034861065 0.87499017
-0.055605527 0.035487391 0.87774998
-0.048483353 0.038897317 0.87975001
-0.081722058 0.042451058 0.87367857
-0.074882284 0.04434872 0.87347984
-0.06535051 0.044360232 0.87376016
-0.054970972 0.044467401 0.8758834
-0.047356963 0.045677431 0.87869447
-0.073145494 0.05299072 0.87555784
-0.065464489 0.054961994 0.87526667
-0.054959211 0.054983661 0.8756597
-0.044890791 0.055578947 0.87782413
-0.038863342 0.058122557 0.87975001
-0.07155104 0.06002802 0.87950003
-0.064310923 0.062644392 0.879125
-0.053600527 0.06423796 0.87829411
-0.044552106 0.065691903 0.87812012
-0.038204834 0.065783747 0.87936115
-0.043015648 0.07219395 0.8794167
-0.0388523 0.071559891 0.87950003
-0.19047463 -0.073199302 0.8869167
-0.18560021 -0.072608948 0.88679999
-0.18282779 -0.06667652 0.88824993
-0.17860001 -0.066568948 0.88895839
-0.15463068 -0.042451281 0.889
-0.14923497 -0.040935908 0.88774997
-0.1534379 -0.037588131 0.88810003
-0.14771907 -0.036088079 0.88854545
-0.11592273 -0.016485635 0.88050002
-0.093525991 -0.0073050098 0.88725007
-0.12419528 0.0052830442 0.88456255
-0.081560545 0.0023801336 0.88375002
-0.12021556 0.010105195 0.88375002
-0.11473367 0.014977676 0.88620836
-0.10904923 0.019839786 0.88725007
-0.064895123 0.0177658 0.88054174
-0.1038404 0.024600014 0.88418752
-0.097853065 0.029376239 0.88250005
-0.061350387 0.022891149 0.88033336
-0.056026883 0.027178373 0.88072228
-0.094543681 0.034397706 0.88768756
-0.089417845 0.039129443 0.88500005
-0.051897593 0.031717084 0.88056254
-0.045893729 0.037065081 0.88185006
-0.084855311 0.044580575 0.8835358
-0.043177351 0.044173602 0.88195312
-0.036555834 0.046275903 0.88606668
-0.077049382 0.053898066 0.88383341
-0.041459773 0.051111888 0.88041669
-0.035000551 0.054348961 0.88355213
-0.028004587 0.056509547 0.8879723
-0.073553406 0.064177223 0.88816667
-0.064626649 0.066570356 0.88248211
-0.056063633 0.068281859 0.8812778
-0.033722591 0.064599738 0.88195246
-0.026096767 0.064929135 0.88740629
-0.062441275 0.071176611 0.88668752
-0.053667482 0.07492432 0.88336843
-0.045227889 0.076584533 0.88142115
-0.034915719 0.075721696 0.88132304
-0.025430091 0.075137146 0.88575864
-0.019278618 0.075125314 0.8892144
-0.050693844 0.08165431 0.88475007
-0.04409473 0.084750116 0.88515794
-0.035182942 0.085447319 0.88395
-0.025556615 0.08558698 0.88542008
-0.016733179 0.085523702 0.88813549
-0.041193016 0.091708623 0.88850003
-0.034730386 0.093945384 0.88782811
-0.02563045 0.094559446 0.88790005
-0.014961376 0.095607199 0.88862503
-0.17530523 -0.062495038 0.89088887
-0.17361149 -0.056953862 0.89219451
-0.16527757 -0.052802276 0.89225006
-0.15840285 -0.050228588 0.89200002
-0.16217329 -0.046293333 0.89127505
-0.15741041 -0.046657644 0.89080012
-0.15201664 -0.033754136 0.89462507
-0.14372911 -0.032284882 0.89175004
-0.13943993 -0.030856248 0.89550006
-0.14230788 -0.026952116 0.89596432
-0.13816343 -0.026377197 0.8985278
-0.1302087 -0.014284186 0.89937508
-0.12643956 -0.014887682 0.898
-0.10472096 -0.014159126 0.89175004
-0.12949568 -0.0054113893 0.89445001
-0.096354082 -0.0093298778 0.89550006
-0.087774195 -0.0024881128 0.89787507
-0.1287033 0.0024146375 0.89575005
-0.084438063 0.00045394743 0.89375007
-0.076108038 0.0073344493 0.89925003
-0.12173288 0.013666099 0.89493752
-0.11592703 0.01778142 0.89205563
-0.072034284 0.011242801 0.89750004
-0.066149123 0.015657701 0.8975625
-0.11310416 0.025254292 0.89580017
-0.10668919 0.027011273 0.8945834
-0.061221432 0.020063397 0.89725006
-0.055223249 0.025889467 0.89540005
-0.11081264 0.034226302 0.89840013
-0.1043572 0.035739843 0.8969301
-0.096298084 0.037615556 0.89497507
-0.046244651 0.03457031 0.89218754
-0.10243037 0.044205185 0.89881825
-0.094456598 0.045493931 0.8960501
-0.087045491 0.047979649 0.89375001
-0.093108803 0.053190384 0.89679563
-0.08459878 0.055300217 0.89368755
-0.077514201 0.057278834 0.89055002
-0.026707664 0.054991998 0.89137506
-0.082750507 0.061605245 0.89308333
-0.076721236 0.064663902 0.89040005
-0.02122964 0.062285811 0.89350003
-0.018565893 0.06727194 0.89058346
-0.063407898 0.073974773 0.89480007
-0.058240872 0.077747025 0.89166671
-0.014134558 0.074699596 0.89173764
-0.0075737201 0.078124374 0.89600009
-0.053720243 0.084312484 0.89652508
-0.048686206 0.087840594 0.89525002
-0.011434526 0.083889417 0.89139587
-0.0055722455 0.08543466 0.89576471
-0.051553302 0.090903588 0.89975005
-0.045087513 0.092909381 0.89632511
-0.036210466 0.09837383 0.89320832
-0.025695866 0.099659935 0.89015007
-0.004288685 0.095055796 0.89261669
0.0021338463 0.094876118 0.8975001
-0.03367728 0.10153482 0.89525008
-0.025190732 0.10440718 0.89255881
-0.015023181 0.10573161 0.89210856
-0.0042874259 0.10566375 0.8915602
0.0032181977 0.10646638 0.89328849
-0.022828585 0.11199395 0.89767867
-0.013884193 0.11431284 0.89645594
-0.0043040868 0.11483838 0.89471263
0.0045098751 0.11498355 0.89584374
-0.0026851604 0.12091288 0.89870834
0.0038690232 0.12095182 0.89899999
-0.16632311 -0.044936728 0.90325004
-0.15006539 -0.04283575 0.90050006
-0.14830159 -0.040924609 0.90175003
-0.16075581 -0.039105203 0.90525007
-0.15031536 -0.031080218 0.90200007
-0.14400207 -0.036152598 0.90575004
-0.14846604 -0.029133273 0.90275002
-0.13431406 -0.02228298 0.90052783
-0.13283823 -0.01799234 0.90053129
-0.12836653 -0.019215981 0.90025002
-0.11706043 -0.019299582 0.9041667
-0.12643281 0.0083288532 0.90050006
-0.081587523 0.0024387112 0.90550005
-0.079189613 0.0043943338 0.90075004
-0.11770061 0.024099631 0.90150005
-0.11287847 0.034631778 0.90233332
-0.11116938 0.042960085 0.90450007
-0.10615688 0.046315487 0.90163636
-0.040144432 0.040179528 0.90875006
-0.03515403 0.045116398 0.90818757
-0.10204148 0.05256452 0.90541673
-0.095538139 0.056054786 0.90320843
-0.030198995 0.05009523 0.90850002
-0.02611874 0.055840809 0.90500003
-0.085457049 0.064370088 0.90450001
-0.077285431 0.068752743 0.90150005
-0.02226373 0.060055025 0.90900004
-0.016179396 0.067510687 0.90241671
-0.072784521 0.072794832 0.90275002
-0.06640444 0.076294094 0.90327078
-0.011285715 0.072686508 0.90550005
-0.006343266 0.077733338 0.90666676
-0.061967179 0.083323218 0.90818757
-0.05725567 0.08593078 0.90431255
-0.0023701629 0.084345073 0.90325004
0.0015814226 0.089258611 0.90300006
-0.052880082 0.092486829 0.90562505
-0.046354376 0.096754253 0.90387505
0.0048822998 0.09662912 0.90429163
-0.042120267 0.10171437 0.90850002
-0.035131656 0.10460027 0.9048056
-0.029012674 0.10794546 0.90250003
0.0071483944 0.10456462 0.90418756
0.013054963 0.10730962 0.90733337
-0.024727756 0.11459749 0.90831256
-0.016171305 0.11804926 0.90183336
0.0094692726 0.11476846 0.90190011
0.014457059 0.11519207 0.90521258
-0.011778416 0.1216037 0.90506256
-0.00435607 0.1255032 0.90535003
0.0060413727 0.12562861 0.90163159
0.012692126 0.12305577 0.90303129
0.0045487573 0.13092476 0.90456253
-0.13993788 -0.031407557 0.91150004
-0.13424239 -0.025484493 0.91344994
-0.12565336 -0.019560171 0.91637504
-0.091994293 -0.005506712 0.91050005
-0.12570369 0.014495849 0.91675007
-0.070205994 0.012421219 0.91200006
-0.12207891 0.022573113 0.91962504
-0.11898105 0.028582936 0.91900003
-0.11498481 0.035736285 0.91383338
-0.045529108 0.035527918 0.91700006
-0.1132588 0.044458691 0.91500008
-0.10465224 0.054559965 0.91675007
-0.098102182 0.057581197 0.91175002
-0.094663829 0.061258137 0.91708344
-0.083138034 0.068197176 0.91162503
-0.020325946 0.062195037 0.91125005
-0.017453052 0.065631598 0.91750002
-0.081080124 0.071090974 0.91466671
-0.075284548 0.076295905 0.91615635
-0.071369529 0.081416637 0.91841668
-0.065378964 0.085027464 0.91697502
-0.00039865536 0.086445659 0.91500002
0.001603314 0.088493548 0.91550004
-0.05444517 0.09448383 0.91534996
0.0062432191 0.096004449 0.91083336
-0.044946961 0.10199037 0.91543752
-0.036406644 0.10737818 0.9145
0.0096514346 0.10090908 0.91925007
-0.031316213 0.11109063 0.91212505
-0.025373975 0.11675514 0.91356254
-0.018317964 0.1198458 0.91050005
0.019231353 0.11455266 0.91590005
-0.020431897 0.12056975 0.91600007
-0.012721129 0.12529323 0.91391677
-0.0063854838 0.12906383 0.91237503
0.01763385 0.1256637 0.91607702
0.021713765 0.12903291 0.91925007
-0.0030731226 0.13175543 0.91491675
0.0081196371 0.13422102 0.91693753
0.015042912 0.13268557 0.91778851
0.021725575 0.13111302 0.91975003
-0.16180159 -0.037834425 0.92250001
-0.14674592 -0.024740219 0.92300004
-0.14197208 -0.019738937 0.92475003
-0.13772929 -0.015675487 0.92341667
-0.11181691 -0.017746814 0.92625004
-0.10339192 -0.012646947 0.92337501
-0.13240422 0.0044955635 0.92150003
-0.073011987 0.01054542 0.92225003
-0.063319571 0.01872303 0.92800003
-0.061257035 0.020739816 0.92750007
-0.055986147 0.025708446 0.92412508
-0.050729103 0.030641165 0.92050004
-0.11427277 0.049235176 0.92975003
-0.1111034 0.052226357 0.92875004
-0.10584519 0.057202224 0.92716676
-0.027783217 0.054176863 0.92737502
-0.095220625 0.062949702 0.92237508
-0.088138282 0.067985132 0.92225003
-0.014587373 0.06930995 0.92650002
-0.083520889 0.07340274 0.92700005
-0.011569273 0.07248418 0.92825007
-0.065853372 0.088007867 0.92087507
-0.0024148293 0.082964651 0.92075002
-0.061997168 0.091272615 0.92337501
-0.057011504 0.095428087 0.92449999
0.005656946 0.093999244 0.92374998
-0.053272221 0.10002992 0.92975003
-0.043525528 0.1054975 0.92425007
-0.036617346 0.10903335 0.92000002
0.014732304 0.10630872 0.92250007
-0.034797173 0.11243977 0.92490005
-0.027686667 0.1186101 0.92412508
-0.02163385 0.12271682 0.92462504
-0.016224122 0.12660445 0.9235
-0.012583653 0.13127401 0.92800003
-0.0044488302 0.13452254 0.92475003
0.0026179203 0.13520636 0.92025006
0.018759513 0.1368649 0.92237502
0.022641974 0.13603577 0.92196435
0.017856589 0.14036313 0.92775005
-0.15134734 -0.041589145 0.93900007
-0.16165827 -0.035442568 0.93925005
-0.14724019 -0.037485138 0.93900007
-0.11636867 -0.019856336 0.93025005
-0.09641131 -0.0076899165 0.93400002
-0.086128861 0.00047401001 0.93325007
-0.076005191 0.008641012 0.93425006
-0.13166282 0.010722655 0.93775004
-0.11875314 0.035135042 0.93300003
-0.12102018 0.047456514 0.93475008
-0.11807948 0.047028143 0.93304175
-0.12102017 0.05154267 0.93475002
-0.11434545 0.055172011 0.93345314
-0.10784179 0.058908146 0.93275005
-0.023870688 0.05858339 0.93300003
-0.10264152 0.062448535 0.93491673
-0.094605424 0.066060692 0.93300009
-0.085714675 0.075497158 0.93507147
-0.078805082 0.078812927 0.93112504
-0.0065127891 0.07778576 0.93100005
-0.081278831 0.080258586 0.93612504
-0.07501106 0.083698012 0.93456256
-0.069950402 0.088358805 0.93525004
-0.0004071513 0.086245775 0.93450004
-0.065220892 0.092491291 0.93575001
-0.059771392 0.096611448 0.93600005
0.0078114471 0.096998513 0.93975002
-0.051362872 0.10230869 0.93200004
-0.047505964 0.10618449 0.93625003
0.0097695505 0.10011061 0.93050003
0.011890175 0.102885 0.93725002
-0.033028226 0.11660933 0.93233341
0.021465719 0.11659274 0.93766671
-0.022954913 0.12541571 0.93724996
-0.018881284 0.12968406 0.93850005
0.022127137 0.12534459 0.93675005
-0.013725574 0.13350846 0.93656254
-0.0075523136 0.13619065 0.93387508
0.0057247258 0.13949129 0.93550003
0.012833139 0.1388762 0.93137503
0.025315231 0.1351051 0.93345004
-0.0014366672 0.14008772 0.93950003
0.017022325 0.1428826 0.93762505
0.023372233 0.14305386 0.93739998
-0.13285623 -0.022265704 0.94625002
-0.13821951 -0.011853997 0.94050002
-0.079280615 0.0067035798 0.94900006
-0.066317372 0.016942432 0.94175005
-0.12411769 0.027261415 0.94275004
-0.12202355 0.03137349 0.94250005
-0.12487471 0.04815533 0.94850004
-0.12391497 0.055344999 0.94603837
-0.11799489 0.058195241 0.94325006
-0.12215354 0.061305262 0.9467001
-0.11441003 0.064141169 0.94405365
-0.10624981 0.066032834 0.9452334
-0.098252185 0.068243042 0.94681257
-0.021017419 0.062251758 0.94225007
-0.018966788 0.064344987 0.94275004
-0.10436608 0.072235115 0.94828129
-0.095683783 0.073327638 0.94700009
-0.088584989 0.078220844 0.94862503
-0.080734536 0.082798854 0.94175005
-0.075995378 0.086354762 0.94687504
0.0016576042 0.08942166 0.94650006
-0.058125235 0.099342018 0.94250005
-0.043603864 0.10940761 0.94050002
0.01512666 0.10708997 0.94725001
-0.041569091 0.11152215 0.94100004
-0.037514742 0.11583092 0.94258338
-0.032491058 0.1214675 0.94637507
-0.029361097 0.1223865 0.94550002
-0.013882745 0.13814513 0.94729179
-0.0086418046 0.13825502 0.94100004
0.025530491 0.13321048 0.94900006
-0.0045246915 0.14027411 0.94075006
0.0099532884 0.14342684 0.94800007
0.012973562 0.14246233 0.94162506
-0.16039205 -0.032734152 0.95000005
-0.15835607 -0.030666178 0.95025003
-0.14711516 -0.035112493 0.95825005
-0.13199618 0.015093837 0.95500004
-0.12994163 0.019272817 0.95525002
-0.1278525 0.023447847 0.95525002
-0.12145787 0.038020607 0.95425004
-0.12145787 0.041148603 0.95425004
-0.13030438 0.057007145 0.95791674
-0.12538882 0.063267194 0.9576667
-0.11743945 0.067999467 0.95550007
-0.11099412 0.071367182 0.95400006
-0.10531132 0.075952433 0.95925003
-0.093957052 0.077336758 0.95050007
-0.076487884 0.087935336 0.95287502
-0.0025046561 0.083963796 0.95500004
-0.071221888 0.092045859 0.95225006
-0.066177949 0.096449912 0.95462507
0.0048141554 0.093526229 0.95675004
-0.05583626 0.10392585 0.95625007
0.0099979099 0.10036969 0.95225006
-0.043371521 0.11460038 0.95812505
0.018318523 0.11071631 0.95175004
0.022499168 0.11704808 0.95250005
-0.025372058 0.12725508 0.95100003
-0.021207016 0.1313768 0.95075005
-0.018423455 0.13475682 0.9501667
0.028122863 0.13751052 0.95491672
-0.0035453336 0.14399511 0.95518756
0.004801604 0.14441024 0.95450002
-0.15870367 -0.04590394 0.96500003
-0.14267161 -0.01214519 0.96362507
-0.14010783 0.0047211954 0.96775007
-0.082834877 0.0047138776 0.96625006
-0.07024657 0.015291399 0.96750003
-0.13398305 0.058747731 0.96937501
-0.13181204 0.062960818 0.96900004
-0.12570909 0.06729643 0.96440011
-0.11802144 0.069736287 0.96025002
-0.017218808 0.067637846 0.96025002
-0.12482429 0.071622916 0.96683335
-0.11520059 0.072566979 0.96300006
-0.1065279 0.076332904 0.96400005
-0.098328426 0.078333467 0.96275008
-0.090744346 0.080249384 0.96050006
-0.086588189 0.08239124 0.96100003
-0.078791566 0.089383662 0.96850002
-0.075692222 0.092654213 0.96950006
0.0080525028 0.097874805 0.96875006
-0.061335921 0.10123926 0.96050006
-0.053153962 0.10798406 0.96450007
0.012229532 0.10371481 0.96400005
-0.051163688 0.1103486 0.96675003
0.020657199 0.11421835 0.96375006
-0.035180449 0.12367119 0.96350002
-0.028925579 0.12814102 0.96550006
-0.13941725 -0.025143599 0.97775006
-0.14369391 -0.0080501242 0.97775006
-0.092019774 -0.0016337818 0.97400004
-0.13963114 0.0090572238 0.97925007
-0.13425578 0.066298865 0.97650009
-0.13218625 0.07221362 0.97962505
-0.12549484 0.074564181 0.97762507
-0.11515617 0.075972445 0.97750002
-0.10517712 0.079533584 0.97750002
-0.094101563 0.08133553 0.97350007
-0.087747984 0.084559321 0.97387505
-0.00042555918 0.088010564 0.97675008
-0.071598783 0.097091675 0.97150004
-0.066446163 0.10122638 0.97383338
-0.059867449 0.10444102 0.97075003
0.013838706 0.10597809 0.97841674
-0.047378361 0.11566211 0.97591668
0.023001119 0.11753144 0.97375005
0.025067789 0.12466442 0.97131252
-0.14918126 -0.03396599 0.98575002
-0.16174617 -0.029589966 0.98350006
-0.14952177 -0.016770851 0.98800004
-0.14520028 -0.0059754322 0.98800004
-0.086948127 0.0026635951 0.98900002
-0.14112833 0.069715761 0.98975003
-0.13766503 0.067993134 0.98050004
-0.14032626 0.072546706 0.98412502
-0.13574357 0.075004846 0.98339581
-0.11428089 0.077773549 0.98225003
-0.10846764 0.080387913 0.98800004
-0.095454305 0.083584487 0.98750007
-0.086936861 0.088022724 0.98887503
-0.081581749 0.092403226 0.98950005
-0.074568637 0.098202541 0.98262501
-0.071317516 0.10138525 0.98225003
-0.058458246 0.10787969 0.98275006
-0.055463873 0.11156976 0.98687506
-0.14285378 0.067855075 0.99425006
-0.13966577 0.065720275 0.99475002
-0.15174626 0.074390709 0.99857146
-0.14574625 0.075424589 0.99465001
-0.13163598 0.078515857 0.99162507
-0.12433608 0.078699946 0.99395007
-0.11782181 0.078703903 0.99400002
-0.14563388 0.081232071 0.99837506
-0.11183209 0.081262581 0.99875003
-0.10040563 0.083027408 0.99375004
-0.078593284 0.097047284 0.99275005
-0.13008292 0.046619765 1.00475
-0.15160266 0.057426218 1.00175
-0.14661917 0.05685785 1.0013751
-0.13835412 0.055195734 1.001
-0.16706407 0.068875246 1.009125
-0.17047985 0.072227821 1.00975
-0.16465162 0.075185105 1.007327
-0.15625094 0.076895803 1.0018889
-0.16104628 0.081852473 1.006
-0.1551701 0.083411805 1.0035501
-0.14040288 0.081364281 1
-0.13460334 0.081832126 1.0057499
-0.10480019 0.083936006 1.0046251
-0.094864503 0.087186396 1.0041251
-0.18077815 0.049459197 1.018
-0.1913915 0.058200125 1.0152501
-0.18398871 0.055300876 1.0147647
-0.17561379 0.055556893 1.0168655
-0.16981304 0.058415096 1.0190001
-0.19118413 0.064786844 1.01415
-0.18547998 0.064730152 1.013275
-0.17540973 0.064689808 1.01272
-0.16933392 0.063795775 1.016125
-0.15383489 0.060493141 1.0165
-0.14678034 0.068458505 1.0138334
-0.18389632 0.074248262 1.0147291
-0.17526406 0.074590765 1.0118594
-0.16831321 0.077763602 1.01
-0.15590446 0.071529537 1.0155001
-0.18068935 0.080564611 1.0175
-0.17438628 0.08323817 1.0166731
-0.16635834 0.084267549 1.0146539
-0.15467128 0.087540336 1.0136429
-0.14465898 0.084765241 1.01455
-0.12551811 0.082360998 1.0122501
-0.11628124 0.08304511 1.0138125
-0.18565583 0.049872167 1.0265
-0.17861351 0.049787149 1.02475
-0.1916866 0.054477751 1.0287501
-0.1892526 0.052178849 1.02775
-0.17274065 0.053871363 1.0258001
-0.16745947 0.05839793 1.0285001
-0.16530217 0.063208073 1.0290625
-0.15653732 0.065056682 1.02545
-0.14814295 0.067603193 1.0232501
-0.1903823 0.074202612 1.0217501
-0.1868929 0.07749521 1.021
-0.16228047 0.072392389 1.02775
-0.15976031 0.072269127 1.026
-0.19560803 0.058013126 1.031625
-0.17683542 0.050236553 1.034
-0.19713986 0.064909399 1.0337501
-0.16716819 0.067309685 1.0301667
-0.19037111 0.048545342 1.0462501
-0.18424296 0.048438039 1.0439376
-0.19603294 0.05424514 1.0459375
-0.17393808 0.052990627 1.04375
