# .PCD v0.7 - Point Cloud Data file format
VERSION 0.7
FIELDS x y z
SIZE 4 4 4
TYPE F F F
COUNT 1 1 1
WIDTH 551
HEIGHT 1
VIEWPOINT 0 0 0 1 0 0 0
POINTS 551
DATA ascii
-0.053466745 -0.051872231 0.92919445
-0.048164863 -0.052328944 0.92929167
-0.06271112 -0.041484777 0.92900008
-0.055029888 -0.043973375 0.92794794
-0.048139174 -0.044181615 0.92879999
-0.064476267 -0.034645289 0.92818761
-0.055160426 -0.034992851 0.92732495
-0.048156042 -0.035060633 0.92912507
-0.072195373 -0.024229934 0.92904168
-0.065272577 -0.025862198 0.92688012
-0.055121604 -0.025856003 0.92668998
-0.047267668 -0.026204498 0.92878574
-0.074009404 -0.015407853 0.92879421
-0.065238684 -0.015725214 0.92641008
-0.055144701 -0.015736101 0.92709017
-0.048592746 -0.016640984 0.92914289
-0.074955821 -0.0053372388 0.92812502
-0.065233678 -0.0056028748 0.92636025
-0.055200376 -0.0056120562 0.92803001
-0.074941352 0.0042504561 0.92794329
-0.065259241 0.0045222188 0.92674011
-0.056963336 0.0033706953 0.92837495
-0.083718419 0.017585535 0.92914295
-0.075490601 0.014664164 0.92789996
-0.066580757 0.014102118 0.92790276
-0.092679702 0.027280176 0.92935002
-0.08562763 0.024800159 0.9278
-0.075391173 0.024772238 0.92670012
-0.06677784 0.024209902 0.92797059
-0.092377178 0.032459889 0.92937505
-0.085622892 0.034938253 0.92774999
-0.075836577 0.034678217 0.92785859
-0.069492295 0.031944163 0.92912507
-0.091881201 0.048206046 0.92950004
-0.085688695 0.045109328 0.92847013
-0.078152008 0.044206783 0.9288637
-0.093547814 0.055752125 0.92896146
-0.08603742 0.054988611 0.92844576
-0.079705797 0.051266968 0.92975003
-0.092679486 0.0630247 0.92935008
-0.087565668 0.06297268 0.92925
-0.052150726 -0.082965955 0.93700004
-0.045174297 -0.085074916 0.93594587
-0.036906011 -0.084137805 0.93457144
-0.054922841 -0.074621782 0.93475008
-0.045290686 -0.074955791 0.93285996
-0.035122935 -0.075029753 0.93381011
-0.062568292 -0.064191803 0.93571872
-0.055497464 -0.064766519 0.93293005
-0.045246247 -0.064700775 0.93198997
-0.036408558 -0.06546203 0.93479168
-0.070025198 -0.050674316 0.93625003
-0.064462878 -0.054341029 0.93475002
-0.05645461 -0.055912189 0.93189067
-0.044243656 -0.055115454 0.93122369
-0.038012274 -0.055486716 0.93457508
-0.072724111 -0.042814616 0.93583339
-0.066462226 -0.045173246 0.93159217
-0.059388243 -0.048303701 0.93000007
-0.043178014 -0.044301823 0.93134999
-0.03927495 -0.045511428 0.93537503
-0.074214995 -0.033537388 0.93259376
-0.069105223 -0.036647711 0.93075001
-0.043679677 -0.035630457 0.93342507
-0.076998159 -0.025038769 0.93103844
-0.045284469 -0.021948043 0.93275005
-0.081931464 -0.014804685 0.93193758
-0.078988567 -0.016553706 0.93028128
-0.046522237 -0.015847363 0.93310004
-0.084365591 -0.0050008558 0.93206257
-0.079734378 -0.007657852 0.93008345
-0.048646744 -0.0073314286 0.9320417
-0.090565301 0.0066151298 0.93691677
-0.084990568 0.004546565 0.93193752
-0.079727232 0.0065693669 0.93000007
-0.054426134 0.006309194 0.93467855
-0.091959141 0.015189896 0.93258339
-0.086053029 0.013763297 0.93094999
-0.062417012 0.016184336 0.93185711
-0.057049796 0.014458652 0.93619442
-0.094985008 0.024145423 0.93093187
-0.062659442 0.026222015 0.93331254
-0.057928968 0.024752593 0.93696433
-0.10042935 0.036169156 0.93337506
-0.0957698 0.035714056 0.93146878
-0.071630128 0.038091317 0.93050003
-0.06543377 0.035452966 0.93431532
-0.059172835 0.033592869 0.93733335
-0.10203294 0.046651017 0.93495005
-0.095493495 0.044924449 0.93166667
-0.073745474 0.04598669 0.93153578
-0.067229748 0.04463084 0.93595594
-0.10238492 0.055497669 0.93258327
-0.097515114 0.054509617 0.9306072
-0.081783108 0.058409899 0.93025005
-0.075532943 0.0556392 0.93354005
-0.069987804 0.051597811 0.93575007
-0.10296014 0.065686099 0.93431252
-0.095843077 0.066400982 0.9311167
-0.084379107 0.067196339 0.93148625
-0.077455372 0.064427108 0.93473089
-0.10492012 0.074681051 0.93615913
-0.09404292 0.075698845 0.93244797
-0.084162764 0.074985452 0.93412495
-0.078319892 0.07423266 0.9375
-0.10451857 0.084072269 0.93493748
-0.094501488 0.084881999 0.93339294
-0.08559873 0.083439864 0.9353677
-0.10225942 0.091000326 0.93612504
-0.094530046 0.091459706 0.93559998
-0.0884533 0.090499267 0.93625003
-0.055021245 -0.082912743 0.94225001
-0.03466782 -0.087680265 0.94925004
-0.032463267 -0.064603753 0.94554168
-0.036294103 -0.054669678 0.94650006
-0.039532129 -0.040671136 0.94150007
-0.077853993 -0.036657512 0.94425005
-0.042127479 -0.031942628 0.94200003
-0.08270622 -0.021108646 0.94075
-0.043758407 -0.026329421 0.94383335
-0.084819935 -0.012894852 0.94137502
-0.045701187 -0.013919599 0.94133335
-0.091153339 -0.0015817826 0.94300002
-0.087978274 -0.0077565396 0.94212508
-0.045958892 -0.0045967777 0.94344234
-0.09104459 0.0015071243 0.9418751
-0.051827863 0.0056160013 0.94043756
-0.048420884 0.0036663944 0.94331831
-0.095381044 0.014923987 0.94400007
-0.052662425 0.01486758 0.94065011
-0.049972914 0.010796979 0.94425005
-0.10181468 0.029430471 0.94625002
-0.099587128 0.026282867 0.94475007
-0.05472438 0.024775537 0.94606256
-0.10124979 0.03132356 0.94100004
-0.060378045 0.039738186 0.94550002
-0.058572356 0.035765819 0.94975007
-0.10356849 0.042738628 0.94337505
-0.062428642 0.04385668 0.94533342
-0.10815142 0.05741363 0.94737506
-0.070520699 0.057142824 0.94287503
-0.068830751 0.055381887 0.94800001
-0.10766149 0.062302988 0.94308335
-0.073159106 0.064924158 0.94368756
-0.11012152 0.070806116 0.94650006
-0.076565541 0.073476277 0.94541669
-0.11233966 0.084360167 0.94775003
-0.10985974 0.089209087 0.94425005
-0.08271984 0.08651381 0.94483346
-0.10538818 0.096031114 0.94445598
-0.095776066 0.097397275 0.94501787
-0.087598257 0.092968591 0.94470006
-0.10447412 0.10411934 0.94847918
-0.098250233 0.10280099 0.94780004
-0.043153159 -0.093257323 0.95325005
-0.038886677 -0.091986686 0.95087504
-0.053899512 -0.088580579 0.95900005
-0.062142655 -0.074782595 0.95675004
-0.029753923 -0.074890599 0.95815003
-0.066124722 -0.065187827 0.95387506
-0.031786233 -0.061157182 0.95625007
-0.071203187 -0.053607196 0.95200002
-0.069048569 -0.057707336 0.95100003
-0.034453716 -0.0550001 0.95567864
-0.075640254 -0.045442969 0.95541668
-0.0361914 -0.046210263 0.95796162
-0.040209193 -0.034041464 0.95762503
-0.03810028 -0.033499226 0.95737505
-0.082936421 -0.026652509 0.95525002
-0.041633289 -0.024020066 0.95429176
-0.03598468 -0.024605924 0.95670003
-0.086773433 -0.015523058 0.95533341
-0.042130906 -0.015146729 0.95372921
-0.037307572 -0.015859669 0.95483333
-0.090342827 -0.0078731086 0.95625007
-0.041968871 -0.0070842034 0.95600003
-0.094385393 0.0067435107 0.95483333
-0.045312624 0.0039609279 0.95491672
-0.097074866 0.015022168 0.95050001
-0.05148498 0.016107824 0.95312506
-0.048465949 0.010922758 0.95525002
-0.10019324 0.022292413 0.95050001
-0.054611549 0.028605185 0.953125
-0.1043507 0.038909215 0.95050001
-0.057337981 0.034473203 0.95225
-0.1069613 0.046410512 0.95525002
-0.062995419 0.046862584 0.95387506
-0.059127398 0.040295068 0.95875007
-0.10892199 0.053652864 0.95412505
-0.066655807 0.053860813 0.95503575
-0.11092867 0.06611041 0.95343751
-0.072027534 0.067178361 0.95375007
-0.069348067 0.062060796 0.95512503
-0.11279897 0.078466311 0.95162505
-0.075633876 0.075993836 0.95541674
-0.081977598 0.088253103 0.95625007
-0.079614781 0.082748026 0.95300007
-0.11218383 0.092336386 0.95525002
-0.090413675 0.098779008 0.95700002
-0.085166901 0.09353517 0.95687503
-0.10510125 0.10820959 0.9510417
-0.095751755 0.10412236 0.95806259
-0.10554248 0.1114246 0.95187497
-0.040707804 -0.10120305 0.96950006
-0.042353667 -0.097697407 0.96835005
-0.036915299 -0.095430776 0.96731257
-0.059435755 -0.081648007 0.96375006
-0.029819136 -0.068760842 0.96025002
-0.032062128 -0.054307986 0.96455002
-0.033163119 -0.04385002 0.96608335
-0.034696594 -0.035869598 0.96200001
-0.032018915 -0.025816798 0.96325004
-0.089335911 -0.014315983 0.96800005
-0.036374327 -0.014306433 0.96708339
-0.092941605 -0.0037139875 0.96150005
-0.040571343 -0.0037312426 0.96625
-0.04377342 0.0041873264 0.96700007
-0.101669 0.019459443 0.96450007
-0.098466814 0.013131421 0.96412504
-0.051031381 0.018401081 0.96425009
-0.048998684 0.014209058 0.9657501
-0.10372455 0.027875898 0.96400005
-0.053103443 0.023653673 0.96358341
-0.10575046 0.036274202 0.96325004
-0.056041609 0.035439491 0.96340007
-0.10836096 0.044902992 0.96775007
-0.061647229 0.047961213 0.96537507
-0.058822587 0.042676166 0.96525002
-0.06440714 0.053186972 0.9645834
-0.071106017 0.069012843 0.96487504
-0.068673521 0.063769847 0.96525002
-0.1138954 0.075030513 0.96087503
-0.072530769 0.072545409 0.96975005
-0.080512851 0.087896332 0.96375
-0.077847712 0.082782559 0.96558338
-0.11317223 0.096961014 0.9666667
-0.085675672 0.096197166 0.96256256
-0.11259387 0.10517676 0.96775007
-0.094664395 0.10524291 0.96837503
-0.1119182 0.11260557 0.96799999
-0.10490795 0.11491606 0.96518755
-0.099766098 0.11032007 0.96650004
-0.014006257 -0.17243129 0.97584093
-0.015936254 -0.1651625 0.97815633
-0.023996577 -0.15151727 0.97975004
-0.023905138 -0.14540422 0.97605008
-0.019667586 -0.14691174 0.97758341
-0.030323757 -0.13394195 0.97650003
-0.025139507 -0.13639008 0.97517651
-0.031880949 -0.12445595 0.97663647
-0.02725438 -0.12595388 0.97705555
-0.033454802 -0.11449464 0.97441661
-0.028173732 -0.11894444 0.97600007
-0.036116797 -0.10453428 0.97233933
-0.034701224 -0.095825016 0.97950006
-0.057908017 -0.086728811 0.97350007
-0.070881881 -0.061372932 0.97625005
-0.068764441 -0.06565655 0.97650003
-0.030269414 -0.066602312 0.97475004
-0.074103698 -0.054986246 0.97650003
-0.077366188 -0.048622251 0.97725004
-0.081724197 -0.037983116 0.97825003
-0.030381981 -0.032642983 0.97837508
-0.087421641 -0.020710142 0.97025007
-0.030868072 -0.025659503 0.97687507
-0.035439458 -0.014350287 0.97037506
-0.03849972 -0.0042024115 0.97805005
-0.097273141 0.0058204671 0.97325003
-0.042807426 0.0059787557 0.97603577
-0.038077913 0.0022070624 0.97820008
-0.048209667 0.01542369 0.97540009
-0.052372646 0.024669861 0.97616673
-0.10706788 0.034594879 0.97525007
-0.054819439 0.034597673 0.97537506
-0.0600833 0.04733362 0.97425002
-0.05798237 0.043097656 0.97475004
-0.11090551 0.051446062 0.97150004
-0.064995676 0.056500051 0.97350007
-0.1129429 0.06201328 0.97075003
-0.11536226 0.072807238 0.97325003
-0.074670844 0.07680361 0.97000003
-0.11812451 0.087099358 0.97850001
-0.079045802 0.088612199 0.97162503
-0.11821506 0.091446318 0.97925007
-0.082859993 0.095090151 0.97275007
-0.088561982 0.10129766 0.97112501
-0.11268735 0.11694673 0.97775006
-0.10306606 0.11587793 0.97775006
-0.10791855 0.12117302 0.97910005
-0.011239865 -0.17879257 0.98850006
-0.021859452 -0.16012233 0.98000002
-0.016505543 -0.16016318 0.98025006
-0.022297245 -0.15461756 0.98040009
-0.018011469 -0.15528417 0.98055011
-0.032833308 -0.13116908 0.98775005
-0.035020676 -0.11184124 0.98862505
-0.032608934 -0.1056189 0.98100007
-0.030665347 -0.083660088 0.98750007
-0.030506197 -0.062829882 0.98237503
-0.030660169 -0.057750981 0.98733336
-0.084249392 -0.031715009 0.98275006
-0.030634291 -0.036147639 0.98650002
-0.086398661 -0.027419789 0.98275006
-0.030607121 -0.022111036 0.98562503
-0.092106901 -0.013520211 0.98637503
-0.034238372 -0.013933244 0.98382145
-0.036909204 -0.0059362478 0.98125005
-0.097787492 0.00050245313 0.98925006
-0.043369241 0.0090803457 0.98175007
-0.10270067 0.015560087 0.98450005
-0.045481544 0.011217196 0.98100007
-0.10563441 0.02624375 0.98175007
-0.05121401 0.024253987 0.98812509
-0.054311275 0.034963753 0.98550004
-0.11029248 0.043550853 0.98500007
-0.057492688 0.043533452 0.9846251
-0.064914286 0.057419643 0.98287505
-0.11428089 0.060601402 0.98225003
-0.068033919 0.064835265 0.98137504
-0.11631052 0.071261376 0.98125005
-0.073404819 0.075565785 0.9814167
-0.11927136 0.084706083 0.98800004
-0.077920362 0.084384575 0.98425007
-0.11631052 0.096993372 0.98125005
-0.081836537 0.096391574 0.98606259
-0.094978683 0.10786048 0.98258334
-0.087651029 0.10271902 0.98475003
-0.099167921 0.11203223 0.98150003
-0.013455933 -0.18168497 0.99250007
-0.039701961 -0.11502509 0.99750006
-0.028635595 -0.11872651 0.99200004
-0.04156857 -0.10550643 0.99000007
-0.063507102 -0.082079828 0.99450004
-0.066718921 -0.075503528 0.99375004
-0.030843904 -0.052673057 0.99325001
-0.080886438 -0.045122586 0.99425006
-0.030933958 -0.045208372 0.99615014
-0.030898247 -0.038633481 0.99500006
-0.089471459 -0.023365755 0.99300003
-0.031557444 -0.014317442 0.99291664
-0.096252322 -0.0060223048 0.99575007
-0.034787368 -0.0055819619 0.99425
-0.10060771 0.0070338142 0.99575007
-0.041621055 0.0091682123 0.99125004
-0.036557943 0.0044738357 0.99112511
-0.045936529 0.01421515 0.99083334
-0.051765107 0.026698187 0.99875003
-0.1090989 0.033079475 0.99375004
-0.053803608 0.035319529 0.99612504
-0.056953575 0.043948773 0.99400002
-0.11454866 0.054811057 0.99387503
-0.062435314 0.052677274 0.99475002
-0.11734769 0.069733374 0.99000007
-0.067720562 0.065571636 0.99250007
-0.073174797 0.076445363 0.99287504
-0.077817149 0.086501561 0.99208337
-0.12005604 0.096129797 0.99450004
-0.081171177 0.098624341 0.99775004
-0.078778006 0.094014727 0.99508333
-0.11788701 0.10482844 0.99455005
-0.022439398 -0.13798945 1.006
-0.026919656 -0.1251711 1.0090001
-0.031154437 -0.11130332 1.00325
-0.046755958 -0.1030708 1.0085
-0.033439945 -0.10501316 1.006
-0.028873745 -0.030093914 1.0002501
-0.028889982 -0.024642378 1.0008125
-0.031100094 -0.01043425 1.0015
-0.028933281 -0.015917184 1.0023125
-0.032793913 -0.004969643 1.0030625
-0.035578605 0.0041684587 1.00425
-0.044358775 0.013675778 1.0041667
-0.10802847 0.024644481 1.0040001
-0.048597965 0.020195855 1.001
-0.11283983 0.042354476 1.00775
-0.057654925 0.04558906 1.00625
-0.11871081 0.068354815 1.0015
-0.067357287 0.066282392 1.0032501
-0.12141415 0.079634257 1.0057501
-0.071826063 0.075136468 1.004375
-0.12181681 0.084539235 1.0030001
-0.076830834 0.085654981 1.0075835
-0.04243983 -0.1099266 1.0107501
-0.027081957 -0.023886295 1.0150834
-0.027476454 -0.014984759 1.0132501
-0.10062943 -0.0017075872 1.018
-0.03155037 -0.0061447765 1.016
-0.029350042 -0.0083712237 1.0167501
-0.035914619 0.007160963 1.0137501
-0.10586946 0.013822624 1.0148751
-0.047162183 0.018300707 1.0172501
-0.051586241 0.027179357 1.0167501
-0.049374759 0.022741124 1.0170001
-0.11178865 0.031669833 1.0182501
-0.053734884 0.036021847 1.0153333
-0.11618536 0.049447052 1.01775
-0.11759675 0.057942156 1.0107501
-0.063697778 0.055959448 1.0148751
-0.12037028 0.067091174 1.0155001
-0.066969953 0.066992074 1.0140001
-0.12237991 0.078052334 1.0137501
-0.071510792 0.075967893 1.0155001
-0.069221668 0.071459092 1.0145
-0.0406771 -0.12008365 1.0220001
-0.029516025 -0.1201424 1.0225
-0.072426245 -0.071400449 1.0285001
-0.076401316 -0.061985321 1.0215
-0.080948502 -0.0531081 1.0225
-0.078673817 -0.057548903 1.0220001
-0.085963912 -0.042202301 1.029
-0.087892845 -0.035327043 1.0252501
-0.029631492 -0.033126898 1.0265001
-0.024429316 -0.024564169 1.0280417
-0.095541179 -0.016252028 1.0231251
-0.023619255 -0.015722701 1.0279615
-0.01846057 -0.019725068 1.0295
-0.031923011 -0.0039708568 1.028
-0.028543733 -0.0073388154 1.02775
-0.10353778 0.0049992711 1.02475
-0.043206114 0.014014729 1.029
-0.11066463 0.022998275 1.0285001
-0.056294527 0.044419657 1.0215
-0.11940011 0.056588031 1.02625
-0.065558553 0.062218398 1.026625
-0.067779005 0.070044063 1.02625
-0.032031704 -0.11218332 1.0315001
-0.075111188 -0.067295574 1.0345
-0.020908229 -0.024454039 1.03925
-0.018621955 -0.022166949 1.0385001
-0.022029828 -0.011953369 1.0385001
-0.017169565 -0.017084977 1.0332
-0.10048132 -0.0085585313 1.0395
-0.03113956 -0.002879255 1.0393751
-0.026593633 -0.0074216891 1.0393751
-0.051423438 0.027689777 1.0358751
-0.048066247 0.020917136 1.0367501
-0.11561114 0.041138358 1.0325
-0.054603711 0.043363169 1.0317501
-0.062871546 0.054959606 1.0378751
-0.12208901 0.065798283 1.0300001
-0.034777876 -0.10692836 1.0462501
-0.03369116 -0.09451437 1.0480001
-0.085076183 -0.049745124 1.04575
-0.093728788 -0.026750835 1.0402501
-0.01443366 -0.0157202 1.0436563
-0.035964862 0.0085439216 1.0475
-0.039401162 0.011977585 1.0475
-0.11447837 0.030153105 1.04275
-0.053044908 0.035945158 1.0455
-0.11878248 0.048278544 1.0405
-0.053348176 0.046291452 1.046975
-0.12105805 0.055099975 1.0405
-0.044192847 -0.11676726 1.0525
-0.092310958 -0.031590711 1.0500001
-0.028013516 -0.031590711 1.0500001
-0.024569012 -0.028148852 1.0500001
-0.01197327 -0.020175325 1.0530001
-0.021159712 -0.010957787 1.0517501
-0.012021595 -0.013325506 1.05725
-0.0096807033 -0.01674109 1.0541251
-0.10396563 -0.0040625962 1.0517501
-0.030331502 -0.0017625218 1.05075
-0.025757454 -0.0063610356 1.0516667
-0.10754053 0.0062786401 1.053
-0.032606192 0.00053330889 1.0500001
-0.11073434 0.014307555 1.0505
-0.11308558 0.021204637 1.051
-0.051219635 0.028201839 1.0550001
-0.049028266 0.023646742 1.0575
-0.11790658 0.03965402 1.0530001
-0.0307645 -0.036722548 1.06575
-0.09840332 -0.022759277 1.0662501
-0.012145251 -0.025133755 1.068125
-0.0076417117 -0.024805615 1.0683392
-0.10066434 -0.015757933 1.0655
-0.015568825 -0.011072392 1.06275
-0.0074659735 -0.016369717 1.0673126
-0.023701817 -0.0050997077 1.0626072
-0.017196303 -0.0078205708 1.0627
-0.031809777 0.0016991288 1.0617501
-0.11504925 0.019236207 1.0692501
-0.044598002 0.016786883 1.0621667
-0.1165094 0.028368913 1.0612501
-0.083061688 -0.063116513 1.079
-0.08542145 -0.058400624 1.079
-0.0034092059 -0.026492022 1.076
-0.023978189 -0.0018034782 1.0751667
-0.01923163 -0.0041427477 1.0725001
-0.10894327 0.00054765743 1.0782501
-0.032124631 0.0040594032 1.07225
-0.028620478 0.00054486393 1.0727501
-0.091039039 -0.047075275 1.0897501
-0.092586458 -0.039573696 1.08
-0.026527658 -0.03258625 1.0830835
-0.0023800968 -0.031812377 1.089
0.0019076021 -0.030391255 1.0892501
-0.021783389 -0.027843757 1.0827501
-0.00095024484 -0.023715502 1.08875
0.002861151 -0.026111338 1.0894501
-0.10461368 -0.011275554 1.08225
-0.0064027389 -0.014869105 1.0853126
-0.10695583 -0.0065439451 1.082
-0.014668857 -0.0060808761 1.0826499
-0.11163687 0.007639538 1.0815001
-0.025460035 0.0011464255 1.0881875
-0.069908902 -0.092746206 1.09475
-0.077056311 -0.078356214 1.0942501
-0.031587198 -0.040095851 1.0942501
-0.0031469848 -0.042098917 1.0979723
0.0045928373 -0.042108137 1.0982224
-0.012983502 -0.033224951 1.0953056
-0.0044698617 -0.036156699 1.0955834
0.0057591903 -0.034423232 1.0962501
0.0115413 -0.033072464 1.0992501
0.0066983732 -0.023764258 1.0930682
-0.10380567 -0.01865078 1.09875
-0.0028722011 -0.013807938 1.0956001
0.003420067 -0.015918471 1.0967188
-0.11033252 -0.0018317143 1.092
-0.012686913 -0.0036885876 1.0927777
-0.080302544 -0.074363694 1.1060001
-0.082721353 -0.069529794 1.1060001
-0.089571007 -0.054779328 1.1010001
-0.010163993 -0.040553875 1.10675
-0.0041130069 -0.04603716 1.1076876
-0.098087564 -0.033155199 1.102
-0.012618553 -0.03823866 1.10975
0.011550486 -0.033098515 1.1001251
-0.10170265 -0.025930574 1.102
0.011600357 -0.024785515 1.1048751
-0.032162122 -0.045700338 1.1141667
-0.01145616 -0.042065322 1.11475
-0.006582622 -0.046953119 1.1151251
0.0055917017 -0.04616854 1.1109375
0.011680415 -0.04076457 1.1125001
-0.023724252 -0.034257598 1.1183126
-0.016310755 -0.035928104 1.11325
0.013571922 -0.034844365 1.11775
-0.032611959 -0.063616313 1.12975
-0.032547008 -0.051169943 1.1275001
-0.0029629685 -0.051272053 1.12975
0.0032117162 -0.051243693 1.1291251
-0.012813348 -0.043751705 1.1268334
-0.007883478 -0.048673611 1.1267501
0.0081406916 -0.047484837 1.12775
0.011830029 -0.043749023 1.1267501
-0.025055053 -0.037497431 1.1240001
0.014272016 -0.038764127 1.125
-0.032640826 -0.061201587 1.1307501
-0.032640826 -0.056259692 1.1307501
-0.00049232849 -0.051283401 1.13
