# .PCD v0.7 - Point Cloud Data file format
VERSION 0.7
FIELDS x y z
SIZE 4 4 4
TYPE F F F
COUNT 1 1 1
WIDTH 616
HEIGHT 1
VIEWPOINT 0 0 0 1 0 0 0
POINTS 616
DATA ascii
-0.12264588 0.007772638 0.85893178
-0.11464411 0.0063876482 0.85839128
-0.10757811 0.0063342797 0.85891074
-0.1317243 0.019185727 0.85800004
-0.12436329 0.015776562 0.85700011
-0.11469045 0.015415961 0.85692018
-0.10825867 0.014407143 0.85875005
-0.13385312 0.025878876 0.85789293
-0.1248695 0.02475274 0.85601676
-0.11464214 0.024768829 0.85657001
-0.10903707 0.025468053 0.85912508
-0.14109276 0.037931252 0.85791665
-0.13527302 0.035066731 0.85669172
-0.12512586 0.034738082 0.85487109
-0.11503122 0.035282061 0.85566658
-0.10839795 0.032844581 0.8579644
-0.14290953 0.046081208 0.8575536
-0.1348936 0.045237113 0.85427994
-0.12531354 0.045153227 0.85269004
-0.11650022 0.045137454 0.85531259
-0.15055442 0.057647049 0.85837507
-0.14441925 0.054856118 0.85630208
-0.13470417 0.054496441 0.85309005
-0.12524308 0.054441079 0.85220999
-0.11782315 0.054330349 0.85415637
-0.15176487 0.065246172 0.856125
-0.14438488 0.064975969 0.85410488
-0.13455151 0.064676091 0.85213333
-0.12487267 0.065011919 0.85316682
-0.11830886 0.062262952 0.85447228
-0.1546955 0.075467974 0.85613173
-0.14550295 0.074805871 0.85319448
-0.13494141 0.075003006 0.85082144
-0.125378 0.075008482 0.85314012
-0.16181794 0.087660879 0.85837507
-0.15574737 0.08460746 0.85595012
-0.14581813 0.085209049 0.85261673
-0.13531132 0.085057043 0.85106957
-0.12660211 0.084002845 0.85477638
-0.16348697 0.096302897 0.8579334
-0.15555438 0.094775528 0.85488337
-0.14480415 0.095405824 0.85215008
-0.13479345 0.095580205 0.85369003
-0.12860166 0.094233185 0.85700005
-0.16523448 0.10551924 0.85741669
-0.15526754 0.10485809 0.85331011
-0.14484957 0.10475159 0.85243338
-0.13499826 0.10530873 0.85636526
-0.12993614 0.1036314 0.85858339
-0.17164466 0.11640462 0.8587001
-0.16523169 0.11462092 0.85659003
-0.15521224 0.11507501 0.85300833
-0.14502275 0.1148973 0.85267854
-0.13676958 0.11387798 0.85803127
-0.17294767 0.12494912 0.85895008
-0.16521996 0.12490942 0.85653341
-0.15541345 0.12549165 0.85412002
-0.14518325 0.12548676 0.85530645
-0.13938418 0.12432407 0.85895002
-0.17237233 0.13509513 0.85909098
-0.16517469 0.13516679 0.85630012
-0.15483041 0.13513479 0.85608321
-0.14676884 0.1335924 0.85820007
-0.17199719 0.14344972 0.85920835
-0.16533996 0.14467043 0.85716009
-0.1564315 0.14419164 0.85786366
-0.16318795 0.15295818 0.85900003
-0.15817769 0.15195201 0.85900009
-0.17292258 0.16665362 0.85945004
-0.16873619 0.16705903 0.85946435
-0.17147848 0.17140912 0.85975003
-0.11443281 -0.0028145753 0.86138636
-0.1077478 -0.0029160429 0.86302781
-0.12322465 0.003580272 0.86195832
-0.1159486 0.00097391178 0.86028576
-0.10318008 0.0045599774 0.86141676
-0.099004425 0.0080211367 0.86725003
-0.13183098 0.015595972 0.86691666
-0.12875447 0.011757255 0.86325002
-0.10360702 0.015794117 0.86217499
-0.13632247 0.022289723 0.86937505
-0.10591994 0.023940891 0.86300004
-0.14310214 0.0363327 0.864375
-0.10784502 0.034493059 0.86593747
-0.14668462 0.043998878 0.86655009
-0.11183685 0.045134678 0.86565632
-0.15047419 0.051700365 0.86875004
-0.11540297 0.055069018 0.86695838
-0.15602171 0.06754005 0.86091667
-0.11774018 0.064744495 0.86558336
-0.16056956 0.079531617 0.86175007
-0.12073122 0.075336292 0.86496884
-0.11939248 0.07672438 0.86725008
-0.16396397 0.085246123 0.86725003
-0.12253202 0.086156934 0.8629545
-0.11818861 0.083757848 0.86654168
-0.16673948 0.094893128 0.86441666
-0.12408401 0.094403237 0.86401474
-0.11976408 0.091331407 0.86650002
-0.16964751 0.10192247 0.86000001
-0.13015053 0.10943994 0.86000001
-0.12781422 0.10301667 0.8633126
-0.17363699 0.1150159 0.86425
-0.13339549 0.11637963 0.8633182
-0.12953751 0.11052161 0.86850005
-0.17669126 0.12073191 0.86687505
-0.13700452 0.12393749 0.8641001
-0.18061309 0.13503917 0.86750007
-0.17699766 0.13552998 0.86098343
-0.14395694 0.13624665 0.86144644
-0.13925561 0.13071811 0.86400008
-0.18200183 0.14638355 0.86358333
-0.17658675 0.14589417 0.86148691
-0.15219095 0.14696354 0.861
-0.14777772 0.14468059 0.86411536
-0.18243335 0.15501897 0.86265004
-0.17568232 0.15488966 0.86191994
-0.16680941 0.15604803 0.86051565
-0.15459894 0.15498841 0.861853
-0.14933659 0.15180762 0.86583334
-0.18318519 0.16512698 0.86291665
-0.17656742 0.16407901 0.86072505
-0.16445687 0.16418846 0.86128718
-0.15757664 0.16459495 0.86673337
-0.18220903 0.17456642 0.8660714
-0.17535289 0.17496909 0.86287516
-0.16568254 0.1739845 0.86364293
-0.1591413 0.17172344 0.86766672
-0.17505458 0.18067253 0.86815006
-0.16966872 0.18100551 0.86975002
-0.10902743 -0.011082007 0.87925005
-0.12196538 -0.0024251768 0.87550002
-0.1138864 -0.0072189132 0.87670004
-0.1059003 -0.0060772565 0.87723339
-0.12749816 0.0055136816 0.87191671
-0.10091704 0.0014024525 0.87562501
-0.099375442 0.0042467583 0.87050003
-0.10051575 0.018158101 0.87631255
-0.099675104 0.012848096 0.87312508
-0.14263776 0.029259734 0.87900007
-0.10363065 0.025599569 0.87788892
-0.14468347 0.033129744 0.87975001
-0.10746229 0.035307955 0.87437505
-0.11095718 0.046165776 0.87175006
-0.10954062 0.042546351 0.87566668
-0.15396538 0.057638317 0.87237501
-0.11343266 0.054658949 0.87431252
-0.15854898 0.065580249 0.87662506
-0.11638993 0.066618927 0.87560421
-0.16150153 0.075699091 0.87187505
-0.1159818 0.074481755 0.87373614
-0.16739009 0.088680886 0.87775004
-0.11678305 0.08538916 0.87540007
-0.1695026 0.094542935 0.87875003
-0.12225513 0.097870469 0.87418753
-0.11960343 0.091714852 0.87925005
-0.17499381 0.10877432 0.87737501
-0.12626597 0.10479157 0.87612504
-0.17502433 0.11296693 0.87275004
-0.13144203 0.1161442 0.87275004
-0.12914449 0.11182598 0.87875003
-0.18046696 0.12870499 0.87600005
-0.13550718 0.12493594 0.87637508
-0.18108737 0.13228588 0.87437505
-0.14231202 0.13845855 0.87112504
-0.13920419 0.13341793 0.87556255
-0.18556355 0.14525273 0.87655002
-0.14521977 0.14589089 0.87431252
-0.18816596 0.15744697 0.87616664
-0.15155278 0.15819506 0.87500006
-0.1482188 0.15314659 0.87565011
-0.18711005 0.16132511 0.87125003
-0.154687 0.16451131 0.87466669
-0.18520553 0.17560399 0.87125009
-0.16332775 0.17802505 0.87143755
-0.15797876 0.17258613 0.87525004
-0.18241896 0.18581505 0.87284106
-0.17548293 0.18575664 0.8727895
-0.16810852 0.18270226 0.87483341
-0.18195786 0.19260032 0.87580001
-0.1783983 0.19171357 0.87525004
-0.10623106 -0.013087367 0.88457143
-0.12062365 -0.0053630718 0.88675004
-0.099599138 0.007255197 0.88950002
-0.13811637 0.019834194 0.88700002
-0.099585146 0.011141155 0.88937503
-0.10218176 0.025992807 0.88243759
-0.14681578 0.037027333 0.88100004
-0.10489835 0.035737321 0.8838833
-0.14891134 0.040924244 0.88200003
-0.11050488 0.047745284 0.88337505
-0.1060942 0.045027751 0.88688743
-0.15499789 0.052921437 0.88925004
-0.1115713 0.055569515 0.88333338
-0.10604254 0.054691426 0.88646251
-0.11212599 0.064720362 0.88183826
-0.10701786 0.064042389 0.88545012
-0.11167854 0.07561855 0.88197505
-0.10878805 0.072987564 0.88512504
-0.16953552 0.087874755 0.88900006
-0.11535199 0.084439933 0.88350004
-0.17196417 0.096337184 0.88650006
-0.12011354 0.098859429 0.88300002
-0.11982447 0.095734179 0.88087505
-0.1744805 0.10289317 0.88450003
-0.12319686 0.10342473 0.88575
-0.17845011 0.11455532 0.88500005
-0.13138324 0.11690982 0.88087505
-0.12958537 0.11606354 0.88175005
-0.18120074 0.12412442 0.88425004
-0.13360055 0.12454551 0.8842501
-0.18519346 0.13457611 0.88950002
-0.14131571 0.13934211 0.88275003
-0.13904046 0.13512872 0.88466674
-0.14312311 0.14500496 0.88200003
-0.19033146 0.15441951 0.88625002
-0.14716341 0.15515809 0.88308334
-0.19259511 0.16923147 0.88775003
-0.15315704 0.16470073 0.88425004
-0.19164638 0.1748921 0.88695002
-0.16156444 0.17886361 0.88262504
-0.15799353 0.17436135 0.88425004
-0.18853141 0.18457638 0.88690007
-0.16554284 0.1828513 0.88325
-0.18773042 0.19541809 0.88835722
-0.17767824 0.19301064 0.8811667
-0.082801752 -0.082783811 0.89913648
-0.078387439 -0.084029794 0.89908338
-0.09073133 -0.070190512 0.89800006
-0.084904589 -0.074172966 0.8986907
-0.09120629 -0.063388743 0.89543754
-0.086952023 -0.064645208 0.8964231
-0.09294685 -0.053929996 0.89412498
-0.088586189 -0.056334585 0.89616662
-0.10025698 -0.041613486 0.89537501
-0.095261782 -0.044879172 0.89547223
-0.1016387 -0.034455951 0.89656824
-0.097846828 -0.035641398 0.89635718
-0.10293808 -0.024754597 0.89449996
-0.11295398 -0.012259746 0.89512503
-0.1049379 -0.0170772 0.89127278
-0.11593856 -0.0093298778 0.89550006
-0.10386792 -0.0034484267 0.89275002
-0.1289238 0.002398313 0.89050007
-0.10188694 0.00045331253 0.89250004
-0.14267644 0.025772193 0.89125001
-0.10256239 0.027944935 0.8984167
-0.15310629 0.045451827 0.89525002
-0.10251481 0.047552392 0.89800006
-0.15813649 0.058832783 0.89050007
-0.10251482 0.054424733 0.89800006
-0.10518272 0.06504494 0.89562505
-0.16532105 0.075536653 0.89250004
-0.11024757 0.077885404 0.89700007
-0.10771243 0.070647441 0.89225006
-0.16787405 0.082184978 0.89050007
-0.11310673 0.083949074 0.89552784
-0.12039082 0.09677539 0.89950007
-0.11812611 0.091915466 0.89429998
-0.17830969 0.10790563 0.89400005
-0.12435996 0.10677202 0.89268756
-0.12940881 0.11570438 0.89385015
-0.18368223 0.12385494 0.89637506
-0.13314098 0.12723392 0.89530009
-0.12993725 0.12205728 0.89750004
-0.1376718 0.13456599 0.89310712
-0.19051899 0.14734885 0.89625007
-0.18771735 0.14084169 0.89225006
-0.14216369 0.14547931 0.89503574
-0.13959564 0.14151256 0.89650005
-0.1452205 0.15425918 0.89091665
-0.19514425 0.16950569 0.89950007
-0.15276429 0.16548175 0.89900005
-0.16021882 0.17963694 0.89125001
-0.15666951 0.17418413 0.89325005
-0.17122741 0.18871903 0.89275002
-0.16402487 0.18342912 0.89075011
-0.18206497 0.19890893 0.89324999
-0.17638795 0.19390357 0.89416671
-0.081137009 -0.090064615 0.90050006
-0.078504018 -0.090712406 0.90041667
-0.082087636 -0.088060051 0.90012503
-0.079123676 -0.088047825 0.90000004
-0.083936997 -0.069101848 0.90950006
-0.099520162 -0.051045086 0.90650004
-0.089138098 -0.052748211 0.90175003
-0.10147467 -0.045089707 0.90625006
-0.096661717 -0.046145327 0.90762508
-0.10474051 -0.032987241 0.90025002
-0.096304856 -0.037089761 0.90425003
-0.10979485 -0.02140096 0.90950006
-0.099245697 -0.029173613 0.90400004
-0.104241 -0.013386699 0.90450001
-0.10475021 -0.0074125468 0.9003334
-0.13449676 0.0083404146 0.90175003
-0.13734035 0.014239818 0.90100002
-0.10118542 0.016261308 0.90366668
-0.15127358 0.03616789 0.90775007
-0.149165 0.032173857 0.90700006
-0.10291437 0.035919745 0.90150005
-0.15338543 0.040168472 0.90850002
-0.10280021 0.04276602 0.90050006
-0.10280021 0.059493452 0.90050006
-0.16338649 0.065606125 0.90337503
-0.10353462 0.06561517 0.90563464
-0.10808751 0.074925005 0.90562499
-0.17301585 0.08769609 0.90725005
-0.11214174 0.087370642 0.90096432
-0.10847517 0.086212076 0.90471876
-0.17577124 0.096490286 0.90612507
-0.12095964 0.099207602 0.90375006
-0.11536647 0.094249502 0.90280759
-0.10904034 0.0912572 0.90325004
-0.12269262 0.10615152 0.90683341
-0.18157551 0.1145938 0.90050006
-0.12720308 0.11434413 0.90320003
-0.18675034 0.12724322 0.90650004
-0.13265127 0.12764758 0.90937507
-0.12911513 0.12116646 0.90550005
-0.18883696 0.13524169 0.90700006
-0.13752826 0.13616459 0.90875006
-0.19076794 0.141149 0.90675002
-0.19376762 0.15425035 0.90225005
-0.14468876 0.15402758 0.90381259
-0.15300557 0.16681682 0.90625006
-0.14916238 0.16092694 0.90100002
-0.19574085 0.17988238 0.90225005
-0.15596926 0.17569987 0.90539294
-0.19376762 0.18382578 0.90225005
-0.16330825 0.18495345 0.90293753
-0.1950383 0.19693716 0.90816671
-0.17507824 0.19484453 0.90765011
-0.16942021 0.19121292 0.90925002
-0.19245076 0.20225894 0.90533334
-0.090917401 -0.051791195 0.91975003
-0.088205114 -0.059359316 0.91250002
-0.091994293 -0.047290884 0.91050005
-0.10023376 -0.026471281 0.91300005
-0.11285934 -0.017593535 0.91825002
-0.10276236 -0.019589521 0.91775006
-0.12193 -0.0075005507 0.91100007
-0.14467476 0.022490542 0.91625005
-0.10269237 0.021510057 0.91712505
-0.1022025 0.048334941 0.91275007
-0.15878816 0.05055014 0.91675001
-0.10206254 0.054241955 0.9115001
-0.10107437 0.067028679 0.916125
-0.10428119 0.072326899 0.91350007
-0.11387004 0.096791908 0.91831255
-0.10798537 0.091894001 0.91950005
-0.18206805 0.10677594 0.91787505
-0.12069466 0.10263803 0.91675001
-0.11878685 0.10071698 0.91750002
-0.12585945 0.11479548 0.91787505
-0.18721375 0.12089881 0.91850007
-0.12843354 0.12040521 0.91475004
-0.19450472 0.1484319 0.91500002
-0.14249577 0.14745267 0.91512501
-0.19725749 0.15502129 0.91850007
-0.14480472 0.15477891 0.91708332
-0.19839846 0.16833542 0.91450006
-0.15323168 0.1672464 0.91950005
-0.19834422 0.17028733 0.91425002
-0.19734475 0.18627012 0.91425002
-0.16253181 0.18647458 0.91525006
-0.15754808 0.18149798 0.91537505
-0.19595103 0.19187741 0.9124167
-0.16772014 0.19168523 0.91624999
-0.089800052 -0.058402512 0.92900002
-0.10511193 -0.041786894 0.92075002
-0.095069401 -0.041798241 0.92100006
-0.10709652 -0.035740823 0.92050004
-0.09801057 -0.035731662 0.92025006
-0.11172637 -0.02379995 0.92550004
-0.10916891 -0.029722232 0.92100006
-0.10519755 -0.0015457186 0.92150003
-0.10326622 0.0044992222 0.92225003
-0.15034571 0.028816203 0.92650002
-0.16232778 0.055077624 0.92550004
-0.10157863 0.056073729 0.92525005
-0.097807609 0.057351075 0.92546874
-0.10156491 0.062131062 0.92512506
-0.099262603 0.064528346 0.92566663
-0.17226174 0.079261914 0.92450005
-0.1050292 0.075953171 0.92360002
-0.17433073 0.083325073 0.92475003
-0.10771712 0.083968893 0.92200005
-0.1813246 0.10000303 0.92950004
-0.1233688 0.10924075 0.92175007
-0.18611237 0.11544 0.92300004
-0.12707821 0.11793426 0.92675006
-0.19035555 0.12768042 0.92400002
-0.13292521 0.12783617 0.92512506
-0.12997797 0.12387614 0.92575002
-0.19341734 0.13649192 0.92900002
-0.13777372 0.13672337 0.92375004
-0.19434452 0.14177661 0.92375004
-0.14151151 0.14348397 0.92175007
-0.14453611 0.15557143 0.92175007
-0.20100182 0.16750701 0.92650008
-0.15290646 0.16707896 0.92975003
-0.20261718 0.1772711 0.92462504
-0.15563303 0.17471927 0.92181253
-0.20223363 0.18395324 0.92518759
-0.15681793 0.18236525 0.92483336
-0.094469704 -0.046520136 0.93500006
-0.1004428 -0.032165613 0.93350005
-0.10281371 -0.024082825 0.93650007
-0.10671016 -0.01382424 0.93475002
-0.10438594 0.024920534 0.93225002
-0.16007538 0.045475256 0.93600005
-0.10413402 0.047216084 0.93000007
-0.16590568 0.059681594 0.93425006
-0.10202049 0.05278207 0.93862504
-0.095964335 0.056945041 0.93962502
-0.095834382 0.065185279 0.93903333
-0.1714368 0.073715627 0.93100005
-0.10201265 0.07625585 0.93721431
-0.096922621 0.073241509 0.93896157
-0.17868929 0.088524133 0.93700004
-0.1045168 0.082725935 0.93800002
-0.18064205 0.094616517 0.93650007
-0.11234412 0.09796001 0.93912506
-0.10927801 0.094894357 0.93925005
-0.12221041 0.10655 0.93341666
-0.11746462 0.10116795 0.93087506
-0.12658533 0.11630379 0.93812501
-0.12954286 0.1233668 0.93725002
-0.13915773 0.13911851 0.93300003
-0.19902192 0.1498331 0.93625003
-0.14259708 0.14663483 0.93325013
-0.20128424 0.15613766 0.93725002
-0.1443924 0.15454969 0.93387502
-0.2030357 0.16510957 0.93587506
-0.15241469 0.16673361 0.93925005
-0.089728728 -0.063857973 0.94975007
-0.10530972 -0.048849065 0.94050002
-0.11044147 -0.038931519 0.94925004
-0.10570162 -0.018086901 0.94400007
-0.17118603 0.06666933 0.94650006
-0.091560684 0.063823454 0.94012505
-0.08885482 0.064191416 0.94050002
-0.093827523 0.074497506 0.94085008
-0.10485435 0.086242855 0.94568753
-0.099587128 0.080998048 0.94475007
-0.10808007 0.091514215 0.94675004
-0.1914558 0.11667942 0.94950002
-0.1269156 0.11652581 0.94825006
-0.19336876 0.12524311 0.94362503
-0.13275093 0.12858513 0.94550002
-0.12902343 0.12277483 0.94850004
-0.1366445 0.13454472 0.94383335
-0.19818407 0.14251906 0.94200003
-0.14256349 0.14563361 0.94887507
-0.14471634 0.15600491 0.94262505
-0.093957052 -0.051445596 0.95050007
-0.10902188 -0.04542825 0.95500004
-0.098320961 -0.041146319 0.95250005
-0.11331756 -0.032940894 0.95600003
-0.10040406 -0.036983307 0.95250005
-0.11626688 -0.023515062 0.95450008
-0.11896437 -0.016142793 0.95100003
-0.12628999 -0.0099940645 0.95925003
-0.14646195 0.015076574 0.954
-0.10645743 0.02749275 0.95075005
-0.15931429 0.036001179 0.95600003
-0.16140504 0.040179487 0.95600003
-0.10679335 0.046337634 0.95375007
-0.088584043 0.067080028 0.95233339
-0.093038104 0.075527266 0.95384997
-0.098579019 0.081876829 0.95500004
-0.1879438 0.10666854 0.95275003
-0.11737617 0.10274652 0.95500004
-0.19002748 0.11083264 0.95275003
-0.12625709 0.11365541 0.95900005
-0.13120723 0.12699373 0.95687503
-0.12845479 0.12318237 0.95975006
-0.19778953 0.1375013 0.95000005
-0.20181324 0.14303263 0.95925003
-0.089451268 -0.069405302 0.96925002
-0.092989944 -0.058374826 0.96200007
-0.10329416 -0.030980827 0.96000004
-0.13608414 -0.0026640934 0.96175003
-0.13923916 0.0004884855 0.96175003
-0.15452281 0.025802677 0.96525007
-0.16697223 0.051048897 0.96400005
-0.088759102 0.069845222 0.96175003
-0.18069315 0.081022218 0.96975005
-0.10396627 0.087064087 0.96625
-0.18662165 0.095634222 0.96750003
-0.11149365 0.09773834 0.96737504
-0.10813701 0.091240324 0.96575004
-0.18727447 0.10118656 0.96000004
-0.12226361 0.10754517 0.96058339
-0.19774795 0.12596831 0.96500003
-0.13177802 0.12963004 0.96875006
-0.12848824 0.12006761 0.96000004
-0.13643065 0.1348135 0.96425009
-0.10726001 -0.022989267 0.97700006
-0.11081988 -0.0037497175 0.97075003
-0.10917275 0.0026258901 0.97500002
-0.16059496 0.032505266 0.97650003
-0.17092213 0.055864092 0.97450006
-0.085067697 0.066389084 0.97509617
-0.078607962 0.067092687 0.97675008
-0.17986134 0.075203568 0.97675008
-0.092753433 0.077139936 0.97425008
-0.085808277 0.073017955 0.97605777
-0.079462744 0.070934571 0.97675008
-0.18401688 0.087447949 0.97050005
-0.10051447 0.085612305 0.97375005
-0.097345084 0.082441553 0.97400004
-0.11608271 0.10334054 0.97037506
-0.19619431 0.11744092 0.97300005
-0.12744498 0.11568634 0.97612506
-0.12787095 0.12594844 0.97669452
-0.11136737 -0.01457177 0.98500001
-0.16901121 0.045854174 0.98825002
-0.17500675 0.060801916 0.98550004
-0.091158621 0.078209035 0.98775005
-0.085777216 0.077685609 0.98793751
-0.078915551 0.07248015 0.98325002
-0.094566435 0.081591412 0.98950005
-0.084828056 0.080509961 0.98950005
-0.11138247 0.09737394 0.98512506
-0.10749541 0.092355713 0.98900008
-0.19325016 0.1049026 0.98512506
-0.12115556 0.10820901 0.98575002
-0.19596116 0.11214638 0.98250008
-0.12559631 0.11335317 0.98675007
-0.10621333 -0.033267681 0.99725008
-0.14836779 0.0070267501 0.99475002
-0.17891476 0.065753311 0.99525005
-0.076957814 0.067593217 0.99033338
-0.18104589 0.070085563 0.99500006
-0.081674099 0.077353582 0.99062502
-0.077439263 0.07311663 0.99187505
-0.10234615 0.088617556 0.99150008
-0.094828777 0.084281132 0.99385726
-0.088129863 0.080560811 0.99012506
-0.19154036 0.095984809 0.99300003
-0.09055268 -0.07635773 1.005
-0.095373675 -0.065669291 1.0095
-0.11225198 -0.054260083 1.0025001
-0.099467941 -0.052264083 1.00625
-0.11660781 -0.043295432 1.0022501
-0.12330643 -0.023606941 1.00325
-0.12760924 -0.015558611 1.0025834
-0.13876878 -0.0060722008 1.0040001
-0.076455906 0.067663491 1.0075001
-0.08165931 0.079475902 1.0037501
-0.077452041 0.075267121 1.00615
-0.18864165 0.084093213 1.0065
-0.093250334 0.085949056 1.0025001
-0.084840193 0.083092704 1.0050501
-0.19325997 0.09299536 1.0076251
-0.10720308 -0.075047009 1.0170001
-0.11584288 -0.050488029 1.01475
-0.098548062 -0.059636042 1.0195
-0.10456602 -0.041546091 1.013
-0.121287 -0.03382523 1.013875
-0.14861719 0.0027235192 1.01125
-0.15742037 0.016090712 1.0181251
-0.1629898 0.026107341 1.0181251
-0.17090194 0.040331528 1.0122501
-0.080671422 0.049507786 1.0190001
-0.07451281 0.047075231 1.0185834
-0.066245116 0.046676278 1.0187833
-0.17524292 0.051366534 1.0117501
-0.082482837 0.055316944 1.0193499
-0.075057164 0.05504372 1.0184063
-0.065002792 0.05501733 1.0179374
-0.05729498 0.056210969 1.0194167
-0.08184588 0.06291502 1.01975
-0.074647471 0.064444162 1.0190735
-0.065710969 0.064177141 1.01855
-0.05841466 0.06178591 1.0195
-0.18676667 0.075874381 1.01425
-0.074059501 0.075411893 1.017
-0.069477543 0.071723238 1.0182501
-0.08987131 -0.082136214 1.0222501
-0.17102121 0.036403991 1.02625
-0.070074573 0.03867491 1.0270001
-0.066680208 0.038660787 1.026625
-0.073048942 0.04181486 1.0215001
-0.063411161 0.0426872 1.0210001
-0.056794576 0.047150407 1.0215555
-0.1789026 0.056243408 1.0200001
-0.087442771 0.056243408 1.0200001
-0.055110548 0.054027457 1.0202502
-0.18286473 0.061281666 1.02975
-0.062567227 0.068847865 1.0218
-0.056185778 0.065535255 1.0228958
-0.095773071 -0.072042592 1.03775
-0.07316564 0.039126806 1.039
-0.062514424 0.038863197 1.0320001
-0.17653613 0.045639966 1.03225
-0.080020964 0.045960516 1.0395
-0.076583415 0.042537861 1.039125
-0.057056334 0.043515041 1.0353333
-0.087275483 0.054391455 1.0379375
-0.052626334 0.054927219 1.03725
-0.18520667 0.065814249 1.0302501
-0.071609803 0.037228737 1.0495001
-0.064653151 0.037646092 1.0483501
-0.082333937 0.048255343 1.0400001
-0.054826755 0.045135148 1.0467501
-0.18169488 0.050965324 1.049
-0.15969925 0.0097601581 1.05525
-0.17637721 0.036390807 1.0583751
-0.075196236 0.038449153 1.0515001
-0.078776009 0.041965108 1.0532501
-0.15880837 0.0051944125 1.0647501
-0.16630021 0.01687981 1.0680001
-0.17073148 0.026178624 1.0665001
-0.16851749 0.021532493 1.06725
