# .PCD v0.7 - Point Cloud Data file format
VERSION 0.7
FIELDS x y z
SIZE 4 4 4
TYPE F F F
COUNT 1 1 1
WIDTH 686
HEIGHT 1
VIEWPOINT 0 0 0 1 0 0 0
POINTS 686
DATA ascii
-0.12219275 0.028423108 0.83558339
-0.11482514 0.026090475 0.83406258
-0.10773382 0.026849128 0.83591664
-0.13122824 0.038309995 0.83883339
-0.12420879 0.035325088 0.83486956
-0.11498053 0.03496306 0.83189005
-0.10566235 0.035269767 0.83616382
-0.13401248 0.045984693 0.83751792
-0.1244756 0.04510783 0.8345499
-0.11516412 0.044806711 0.83455831
-0.10634952 0.042399086 0.83750004
-0.14174646 0.054550342 0.83956254
-0.13516681 0.054489583 0.83860427
-0.12588421 0.053495713 0.83738458
-0.11949032 0.051701684 0.83800006
-0.04316454 -0.023062674 0.8455357
-0.03735365 -0.023797803 0.84558338
-0.051136184 -0.017508572 0.84925008
-0.045657802 -0.01769406 0.8476429
-0.03859061 -0.019282857 0.84566671
-0.126856 0.028563062 0.84437507
-0.11930735 0.022715177 0.84975004
-0.10296312 0.027641919 0.84275007
-0.14246416 0.038514357 0.84600002
-0.13476227 0.035733506 0.84247065
-0.1290952 0.032584161 0.84087503
-0.1014048 0.031632837 0.84000003
-0.099619597 0.034403071 0.84043759
-0.15291065 0.046914957 0.84777278
-0.14434864 0.044945404 0.84446883
-0.13801488 0.042286403 0.84200007
-0.11062306 0.048168089 0.84025002
-0.10662176 0.046879426 0.84350002
-0.16141102 0.056632809 0.84917867
-0.1551294 0.05510271 0.84651858
-0.1461409 0.055231616 0.84158999
-0.13455954 0.059206448 0.84055007
-0.12600242 0.057212621 0.84275007
-0.11403224 0.050549708 0.8416875
-0.10969172 0.050420873 0.84725004
-0.16456105 0.065821581 0.84856576
-0.15537453 0.065342195 0.8459909
-0.14518417 0.064310886 0.84287995
-0.13526791 0.062730856 0.84232688
-0.12957495 0.061293859 0.84400004
-0.1651708 0.074609496 0.84859002
-0.15566717 0.07359039 0.84798914
-0.14807285 0.071447425 0.84775001
-0.060173288 -0.010770059 0.85450006
-0.054031789 -0.012940954 0.85154694
-0.048702758 -0.012570852 0.85000002
-0.072114415 -0.0020586068 0.85575008
-0.064219072 -0.0044921073 0.85520458
-0.056148451 -0.0077271736 0.85365623
-0.074070774 0.0032488557 0.85775006
-0.067566171 0.0018904129 0.85608333
-0.12999919 0.028593982 0.85900003
-0.11305943 0.020905772 0.85168755
-0.10404664 0.025409302 0.85270005
-0.14744307 0.039497461 0.85125005
-0.13672595 0.032309223 0.85800004
-0.10099013 0.039532263 0.85200006
-0.099592201 0.034104131 0.85600007
-0.15668707 0.046262033 0.85600007
-0.14908549 0.041296974 0.85000002
-0.10386457 0.045233537 0.85420001
-0.17132096 0.057786625 0.85583335
-0.16503493 0.055852048 0.85144651
-0.11411035 0.053627372 0.85781252
-0.10833818 0.051570278 0.85608339
-0.18229419 0.067899883 0.85755002
-0.17480215 0.065229528 0.85384089
-0.16919471 0.063392326 0.85096437
-0.14225668 0.068892755 0.85589999
-0.13790412 0.067900337 0.85750002
-0.18495016 0.075587615 0.85750008
-0.175556 0.074919276 0.85214007
-0.16953382 0.0784472 0.85000002
-0.15281548 0.077951759 0.8558889
-0.14515392 0.074976549 0.85808754
-0.139514 0.071831763 0.85975003
-0.19052435 0.086425811 0.85915005
-0.18479291 0.084620804 0.85608751
-0.17532465 0.084530264 0.85304636
-0.16494007 0.084270999 0.85312063
-0.15711451 0.083167233 0.85760719
-0.19133829 0.095023476 0.85921878
-0.18474309 0.094065614 0.85753852
-0.17568675 0.092086032 0.85705006
-0.16551559 0.090446025 0.85810006
-0.074324563 0.097499296 0.85966659
-0.18746071 0.10001403 0.85975003
-0.045642443 -0.014260789 0.86240005
-0.054028194 -0.007124715 0.86575007
-0.083776198 0.0087024672 0.86418754
-0.076671816 0.007672152 0.86327094
-0.091628589 0.014688615 0.86925006
-0.086478911 0.013960341 0.86713344
-0.079645544 0.011753851 0.86300004
-0.12479766 0.024926376 0.86200005
-0.10582347 0.023391673 0.86100006
-0.14394112 0.036302336 0.86375004
-0.16231281 0.049357604 0.86100006
-0.15558977 0.04394142 0.86550003
-0.10579219 0.049343269 0.86075002
-0.17417583 0.057380944 0.86850005
-0.16410045 0.051209398 0.86050004
-0.12403809 0.056563701 0.86325002
-0.11530155 0.057386536 0.86383337
-0.10897852 0.05422616 0.86362505
-0.18630047 0.067389786 0.86312497
-0.17778879 0.060787775 0.86300004
-0.13315719 0.066692241 0.86400008
-0.12547047 0.065828033 0.8659305
-0.1163678 0.06472452 0.86519992
-0.19334152 0.077062927 0.86219996
-0.18845561 0.071852647 0.86000001
-0.14287697 0.07891757 0.86018753
-0.13489561 0.075071417 0.86206633
-0.12514625 0.075054698 0.86441672
-0.11780731 0.073576428 0.86605364
-0.20251416 0.086251378 0.86830562
-0.19568074 0.084950075 0.86322498
-0.15358989 0.086399801 0.86136669
-0.14515708 0.085443147 0.86225015
-0.13510725 0.084933333 0.86274987
-0.12618439 0.083569676 0.86455768
-0.11983319 0.080016144 0.86700004
-0.20361216 0.095335647 0.86848336
-0.19641797 0.094613224 0.86191672
-0.17406836 0.097071446 0.86184609
-0.16479363 0.095248677 0.86242384
-0.15552153 0.093755931 0.86402643
-0.14630786 0.092403263 0.86470836
-0.1376262 0.091239184 0.86562502
-0.20352651 0.10478175 0.86811668
-0.19491689 0.10400161 0.86291671
-0.18442746 0.10349402 0.86153942
-0.17585251 0.10244723 0.86441183
-0.16713661 0.10079926 0.86650008
-0.073568724 0.10206867 0.86925
-0.20221075 0.11210535 0.86900008
-0.19787705 0.11144983 0.86833334
-0.045461435 -0.013930267 0.87712502
-0.061440833 -0.0014635264 0.87250006
-0.059430335 -0.003364413 0.87100005
-0.082616292 0.004263177 0.87450004
-0.079042137 0.00044556684 0.87725002
-0.064414427 0.001399715 0.87400007
-0.10165734 0.019537913 0.87375003
-0.095182665 0.018107586 0.87170452
-0.087250516 0.018091541 0.87300003
-0.077167556 0.010995665 0.87775004
-0.10360949 0.023366638 0.87410003
-0.096776523 0.023839489 0.87389052
-0.14878802 0.038466234 0.87000006
-0.1002031 0.033055704 0.8777501
-0.16303843 0.048248023 0.87500006
-0.15471804 0.042329397 0.87125003
-0.17289425 0.055681266 0.87162507
-0.16824882 0.051908653 0.87225002
-0.12235206 0.058525763 0.87143749
-0.19149338 0.068578221 0.87825
-0.18373269 0.062794343 0.87787509
-0.12222072 0.06321837 0.87050003
-0.11389943 0.063890129 0.87975001
-0.20165582 0.078977488 0.87650007
-0.19672292 0.074135751 0.87587506
-0.11594137 0.07594458 0.87100005
-0.2063068 0.087124519 0.87187505
-0.12454884 0.085959852 0.8734501
-0.11854921 0.080431446 0.87150002
-0.21320654 0.09622018 0.87378955
-0.2079502 0.095585085 0.87075007
-0.1607105 0.099619083 0.87275004
-0.15465949 0.098545887 0.8745001
-0.14802498 0.096243724 0.87675005
-0.13293804 0.090872787 0.87425011
-0.08056844 0.095832065 0.87300003
-0.075693816 0.095224224 0.87181258
-0.22248368 0.10629326 0.87800002
-0.21464053 0.10528473 0.87411541
-0.20798603 0.10511737 0.87089998
-0.19192782 0.10899888 0.87150002
-0.1848494 0.10932198 0.87408334
-0.17613091 0.10670549 0.87350005
-0.16623054 0.10243184 0.87508339
-0.15779194 0.1001898 0.87775004
-0.22387113 0.11530326 0.87841672
-0.21483123 0.1152418 0.87550008
-0.20536934 0.11613439 0.87385529
-0.19410068 0.11474741 0.87415272
-0.18706289 0.11306847 0.87754554
-0.22213757 0.1221259 0.87916666
-0.2149854 0.12334929 0.87875003
-0.20732608 0.1225507 0.87818748
-0.044985801 -0.014080053 0.88662505
-0.053525008 -0.0072832946 0.88375002
-0.068852514 0.005267065 0.88187504
-0.094508551 0.01305447 0.88737506
-0.081560545 0.013967725 0.88375002
-0.12424858 0.022692043 0.88487506
-0.095524378 0.025675172 0.88775009
-0.14624584 0.035430785 0.88925004
-0.15588203 0.041237436 0.88875002
-0.10441861 0.044725943 0.88091677
-0.17691353 0.056663178 0.88700002
-0.16934481 0.050905403 0.88800007
-0.10932577 0.05293522 0.88950002
-0.13002628 0.063286528 0.88475007
-0.12670924 0.062319797 0.88475001
-0.11583367 0.078160867 0.8835001
-0.21292168 0.088697039 0.88750005
-0.20803957 0.084412768 0.88325006
-0.12233594 0.087124556 0.88355559
-0.11459056 0.085519947 0.88636464
-0.10927456 0.085940987 0.88908339
-0.21625786 0.091786034 0.88925004
-0.15101129 0.098859429 0.88300002
-0.14443576 0.097268231 0.88314581
-0.13627665 0.095741838 0.88573086
-0.12892939 0.091231242 0.88387501
-0.082532778 0.095252171 0.88174999
-0.074827254 0.096087664 0.88412499
-0.23031716 0.108569 0.88350004
-0.22637816 0.10565092 0.88170004
-0.17273895 0.10745406 0.88425004
-0.16519195 0.10577516 0.88496155
-0.15442026 0.10385805 0.88495588
-0.14546594 0.10473115 0.8849901
-0.1399378 0.10212865 0.88625002
-0.079695374 0.10096027 0.88450003
-0.23289919 0.11574763 0.88230008
-0.22895864 0.11528815 0.88075
-0.19792989 0.11984733 0.88125002
-0.18354455 0.11549373 0.88625002
-0.17573051 0.1132424 0.88647228
-0.16891572 0.11078113 0.88575006
-0.14773344 0.11087494 0.88650006
-0.24075907 0.12732369 0.88637507
-0.23463692 0.12516467 0.88382149
-0.2254879 0.12609173 0.8814432
-0.21491823 0.12762833 0.88178134
-0.20422843 0.12353085 0.88350004
-0.19592479 0.12039132 0.88525003
-0.2411665 0.13142052 0.88787508
-0.23563981 0.13260564 0.8873077
-0.22399393 0.13296774 0.88524997
-0.21730857 0.13179988 0.88825005
-0.078640141 -0.001500429 0.89450002
-0.059176601 -0.0034609805 0.89600003
-0.090428218 0.0082779825 0.89500004
-0.088569716 0.0063291965 0.89600003
-0.10165863 0.017966444 0.89050007
-0.09205009 0.01019667 0.89175004
-0.0844853 0.01608789 0.89425004
-0.078706078 0.012193087 0.89525002
-0.13663709 0.029625896 0.89000005
-0.099683121 0.029634217 0.89025003
-0.1405694 0.031579688 0.89025003
-0.10260044 0.037773345 0.89875007
-0.16443938 0.047289073 0.89300007
-0.11133364 0.056854825 0.89000005
-0.19183478 0.066822574 0.89325005
-0.18448421 0.061120063 0.89550006
-0.11494414 0.065496787 0.89283341
-0.11488678 0.075993732 0.89493752
-0.1117777 0.080516785 0.89358336
-0.10724088 0.08540678 0.89375001
-0.22259243 0.097836159 0.89124995
-0.21838668 0.093808375 0.89000005
-0.13257955 0.097511873 0.89625007
-0.12503143 0.094652019 0.89796674
-0.11421847 0.093792513 0.89318186
-0.10488149 0.094414398 0.89308923
-0.094362229 0.094798759 0.89519334
-0.087331899 0.094871379 0.89478576
-0.23276055 0.10724509 0.89662504
-0.2278477 0.1028777 0.89275002
-0.16180339 0.10798107 0.89462507
-0.15671588 0.10849651 0.89350003
-0.14211881 0.10886683 0.893875
-0.1372793 0.10273906 0.89581251
-0.11012466 0.10031489 0.89600003
-0.10410483 0.10115594 0.89477503
-0.094742276 0.10103457 0.89466679
-0.086849459 0.10059479 0.89850003
-0.072710343 0.10396923 0.89375007
-0.23840158 0.11578538 0.89450002
-0.18584029 0.11944029 0.89260006
-0.17418711 0.11754061 0.89675003
-0.16638857 0.11284998 0.89865392
-0.15651104 0.11137973 0.89680004
-0.14543696 0.11209437 0.89625007
-0.2446278 0.12665311 0.89881253
-0.2041575 0.12736526 0.89344639
-0.19462776 0.12434532 0.89512509
-0.1854005 0.12322789 0.8956365
-0.17724168 0.12088447 0.89850003
-0.24595544 0.13571289 0.89519054
-0.23397261 0.1375224 0.89140928
-0.22570637 0.1375453 0.89253581
-0.21418795 0.13469839 0.89432824
-0.20729423 0.13278489 0.8961429
-0.24509774 0.14398199 0.89737511
-0.2362915 0.14277986 0.8955
-0.053892821 -0.0074593839 0.90600002
-0.073442526 0.0083496636 0.90275002
-0.10167062 0.016335258 0.90800005
-0.087576799 0.018279165 0.90600002
-0.13475779 0.028100852 0.90350002
-0.091539621 0.022238942 0.90600002
-0.089558214 0.020259054 0.90600002
-0.15266789 0.038004499 0.90425003
-0.17763674 0.055557717 0.90050006
-0.192379 0.065723866 0.90500003
-0.20924811 0.079963431 0.90950006
-0.10387003 0.085715473 0.90554166
-0.097537287 0.089604579 0.90650004
-0.1222646 0.09788499 0.90366673
-0.11777943 0.097988822 0.904625
-0.10141869 0.091509782 0.90575004
-0.099492714 0.091560297 0.90625006
-0.088322572 0.091282457 0.90350008
-0.1405299 0.10893158 0.90250003
-0.13540934 0.10385858 0.90125006
-0.12270731 0.10181233 0.90937507
-0.11606458 0.10280558 0.90838885
-0.23852822 0.11202984 0.90362501
-0.16422115 0.11573211 0.90255558
-0.15457882 0.11502011 0.90384996
-0.14556572 0.11344811 0.90312505
-0.24649666 0.12636591 0.90025002
-0.194286 0.12863617 0.9023751
-0.18502098 0.126426 0.90775001
-0.17554259 0.12208073 0.90493757
-0.25043434 0.13030057 0.90025002
-0.21171768 0.1386047 0.90308338
-0.2050346 0.13473019 0.9065001
-0.24357846 0.14802703 0.90037501
-0.23455903 0.14691536 0.90563476
-0.22584675 0.14121854 0.90295833
-0.21617155 0.14090772 0.9052
-0.24180262 0.15134816 0.90850008
-0.23685442 0.15136205 0.90858334
-0.044580501 -0.015586875 0.91825002
-0.062603131 -0.001539009 0.91750002
-0.088785097 0.0044809277 0.91850007
-0.082758851 0.014516952 0.91850007
-0.10836881 0.020443533 0.91425002
-0.17535704 0.052414574 0.91425002
-0.20543869 0.076050468 0.91025001
-0.11514606 0.077236049 0.91250002
-0.21497966 0.085238054 0.91268748
-0.11110954 0.08019422 0.91212499
-0.22591507 0.095606066 0.91662508
-0.08611501 0.092090718 0.91150004
-0.075615004 0.097669385 0.91712505
-0.23237756 0.10293315 0.91050005
-0.22951667 0.10000346 0.91100007
-0.13353667 0.10632189 0.91641074
-0.12498382 0.10568924 0.91195005
-0.11499409 0.10700707 0.9113
-0.10475171 0.1071 0.91286373
-0.096224964 0.10663469 0.91665012
-0.082488537 0.10649938 0.91549999
-0.074571311 0.10162234 0.91662502
-0.24513339 0.11672533 0.91725004
-0.161983 0.1180718 0.91216677
-0.155523 0.11847091 0.91525006
-0.14295509 0.11396421 0.91807157
-0.134955 0.11284372 0.91828334
-0.12470487 0.11159757 0.91404551
-0.11420906 0.11119723 0.91299999
-0.10438814 0.11037394 0.91445005
-0.077483073 0.11050068 0.91550004
-0.053683504 0.11096839 0.91937506
-0.25139871 0.1273672 0.9145
-0.24708737 0.12238101 0.91458338
-0.18560314 0.12816466 0.91306251
-0.17335044 0.12323946 0.91600007
-0.1680228 0.12125069 0.91608334
-0.25577372 0.13583611 0.91369998
-0.20347381 0.13722001 0.91136116
-0.19689395 0.13269465 0.91285717
-0.18948001 0.13111302 0.91975003
-0.25513166 0.14652392 0.91200006
-0.23128664 0.14863566 0.91012502
-0.22575261 0.14643601 0.91190636
-0.21611945 0.14436223 0.9145357
-0.20763354 0.14162366 0.91408342
-0.25546458 0.15195203 0.91728574
-0.24425921 0.15326515 0.91400003
-0.23432505 0.15330036 0.91420841
-0.079448611 -0.0035797588 0.92675006
-0.07729651 0.010579725 0.92525005
-0.095121011 0.024633169 0.92150003
-0.16424032 0.043923773 0.92487502
-0.10816208 0.046759699 0.921
-0.11127367 0.052840151 0.92175007
-0.19450231 0.065119699 0.92450005
-0.18767235 0.060831312 0.92075002
-0.11792582 0.065260574 0.92650002
-0.11623334 0.077631317 0.92916673
-0.11014681 0.081699856 0.92925006
-0.10613936 0.083775602 0.92975003
-0.22172396 0.090939 0.92000002
-0.23846646 0.10731369 0.92250001
-0.094061062 0.10764155 0.92100006
-0.086289026 0.10699228 0.92406255
-0.063106164 0.1065747 0.92482507
-0.055404473 0.10722166 0.92171437
-0.15163189 0.11934464 0.92200005
-0.14973719 0.11944173 0.92275006
-0.10539657 0.11345369 0.92325002
-0.098497979 0.11191698 0.92166668
-0.082084887 0.11244255 0.92600006
-0.077241361 0.11294428 0.92458344
-0.063336633 0.1120396 0.92825001
-0.056467667 0.11402145 0.92375004
-0.18076999 0.12733497 0.92150003
-0.17616247 0.1256272 0.92375004
-0.16448759 0.12234547 0.924375
-0.15622747 0.12179825 0.92533332
-0.20067641 0.13792565 0.92500007
-0.19555108 0.13495065 0.92308336
-0.18727289 0.13138175 0.92875004
-0.26039991 0.1454705 0.92158335
-0.22312216 0.1495066 0.92162502
-0.2154603 0.14765351 0.92770004
-0.2060677 0.14270554 0.92650002
-0.24653642 0.15569639 0.92250001
-0.23212874 0.15591791 0.92620003
-0.22582014 0.15295784 0.92488891
-0.15225242 0.035332751 0.93825006
-0.10708117 0.041472789 0.93800002
-0.11479513 0.057624545 0.93400002
-0.11671267 0.061640635 0.93300003
-0.10313106 0.086858168 0.93012506
-0.0914516 0.10882597 0.93550003
-0.088311583 0.10873871 0.93475002
-0.07305751 0.10885505 0.93575007
-0.068140991 0.10712405 0.93850005
-0.24302565 0.11048514 0.93225002
-0.1475959 0.1189523 0.93475002
-0.12477008 0.11659691 0.93225002
-0.1150436 0.11707218 0.93605006
-0.10515217 0.11745365 0.93910009
-0.094199553 0.11427727 0.93771666
-0.085664727 0.11527895 0.93451792
-0.073660873 0.114365 0.93690634
-0.067182332 0.112133 0.93466681
-0.055543512 0.11678451 0.93375003
-0.25388142 0.1250792 0.93093753
-0.1803527 0.12920043 0.93500006
-0.1762159 0.12712316 0.93475002
-0.16294806 0.12646098 0.93487507
-0.15601495 0.12622084 0.93621153
-0.1496802 0.12102738 0.93500006
-0.26088437 0.1346789 0.93050003
-0.25891894 0.13064714 0.93075007
-0.20139162 0.13982677 0.93775004
-0.19420081 0.1360251 0.93274999
-0.26538146 0.14915295 0.93200004
-0.21301579 0.14857304 0.93475008
-0.20593159 0.14423227 0.93975002
-0.26396367 0.15488881 0.93179178
-0.25495857 0.15715632 0.93115008
-0.24430479 0.15955018 0.93325007
-0.22271807 0.15410733 0.93116665
-0.2185598 0.1512302 0.93225002
-0.23990917 0.16002032 0.93600005
-0.10349987 0.014900224 0.94275004
-0.10008783 0.027456604 0.94950002
-0.18131717 0.05388635 0.94000006
-0.20848478 0.074586593 0.94200003
-0.077266179 0.098030694 0.94975007
-0.074058369 0.10542051 0.94856256
-0.063248202 0.10392793 0.94206256
-0.058001891 0.10529704 0.94050002
-0.25167558 0.11667942 0.94950002
-0.24729891 0.11354835 0.94075006
-0.093984075 0.11761311 0.94037509
-0.082860067 0.11993854 0.94250005
-0.073743917 0.11656763 0.94195002
-0.25797313 0.12501214 0.94975007
-0.17410724 0.12858513 0.94550008
-0.1688261 0.12850013 0.944875
-0.15174662 0.12692539 0.94468755
-0.14521781 0.12078445 0.94590008
-0.13729581 0.12068087 0.94833344
-0.085337698 0.12051119 0.94700003
-0.07775864 0.12001808 0.94312501
-0.2645292 0.13449866 0.94350004
-0.19628009 0.13851213 0.94275004
-0.18528798 0.13258335 0.94456255
-0.16365278 0.13124759 0.94483346
-0.15415865 0.13397411 0.94523448
-0.14873968 0.13557893 0.94783336
-0.26744771 0.14677376 0.94287503
-0.21110369 0.14908935 0.94450003
-0.20412983 0.14304115 0.94091672
-0.14988543 0.14154153 0.94925004
-0.27126941 0.15543231 0.94541669
-0.26922551 0.15957825 0.94550002
-0.22463273 0.15793379 0.94493753
-0.21755908 0.15236652 0.94562507
-0.26438582 0.16184747 0.94668758
-0.2566635 0.16220009 0.94875008
-0.23571476 0.16135383 0.94380009
-0.22872162 0.16151623 0.94475007
-0.08984682 0.0025612528 0.95100003
-0.084831886 0.015061197 0.953125
-0.15981422 0.038209863 0.95900005
-0.14792621 0.031623147 0.95000005
-0.10729722 0.03399184 0.95825005
-0.17775847 0.050519343 0.95400006
-0.19919488 0.065300524 0.95675004
-0.069647573 0.10739627 0.95925003
-0.055609856 0.10766731 0.95237505
-0.040077977 0.10895034 0.95450002
-0.034448251 0.10816883 0.95550007
-0.025500491 0.10805986 0.95585001
-0.019243419 0.10917863 0.95650005
-0.07153976 0.11962987 0.95650005
-0.065686196 0.11862138 0.95586121
-0.054733306 0.11947352 0.95525002
-0.04110454 0.11515919 0.95410001
-0.03482455 0.1150898 0.95353764
-0.025447413 0.11512911 0.95387
-0.018168788 0.11526592 0.9550001
-0.26177821 0.12846482 0.95225
-0.11343828 0.12178373 0.95700002
-0.1037342 0.12187069 0.95300007
-0.094463669 0.12324683 0.95212501
-0.085109584 0.12516007 0.9551819
-0.075389542 0.12546718 0.95694113
-0.064907402 0.12536936 0.95522833
-0.055303041 0.12567915 0.95482147
-0.04374747 0.1256066 0.95602787
-0.034806058 0.12544301 0.95301259
-0.025897276 0.12496191 0.95295453
-0.019185577 0.12239638 0.95362508
-0.26629078 0.13227499 0.95725006
-0.19444956 0.13808025 0.95400006
-0.18513651 0.13422196 0.95625001
-0.17012325 0.13237862 0.95800006
-0.16339192 0.13514608 0.95537508
-0.14514649 0.13804062 0.95085013
-0.080074258 0.13035309 0.95850003
-0.07413201 0.13064227 0.95755005
-0.067826584 0.13143888 0.95725
-0.051508464 0.13188599 0.95745003
-0.044391006 0.13335161 0.9574585
-0.035241842 0.13341168 0.9553889
-0.028621824 0.13201588 0.95537508
-0.27178821 0.14858198 0.95450002
-0.26906499 0.14406982 0.95225006
-0.20540664 0.14537957 0.954
-0.152934 0.1424499 0.95533341
-0.14413735 0.14504236 0.95451248
-0.21561433 0.15288711 0.95533341
-0.11172127 0.019373696 0.96025002
-0.14592749 0.02999031 0.96425003
-0.13489208 0.023582853 0.96075004
-0.1158912 0.021466548 0.96000004
-0.1741509 0.047066405 0.96875006
-0.19397628 0.061454318 0.96200007
-0.076435976 0.099656366 0.96550006
-0.072925925 0.10420232 0.96296436
-0.06740097 0.10421365 0.96212506
-0.059528261 0.10595866 0.96525007
-0.040718302 0.10857183 0.96975005
-0.033586141 0.10696492 0.96799999
-0.024743784 0.10615762 0.96706253
-0.019469753 0.10834792 0.96775007
-0.044331647 0.11414193 0.96762502
-0.015680816 0.1148479 0.96905005
-0.25682548 0.12019268 0.96100003
-0.15204842 0.12733698 0.9674167
-0.13301946 0.12247304 0.96241665
-0.12470605 0.12257273 0.96319997
-0.11432077 0.12381284 0.964625
-0.10531686 0.12569857 0.96566677
-0.094651245 0.12839532 0.96475005
-0.087982662 0.12909479 0.96475005
-0.050918914 0.12138261 0.96212506
-0.046367846 0.12179984 0.96375006
-0.0214468 0.1286599 0.96150005
-0.017316256 0.12396537 0.96587503
-0.27111953 0.13731354 0.96325004
-0.19244555 0.13859987 0.96487504
-0.1675801 0.13686195 0.96750003
-0.1515134 0.13246258 0.96625006
-0.14620477 0.13771816 0.96608335
-0.083841167 0.13132209 0.96562505
-0.2727125 0.14424902 0.96266675
-0.19787502 0.14112003 0.96050006
-0.18641277 0.053899929 0.97750002
-0.092121936 0.09638381 0.97508335
-0.25105879 0.10966343 0.97950006
-0.24790883 0.10647984 0.97975004
-0.042850178 0.10859983 0.97000003
-0.034417808 0.10664473 0.97150004
-0.018590022 0.10832974 0.97712505
-0.015382475 0.11151858 0.97700006
-0.26263192 0.12404253 0.97475004
-0.11518648 0.12578434 0.97175008
-0.095909342 0.12983076 0.97025007
-0.17666452 0.13416347 0.97091675
-0.14402458 0.028338568 0.98000002
-0.16760029 0.041188177 0.98000002
-0.24475722 0.10329461 0.98000002
-0.073325172 0.10226306 0.98037505
-0.062708877 0.10565139 0.98200005
-0.057325222 0.10884263 0.98175007
-0.033563506 0.10701716 0.98799998
-0.025251623 0.10618261 0.98693758
-0.018805746 0.10743134 0.9885
-0.054104615 0.11206077 0.98175007
-0.16000573 0.035455093 0.99950004
-0.20534298 0.065852419 0.99675006
-0.11135621 0.089609936 0.99450004
-0.10027934 0.098105393 0.99250007
-0.098108754 0.098105393 0.99250007
-0.082303166 0.10085525 0.99825001
-0.076650299 0.1016745 0.99562502
-0.065609455 0.10580474 0.99350005
-0.12339862 0.022450432 1.0040001
-0.18460301 0.050896909 1.0025001
-0.20129649 0.06226721 1.00925
-0.21857457 0.075369425 1.0075001
-0.11470129 0.088337824 1.00475
-0.11601412 0.018282715 1.01625
-0.098572232 0.022802616 1.01975
-0.16729669 0.038307741 1.0172501
-0.11395956 0.038326569 1.01775
-0.17984584 0.046990961 1.01275
-0.19223981 0.054001153 1.01975
-0.12054808 0.058300443 1.0170001
-0.11826573 0.053829048 1.0165
-0.12396059 0.065008014 1.0176251
-0.12728311 0.071670406 1.0175
-0.12466976 0.082529418 1.0143334
-0.092287153 0.018426638 1.02425
-0.12158523 0.020695204 1.02575
-0.15763162 0.031934202 1.0267501
-0.11744111 0.049981486 1.0287501
-0.22007577 0.074420474 1.02475
-0.10928494 0.011854665 1.0367501
-0.12953481 0.023154803 1.0355
-0.17427862 0.041128397 1.03225
-0.1891429 0.050503768 1.0395
-0.12085444 0.057277292 1.0387501
-0.2099403 0.065798283 1.0300001
-0.15103848 0.027887743 1.0432501
-0.10295241 0.025564967 1.0415001
-0.096880548 0.021179421 1.0497501
-0.16547795 0.034885325 1.0480001
-0.15560162 0.030167565 1.0432501
-0.18302436 0.046137374 1.0435001
-0.11681485 0.041566677 1.0432501
-0.1186344 0.016745467 1.0595001
-0.1339314 0.023529349 1.05225
-0.17156287 0.037503649 1.05725
-0.113677 0.035167906 1.0565001
-0.10913368 0.030572399 1.05725
-0.054186482 -0.013460998 1.0680001
-0.11016592 0.0098711476 1.06725
-0.10681421 0.0063811541 1.0687501
-0.072752692 0.00054156245 1.0662501
-0.14057457 0.023875944 1.0677501
-0.13810994 0.023853583 1.06675
-0.10056987 0.023803271 1.0645001
-0.094464876 -0.004150473 1.0745001
-0.06637378 -0.0041572326 1.0762501
-0.10228314 0.0017127335 1.07025
-0.12457751 0.019263189 1.07075
-0.089953005 0.014665073 1.07675
-0.12929113 0.021608153 1.0710001
-0.057395417 -0.011298997 1.0845001
-0.10041061 -0.0018250048 1.0880001
-0.080870226 0.0076377722 1.0812501
-0.077287719 0.0040918565 1.08075
-0.083311871 0.010009884 1.08225
-0.06518282 -0.0054400833 1.096
