0.41722116515445995 0.0032903501342645986 0.03608911269871707 -0.015265404864712413 0.29405018725750359 0.95566806726401798
0.48058560766455954 -0.2688279503510238 0.013917548885449521 0.11283307165293922 -0.35214196891506189 0.92912040751992209
0.51727590583650573 0.040771435768164228 0.0090194935246828891 0.19388803871160465 0.32932877012042 0.9240941454286673
0.47892053975150867 -0.27012815183333422 0.013609099483243802 0.11019306254849962 -0.35571366400971327 0.92807611659980094
0.47582892638525365 -0.27075267551649695 0.013719604333316976 0.10639765408108921 -0.36064179839308763 0.92661590341297317
0.40046131834416893 -0.27702190663933496 0.017052537328329329 -0.0064773685833799883 -0.40416716303300354 0.91466220432577661
0.57622163275616056 -0.061803861938122005 0.019367807326978438 0.34342390514479315 0.14095734493569198 0.9285424321396305
0.24910881488431988 -0.024963554556241468 0.010944902141177016 -0.28394759011608212 0.21951750700376699 0.93337336055092157
0.47446378309845283 -0.27183557032663958 0.013435984224139587 0.10461213900998162 -0.36294276305123557 0.92592054255237843
0.47569082263249512 -0.27305928119166378 0.012804195702169192 0.10537949599404332 -0.36200289183379591 0.92620141876808337
0.55874166459164254 -0.16572247665645704 0.025625913753692567 -0.33614980248731063 0.11764046617600832 -0.93443246465736274
0.2464724897574542 -0.025290352815151382 0.010155107780389723 -0.28531557944715025 0.2119262722640412 0.93470972780270356
0.47138408081206001 -0.27236602036379159 0.013557379599901918 0.1015949337884495 -0.36668896504413023 0.9247797966777741
0.47298510428503437 -0.27326517087067193 0.014228071445466726 -0.13898671205142649 0.33986790719094745 -0.93014649358839141
0.60073663432164615 -0.099995743439365237 0.011502145390656382 -0.3833967206753392 -0.034501270388076759 -0.92293911874890466
0.23907800157243522 -0.10358827991611123 0.017740020624943072 0.38508204196267881 -0.0044421536235316394 -0.92287165317233499
0.40246576766491188 0.028802165320614179 0.026728211740863178 0.072860222897466992 -0.33560733295026468 -0.93918001788227035
0.49984646695139345 0.029105400405949 0.01875723610193266 -0.19173070510204604 -0.3325859285866633 -0.9233774617279864
0.53720614504779329 -0.14679396572502415 0.035446460732960913 0.25937578622344387 -0.093532636691482873 0.96123662403932031
0.27460913235434342 -0.15554659908055846 0.029753318942442108 0.33049990409057173 0.10385560853761017 -0.93807453113886718
0.41319292599207835 0.0036949822187108384 0.035862615324915303 -0.023851757973129654 0.2951002952871879 0.95516852406421227
0.51473963052259419 -0.14445263706479028 0.041662349008454953 0.2062620541500732 -0.096224450499307598 0.97375398337767971
0.47048485621407621 -0.27320431633250847 0.013309706978652578 0.10031429619907954 -0.36835997659998815 0.92425535952859883
0.22979737315720114 -0.14988605649241449 0.010899888112388879 0.38963663247218178 0.093367557224292269 -0.91622365931780358
0.37582031320785741 -0.028795679805495245 0.040821128974498723 -0.091735180629914467 0.21557729956342409 0.97216823880835501
0.47408847662786385 -0.27663160264047104 0.011527449669309528 0.10221540816638604 -0.3662063145635775 0.92490266812629607
0.5355187520619229 -0.14800635769829854 0.035832763788897069 0.25511977709251354 -0.096990987498596415 0.96203256061336795
0.57711126038811378 -0.065996842739848419 0.018747328480360179 -0.36946139795144289 -0.11200918845614645 -0.92247071342409614
0.35345582060405395 -0.23881007592433848 0.029600277318396425 -0.11863921144519003 -0.32199309093701717 0.93927907828104507
0.36144608575819659 -0.29011951836248145 0.0081794218499318134 0.083392871897113807 0.36638647980369216 -0.92671817524736733
0.51448663156925289 -0.14725952122209277 0.04161197438329297 -0.21404020822087205 0.073347963621264653 -0.974067177096826
0.56788972876559518 -0.16817965393785272 0.022356799156539535 0.3185704177388769 -0.13552919624793888 0.93816028796046635
0.40117477992824985 0.03654318319886276 0.023425615743830945 -0.046613666275026951 0.36602631990788026 0.92943633415694193
0.51768645093001553 -0.15153284716675164 0.040361227902354059 0.2112785956142974 -0.11406662586682123 0.9707472173015016
0.40198798122997409 0.035498727538475848 0.024000324887523294 0.075283039017127504 -0.34663768963195646 -0.93497314194738501
0.24051110005103574 -0.12340956868583464 0.017678861862130062 -0.3635468829955692 -0.046068141255321569 0.93043612904136819
0.27234878620289193 -0.14963681976319665 0.029522289235906128 0.33435291060146127 0.090534844493777591 -0.93808932042999971
0.27091042291215306 -0.14806979152848751 0.02913247052700306 0.33673307719890705 0.087783073553899235 -0.93749931558246247
0.5800830366916323 -0.070861881054692419 0.018054372746252913 -0.3724761323905712 -0.10052272246070833 -0.92258154819422289
0.49375083985194773 0.044443989010281182 0.013007495081108775 0.15702685404138803 0.35749099610867169 0.92062085290910833
0.51503447383950851 -0.15134292885992581 0.041005493873666497 0.20490918993881277 -0.11453428779797648 0.97205664485009824
0.37925825732382634 -0.277088501329884 0.016266694565603989 -0.054004821695613429 -0.40208657981911528 0.91400758288046557
0.51694084025198317 -0.15490323224311744 0.040193506000945928 0.20860031641380522 -0.12199770943992401 0.97036202877249489
0.24446163207921803 -0.032135937149135464 0.011466304393049033 0.3491754052798724 -0.16096014011535767 -0.92312966025455034
0.46112031874953074 -0.27782718667196826 0.012343577630103459 0.090475335645509941 -0.37980117710561645 0.9206330862558767
0.49821539571705692 0.028268800232060624 0.019260697703642582 0.17671867827732901 0.34459190775991572 0.92196904820839598
0.5016401838429323 0.0245675436369544 0.02015250217172998 -0.19826709458728012 -0.32369074936470565 -0.92515645054208739
0.45434242317923879 -0.27951157959966755 0.012304199941002949 0.083513096867992714 -0.38627700649896818 0.91859438105276559
0.23667912312613562 -0.12501436538424526 0.016269184738813777 0.38951199194133695 0.03774148123809782 -0.92024778659220152
0.51484017662811521 -0.1542615280322347 0.0407508267089354 0.20345486617869696 -0.12119490292397198 0.9715543798128119
0.23841047269971757 -0.12655099124758035 0.016988928555527725 0.38786829785785037 0.040862972975681082 -0.9208085582554294
0.45219131044154448 -0.27970935691797111 0.013216166327533068 -0.082225635421853169 0.37694150591505515 -0.92258010275420688
0.4531598932535314 -0.28049994045594068 0.012000035190412076 0.081799182159280184 -0.38784172880458928 0.91808914991733792
0.3763747482167365 -0.27712015697813525 0.015964647318600526 0.05840640628909146 0.38277826349105759 -0.92199213266880098
0.57889051301265015 -0.072292851345705345 0.018714289920188573 -0.37143009714515079 -0.098263375738496445 -0.92324644159791858
0.21079896007196117 -0.03596655569843335 0.010109798104522536 0.89881112578960332 -0.35380387448326051 0.25876896753177164
0.23311908170835785 -0.058260381595440371 0.012338787247639626 0.36975912309575693 -0.093521029136545877 -0.92440900471420018
0.23417380039003863 -0.059196179250043925 0.012910234063981625 0.37001890215536754 -0.09175855026951095 -0.92448168207930115
0.36846639355099703 -0.21639891014847873 0.038186046795800739 -0.079507528407891076 -0.25929250218545308 0.96252062379819958
0.40819328872561245 0.0019600856388722276 0.036213794441458641 -0.033538696322501733 0.29106512344937563 0.9561151864500359
0.22755422257566832 -0.14124166369591884 0.010028198694609409 -0.35103289876725402 -0.070072771461187483 0.933737495596491
0.43871011818757427 -0.28548831277532866 0.011232884828195235 0.062785567614974905 -0.39972044207443963 0.91448430313870332
0.19630760673468592 -0.11044515016720416 0.0088760532205840008 0.95433462977270622 -0.017255740172443666 0.29824093254899303
0.49446766092731698 0.057367292371250551 0.0075696342760367807 -0.15720647091093215 -0.37108858830773722 -0.91519363258902808
0.48651860970300359 0.038373891467663408 0.017345894319466908 -0.15940648036792912 -0.35521220799770686 -0.92109383957667579
0.37340706675862179 -0.27686632858746252 0.01584451334921913 0.063519998208618311 0.38130718799069968 -0.9222635405426165
0.20849376892232374 -0.041567555460258546 0.010357150894013708 0.90212910708385752 -0.33511164029120433 0.27177796579822389
0.22548623627721762 -0.073380191707582629 0.010557300443139551 0.38515116563845953 -0.057236151626449468 -0.92107687114286507
0.22804824633841658 -0.076272964342447597 0.01131776585011965 -0.36532351052473722 0.075915401277879269 0.92777992245289542
0.22884019590172552 -0.077609720052449177 0.012325473340645821 0.38545603758993124 -0.05105211988903316 -0.92131282642775858
0.2266217186967634 -0.077350310497430699 0.011320247681504053 0.38682257665710607 -0.050159745504298719 -0.92078895199676525
0.40523851897116758 0.0024734049180527352 0.035913482996136205 -0.039750298760309138 0.29152841513056449 0.95573589286995353
0.42121729358621551 -0.28968450151404401 0.010665698430484332 0.032119478446128821 -0.4103704658728059 0.91135307090264694
0.22425954607231113 -0.077631710569537438 0.0097307218497125238 -0.36556284867992389 0.071863667780189475 0.9280083064920257
0.50338340955145477 -0.17865668660550171 0.03899873602232784 -0.18634066685844636 0.16842837619580148 -0.96794061696304234
0.39584594174631138 -0.01911048086469316 0.040817279844598889 -0.056127397225731158 0.22983710257822723 0.9716092947060101
0.50200219996434925 -0.1769527207704312 0.039289421312702411 0.16219292456240789 -0.2142122428117785 0.96322716440694334
0.22646164069229463 -0.080323962771681912 0.011429211107002537 0.38808438191557476 -0.044745724409092712 -0.92053698060442524
0.22794314821002687 -0.081835143212529035 0.011613456980237694 -0.36541637116326497 0.066628075698547895 0.92845655537272154
0.5647928799348001 -0.16792248736690257 0.022898311415911709 -0.3458974815869626 0.12118770352900225 -0.93041306565694981
0.41730498827533402 -0.28920854743777391 0.011350023155044799 -0.024007610459566064 0.39559426227794908 -0.91811154784851012
0.56678303820422427 -0.1708038803720125 0.021661900295986091 -0.34663600729206362 0.12777993126525639 -0.92925549103272054
0.41986162830524809 -0.29158849191494529 0.010197732637525032 -0.027053556468091076 0.39632325327680573 -0.91771236452088656
0.29914183345039497 -0.14118877772558577 0.039251250025679987 0.26342446148739901 0.069527566598412971 -0.96217122726309856
0.5129091971074049 -0.16534872778160972 0.039722942260226754 -0.21787747490614523 0.13532645368439916 -0.96654857966980956
0.37467887740904665 -0.29213624915328557 0.0087606022002360267 0.062827377012105945 0.38904163516169149 -0.9190752563356801
0.22756717777972196 -0.084823932663170953 0.012140981634730845 0.38944455155672913 -0.036110233245416901 -0.92034178016524915
0.4151428520189977 -0.28890506173449571 0.011287623231829457 0.020740164028648058 -0.41212894314485576 0.91088944434457519
0.23771142269448003 -0.13779375108246608 0.015415278368173425 -0.36266785221465264 -0.070026268934688565 0.92928378368994347
0.56103583089645481 -0.16338627727332569 0.025054701372757931 -0.34199306581116395 0.11036204849207018 -0.93319931482492791
0.32450424901280045 -0.21882733682564828 0.030949367893800747 -0.18065444921707924 -0.27252508003341691 0.9450365340720186
0.22614228925521707 -0.085804449920609344 0.0115486440574187 0.39045284894133303 -0.034008842290807306 -0.91999454965757033
0.49069416472035937 0.034611817976457598 0.018134867011409189 0.15684541379199743 0.35608228050677587 0.92119754975874246
0.36341683154269933 -0.24318530948141787 0.029259861012077139 -0.096160426006381347 -0.33077306534199941 0.93879835519377031
0.41152367319513816 -0.28884427193897022 0.01141846850938941 0.013960672190091932 -0.41298072841637096 0.910632756707491
0.23700768548791956 -0.13964562319884344 0.015358957951705417 0.38932920975534974 0.072687296534440254 -0.91822618311273907
0.41413256092617212 -0.29127869847818011 0.010544112101565738 -0.015517144638352711 0.39739851031450429 -0.91751492752002961
0.2376438087256986 -0.14089744468770604 0.015531803039037685 0.38879935617880063 0.075299443046173573 -0.91824019434562232
0.22594544396849678 -0.088874810549047126 0.011577480188200314 0.39136478165950428 -0.028603747002855215 -0.91979097263128506
0.50684900650813081 -0.16369099628132511 0.041216459710890767 -0.19359151808439815 0.13059190870382223 -0.97235182804727149
0.4084800280423958 -0.28928074552950461 0.01126939054879361 0.0081749520354401067 -0.4139274634539174 0.91027315963826161
0.36866834774108886 -0.28741385776562456 0.010277753520273417 0.072915907243527839 0.38141803957484799 -0.92152240860314028
0.51038111809799835 -0.16818019472502851 0.039819733303803215 0.18291015672815303 -0.17250308430520717 0.96787734784469115
0.41474962058928289 0.046280948311360481 0.020240054715763196 0.03291099300831498 -0.36212015744746451 -0.93155024454370161
0.35773929312897862 -0.27266655118839878 0.0161319001844566 -0.10337564253727252 -0.38610495038688364 0.91664412059247291
0.22483330699375184 -0.090350560269973471 0.011118969753697574 0.39242947260262967 -0.025421076540592516 -0.91943073578184198
0.22585897348695808 -0.091756744377941249 0.010982828586264357 -0.36231901200881439 0.041486036887930997 0.93113041099530724
0.2710753119875326 -0.14234466440589791 0.029686582899073582 0.33638065144699347 0.074708057034202274 -0.93875809639452412
0.38001861383391999 -0.29270833562495308 0.0088529529754693016 -0.049392604320342454 -0.41164609941563773 0.91000431838225082
0.22645043584870517 -0.12602418122564363 0.011522241152916635 0.39590364272930118 0.041333193196182075 -0.91736136435642246
0.22721953608884152 -0.093214652397037648 0.011631239258847553 -0.36243930703218208 0.037240293364744527 0.93126307199852998
0.50879300900823043 -0.16933452619869138 0.039899547840945793 0.17850677214893199 -0.17816855453843877 0.96767313617287776
0.35567064510644769 -0.27245911501362347 0.01594234694230753 -0.10747848101580697 -0.38422776433734895 0.91696095949111023
0.48492097162044268 0.037767155910407434 0.017861790816133604 0.14220423758879483 0.36168887071107675 0.92138977399118971
0.48628128310610913 0.036062322171120473 0.018361228665226426 0.14569068628006832 0.35969431471151664 0.92162585895549554
0.23789260273886645 -0.14584849431910749 0.015116243653628377 0.38804490471230435 0.085447147167005397 -0.91767093065425076
0.40247520298012801 -0.29097986327521413 0.010506358879661651 -0.0041170941815512349 -0.41540269326030405 0.90962830429114616
0.37172024177254354 -0.24786012772380098 0.028227076050659886 0.071788863449180784 0.33589698381995792 -0.93915897234990509
0.24005669643451868 -0.14936363164014735 0.015467898124894942 -0.36015906409687809 -0.094478444938668568 0.92809443053540186
0.22423460252265573 -0.1198804834402409 0.010783021599417119 0.39656926172346657 0.028168066313389847 -0.91757254791992826
0.40364544200276775 0.0012264279133290372 0.036203310340450448 -0.042730168595756984 0.28859662870962904 0.95649679486614836
0.22567250979911874 -0.10042883964716182 0.01167520146360841 0.39409734204015651 -0.0070583510562046052 -0.91904160116789668
0.40003664413678502 -0.29083128696364718 0.010554756432255535 -0.0086413938219854162 -0.41549923228737928 0.90955248022388013
0.23915542477342988 -0.15047629387492131 0.015154649830612295 0.38614180542452725 0.094438577587429975 -0.91759242649814265
0.40474388735043998 -0.00019932476432689766 0.036875550634854148 0.054326257522365702 -0.26358215437512811 -0.96310596802147364
0.22578010262668347 -0.11852646628839834 0.011530787202040739 0.39593067607825733 0.024703281321788884 -0.91794806368996207
0.50657505444012629 -0.17621460146792647 0.038973601570996837 -0.19935831612667471 0.16257264869499727 -0.9663469333978506
0.30827370976596713 -0.20389251708256931 0.031272054017181722 -0.22051870616602312 -0.23658909651577004 0.94625424682836423
0.39970667707334046 0.0028414448546627991 0.035478343229539085 -0.050606310750370961 0.29191183576123675 0.95510548184728872
0.24037160214145969 -0.15473593195599603 0.015165824588547214 0.38397577093996743 0.10269623965155456 -0.91761434693039112
0.5026583197791864 0.04198243709266556 0.012762313218775363 -0.18687657404643016 -0.35210032821638926 -0.91711640752010326
0.2444982798266033 -0.16100780485919416 0.016235645180730982 0.37852580246863793 0.11420176510010742 -0.91851846672426429
0.22483190573291176 -0.10602300912380559 0.011301551119488261 0.39532984357070083 0.002840015749253555 -0.91853483825759663
0.41118621339024919 0.049610974113083087 0.018046696420930392 -0.02125243411555108 0.3869108035922133 0.92187220595253438
0.22461770144492371 -0.10856121056873638 0.011192764805401396 0.39561852723150753 0.0068907716706426408 -0.91838907777529444
0.39152366430954344 -0.29087037098065943 0.010341994948086134 -0.025292036293704238 -0.41488433393027113 0.90952256836174949
0.27117752086151525 -0.13947838058343612 0.029949270992464711 0.33590525663983084 0.068153841578514229 -0.93942679993697231
0.24072788893375333 -0.1574515140077265 0.014969792862280916 0.38290683873577186 0.10691255604287049 -0.91757945607438141
0.48468805107276902 0.034958281341278527 0.019109956841057357 0.14280874529859161 0.3593357377891418 0.92221661761962148
0.39001259779806785 -0.29179447745262832 0.010008549307084166 0.038133576689984044 0.39760493819140225 -0.91676395187345816
0.39709910768182816 -0.29318981904194585 0.0093964817501294221 -0.014354917268975247 -0.41636819798449476 0.90908275754044821
0.39931805395490305 -2.6303673157165042e-05 0.036295971826813545 -0.052035330916025073 0.28455345031099671 0.95724691603189138
0.5029929840489108 -0.17178960992828338 0.040472011955229883 -0.18116003802358546 0.15163685890176756 -0.97169300895174626
0.22466772963499299 -0.11476197210663017 0.011122656383918499 0.39609753982308865 0.01731190107702239 -0.91804522602494698
0.38703236698452187 -0.29177450643825265 0.0097250920342833603 -0.034885085148201288 -0.414190631551897 0.90952138598762111
0.22326735843369264 -0.11579057864887693 0.010457495383678357 0.3967386710677806 0.019842477952641872 -0.91771711488239682
0.47768967968002163 0.062058546685174833 0.0076089394822710767 0.11107643402910174 0.35759304505176687 0.92724820837464206
0.3745971237583976 -0.24853081699261526 0.028167200580309065 0.066225884074080699 0.33896957248536397 -0.93846351085574775
0.40063333341269664 -0.0016432931779670442 0.036852256432547616 -0.048881788361410966 0.27934075025258848 0.95894698290098979
0.31185760936521673 -0.083338875250188668 0.041367451455584313 -0.18673705809411612 0.11571104632374843 0.97557174256587509
0.3770797965571917 -0.28798510727837018 0.010862026894103925 0.058856559843636282 0.39076139243270708 -0.91860842558046696
0.30128395031199107 -0.19923264088882722 0.030660955887926417 -0.23758104468578911 -0.22608999345326297 0.94468966442229718
0.40931775742380072 0.026786849412793315 0.027987322833191986 0.052087631483707424 -0.32989262007507786 -0.94258036148989333
0.24861612835718863 -0.17386637554454246 0.015445478758260623 -0.34100201154540849 -0.15376486924203756 0.92740174310218126
0.59102429549315005 -0.064606119548340765 0.012743595925861917 -0.37805633689137402 -0.10974136896031757 -0.91925526273989389
0.46963370813239103 0.066000390191721978 0.0069958566291027941 0.091567932880016495 0.36023643337245925 0.92835608779130141
0.26806177566487238 -0.1325253633953429 0.029226485463767351 0.34103913881543535 0.051949859650271636 -0.93861254939316852
0.40708681474267189 0.02892218711129772 0.026810060296200752 -0.032996483232569568 0.35187627998569659 0.93546475918535299
0.3758792685857511 -0.2887851734453265 0.010414405778557541 -0.059125254459104402 -0.4072600188182105 0.91139644576733847
0.47192518854344401 0.063504835442117005 0.0078130591312260914 0.098637303231237206 0.36156086859083081 0.92711618512196903
0.24926956572814882 -0.1763172330208182 0.015257334101894228 -0.33810087733134314 -0.1574922512330747 0.92783834128004983
0.5095660324185306 0.037304314918290171 0.013185098261608331 -0.20411818098199483 -0.3403871135355222 -0.9178629424546767
0.39752908775594431 -0.0010955992110846823 0.036476046367876984 -0.055717609456687994 0.2819683222772239 0.9578044754690801
0.47370335029248212 0.062441823530464874 0.0084147315896336665 -0.12408880924898447 -0.37742177263660559 -0.91768991111323195
0.50427260316925371 0.043046626899466256 0.011955662111237123 -0.18930034393432987 -0.35229417430221832 -0.91654470405925248
0.49917542367731854 -0.17267588758095043 0.040804826084611806 0.16075794946364313 -0.19467477677990522 0.96760457469461081
0.45893650950593029 0.070124041041613253 0.0063312169657512209 0.065679047007532423 0.3634771323656637 0.92928501388509233
0.22393241942810099 -0.094786101527540856 0.010152231308915755 -0.3601018141327032 0.030750425551441255 0.93240607826565636
0.33577901363447821 -0.27066630265151942 0.012526335976425796 0.15498554041182799 0.31926137229496687 -0.93490729937442907
0.27365856012154022 -0.13742204490690138 0.031021611169365974 0.3305722775720677 0.062799941642802032 -0.94168898083734442
0.24389934388141371 -0.17328400991276757 0.013919004975413157 0.36962706470174111 0.13520527744279875 -0.91929068634006661
0.40411859056683164 -0.28993791924002477 0.010995510775642354 -0.00017027932719568533 -0.41484083244281483 0.90989397994662169
0.22521589672578848 -0.1385759863109654 0.010054934518417236 0.39449701999302073 0.070342102415471341 -0.91620090037305546
0.38943760031031566 -0.023316742540346911 0.041417366720279972 0.07765255443570819 -0.20472506674904267 -0.97573445559445593
0.38173326150292086 -0.029445569058859363 0.04162927519936694 -0.081354076372305142 0.21136640188922742 0.97401527627137896
0.3933837305231962 -0.025005215592546627 0.042082174061872299 0.068219005887309545 -0.19513196227936744 -0.97840159675500871
0.27036987782273875 -0.13231051387798243 0.030109928947890999 0.33655635923240723 0.050860318806544048 -0.94028880937248394
0.59181439729481222 -0.0593422662194385 0.011765377629832752 -0.37767026501666223 -0.12063291358538304 -0.91804840345275118
0.5904010821168062 -0.05757482187146281 0.013201019000509602 0.34731645716773263 0.15179197089759461 0.92538125988777098
0.47669933813471371 0.041462382493919515 0.017575562165377756 0.12247973774460322 0.36890655450677068 0.92136131234383634
0.58773561146121267 -0.054632095550435938 0.012823417014198068 -0.37559679260757506 -0.13228347592564768 -0.91729391766212576
0.44575708714733109 0.070809271254938452 0.0077805312994554815 -0.065114373140143955 -0.38242426338041735 -0.92168964472240389
0.35907397716224637 -0.28756251502806185 0.0090036384049257401 0.08743294339408561 0.36168794740667826 -0.92819034099164743
0.44327907968575414 0.071250812753059889 0.0077643464318602681 -0.058072205545671517 -0.38288096619538342 -0.92197059859214114
0.44444842438921844 0.069820894607390188 0.0083233118143577374 -0.061978042286359968 -0.38254293170058706 -0.92185661991454504
0.31625582457680312 -0.25634984656595539 0.014879699494185616 -0.19091326366452119 -0.33237109492442002 0.92362415571254042
0.43930875739341518 0.072425033077118756 0.0065661636337367999 0.029144653383480955 0.37356399488991993 0.92714644522914536
0.25008175629107021 -0.18644918544496616 0.014287669510023972 0.3507091249237157 0.16491061666771231 -0.92185009530048667
0.51406109837279745 0.037306793884197331 0.012071394081285186 -0.2145157283245594 -0.33513940102939227 -0.91742279466941734
0.43802610272851056 0.071755890162962632 0.006947041133843505 0.026420844071885979 0.3757384485292008 0.92634904722539557
0.39217495466859864 -0.00087425505316649161 0.035959318057774727 -0.066870648354984311 0.28197172636107232 0.95708947435521441
0.58785683687272872 -0.051804188078790704 0.012356837615316314 -0.37509140760896176 -0.13833070023909447 -0.91660845147166825
0.41447573097888174 0.097068010218177833 0.0059719232989452042 0.021670144470375491 -0.91012478020269183 0.41376719214992719
0.41197644789921128 0.09703975043511219 0.0060278472030082693 0.029873309417961829 -0.90952226199959696 0.41458031828772962
0.50053244837232058 -0.185675451524177 0.037125106927564641 0.15888081493872469 -0.23978261131598497 0.95773753500366376
0.41775747175825223 0.073456888487809249 0.0065684326264033501 -0.0093912749705263761 0.38296092246806029 0.9237168049877843
0.41679568301932429 0.072343162098138333 0.0070869337422626065 -0.010886155212277896 0.38435558937856623 0.92312094144708312
0.4036487304828047 -0.02415675906846354 0.042440459805128471 -0.041027731795827575 0.21692948365290082 0.97532472763986422
0.37410668694338639 -0.21672086661959533 0.03841516257385582 0.072938709839197841 0.24891035771902942 -0.96577615337467204
0.49599519878207848 -0.18224364542942786 0.038796471501469983 0.15459658773559007 -0.22975025584789055 0.96089266570119103
0.40112651197131577 -0.02182888914317168 0.042031789334592708 0.055723930886324193 -0.20270734882664468 -0.9776525836196871
0.53046066039997752 -0.17424274447052343 0.034132040574837437 0.23178915791715438 -0.17778440220052039 0.95638198049014922
0.38744238636765033 0.00045250392251312268 0.035066123199563662 0.10049361588326042 -0.27378974085520619 -0.95652507074783288
0.38916909220606988 -0.00021645324725421306 0.035460574595439026 0.09713142085033806 -0.27162645311872052 -0.95748867202162669
0.34775118095094204 -0.28221127816262087 0.009802943958547583 -0.11374509832017926 -0.36375042274873121 0.92452565273130849
0.22885927797512809 -0.1542628311248152 0.0099210896784581951 0.38713162184263494 0.10063139800339876 -0.91651646417583399
0.34357716713659497 -0.28030894675900436 0.0099455803493226219 -0.12074646292694061 -0.35730710399606425 0.92614897566459509
0.37385803990418481 -0.032674640569607144 0.041433427229050288 -0.092916528919235922 0.20855261463530853 0.9735873487172978
0.39039333470404036 -0.0020843033834758657 0.03613525873875633 -0.070307976788872337 0.27925193504009582 0.95764040494134206
0.59228142633419756 -0.055051702651137867 0.010993968238326369 -0.37705733840025596 -0.12961508895308307 -0.91707561971420837
0.49677600165251473 -0.1860792806233813 0.03806833590360828 -0.16454015730486055 0.1918820120640147 -0.96752665600507204
0.22701799706844841 -0.072122275585152537 0.01113549628838314 0.38389242896432135 -0.05978756629344207 -0.92144020419155837
0.49897255015762088 -0.18900278473190976 0.036368315882060187 0.15772127714536877 -0.24799103712591566 0.9558370385378705
0.58860062962483561 -0.05020289644208787 0.011803198881900376 -0.37502504916000368 -0.14148220960279204 -0.91615446125009314
0.31044045983234936 -0.084771528626085835 0.041044961718865423 0.21417974820575308 -0.079379282662617054 -0.97356353924255423
0.58251824419259979 -0.040933209865757915 0.012761366604171981 -0.36995723711844647 -0.16260475810040678 -0.91470833348493863
0.19762220920532983 -0.12876839819216965 0.0074610501129458917 0.95287796002241865 0.059052763323385056 0.29755060821209256
0.53731436293875645 0.015813283323401522 0.013814991512756796 -0.27394244352425351 -0.28608519143085204 -0.91821065169161153
0.53214470612719234 0.021866470958968098 0.012843778067372471 0.24364799564789111 0.3175532942273554 0.91640360079067773
0.49418657616553208 -0.18588985971479741 0.038466218495443433 -0.15649159341179975 0.1911605318062661 -0.96900362861600342
0.52803685933260947 0.026124899985088525 0.012343869537565461 0.23213807736133851 0.32275499180285 0.9175735002196409
0.56406257979400654 -0.16048722366885429 0.024226481112694279 -0.34811014961978554 0.10290520125615084 -0.93178851854169231
0.4974270381182736 -0.19028833041114701 0.036217222980170397 0.15633539817484793 -0.25028557795840006 0.9554665733261114
0.3659690693549047 -0.029424742008408829 0.040450238952016215 0.11580977556361111 -0.20105382484610876 -0.97271036562722835
0.1979166722515211 -0.13204570191607756 0.0077129637253301403 0.95226560503005764 0.073303423343585764 0.29633903827010249
0.37865200824561185 -0.24530133261267864 0.029768950251427003 -0.057648929928998803 -0.33407246375115907 0.94078275379668386
0.58525769650641646 -0.042854186375278332 0.011976062312643908 -0.37185251328928925 -0.1576825090659103 -0.91480158214506713
0.38207646385115351 -0.0040067907164700236 0.035670505392582694 -0.089358272471505559 0.27573076201072239 0.95707243509668305
0.58885972823910915 -0.099007803639201419 0.016817729916248407 0.36796481221941491 0.02619069744404702 0.92947078724171051
0.28875740478107859 -0.23506139244750165 0.014847515134771502 0.25689805173264529 0.26754086650314557 -0.92866855000409976
0.49481721729563666 -0.19026204661226961 0.03720578373134803 -0.16101048704954293 0.20347516783982852 -0.96575021570415542
0.4960347614725007 -0.19186459192332708 0.036597871416656637 -0.16567583313536474 0.20799474287946373 -0.96399673508233863
0.49591637999702132 -0.19324081815588542 0.035538749272570794 0.15552620217595764 -0.25605819281164444 0.9540680281461893
0.2677438640211065 -0.12439173600076602 0.029682214010978258 -0.3288936572470379 -0.030411810027201665 0.94387715516031923
0.29257274114820969 -0.23952476364093531 0.014141473546080838 0.24446191618026089 0.27124567778047737 -0.9309479866366781
0.5760072622451059 -0.030169285364647361 0.013373805894240387 0.32819557891920248 0.20869545009910692 0.92126753502216763
0.31029945232590694 -0.08762904109468711 0.041374569493407551 0.21513415578898126 -0.071217077552350336 -0.97398430319890927
0.36912905619229014 -0.036317920325125923 0.04223642727569292 0.1027913969968887 -0.17752316305224652 -0.97873359770846413
0.43383721577448969 -0.28888178450936774 0.010153661432408206 0.054560198811581716 -0.40397323701081789 0.9131422717652723
0.38516850882511477 0.03372671859391816 0.023126611919577433 -0.088571920061062279 0.35740278603622083 0.92974096581265275
0.491819039425131 -0.18982310710354267 0.037256309867776713 0.15088474093331097 -0.24574407719623706 0.95751952642045768
0.56163132018452622 -0.011131159712299429 0.014087343202917678 0.30732754232741388 0.25663990024585503 0.91634368188403481
0.56008684626116945 -0.0095725199915413541 0.014216711236288482 0.30444858083339615 0.2614875115484287 0.91593413678754287
0.38150373146622896 -0.24535638275334762 0.029907754227463387 -0.051005709505903628 -0.3341968965173906 0.94112212382662852
0.36278271332648204 -0.031844494869889758 0.039997642708709168 -0.10758366688928003 0.21961004028984807 0.96963765645861122
0.26888935924226515 -0.12253529820413986 0.030189042857425748 -0.32674649460056177 -0.027095608969584819 0.94472353428969491
0.26787457048787605 -0.1210820150516263 0.029616821823322346 0.33928854684897625 0.025558120339868793 -0.94033508094817075
0.32578329346507301 -0.2755822972511161 0.0086161941305092481 -0.14489430653827268 -0.32493346987044891 0.93457149544095508
0.53469947184713229 0.021229152333842923 0.012324123599263138 0.24787574916422755 0.31522109833973339 0.91607492714175132
0.26677814563697855 -0.11974817676675321 0.029237179133723652 0.34137589268975421 0.023183089834565327 -0.93964091238940617
0.37422680588751794 -0.0072544688900289906 0.035409288419562986 -0.1036226823526151 0.26981610347044188 0.95732001442050552
0.38845897404079804 -0.24956429825543439 0.028646299447734159 -0.035046627268428693 -0.34437707238107645 0.9381770440249253
0.4914356420476142 -0.19262345276357168 0.036480567900242448 0.15144296507030011 -0.25154047592231282 0.95592490149775478
0.41990521216485627 -0.20737492645421279 0.041808618751040041 -0.036380961423286062 0.20304406352999824 -0.97849350223245912
0.40952665004679345 0.072452555776533201 0.0069620093915752149 -0.023106108311017247 0.38559168979256181 0.9223801583520953
0.36022082872396527 -0.031900997013419273 0.040439241472936295 0.12878408137358863 -0.19228515351817191 -0.97285203403254183
0.41045504451758391 0.071075957523268882 0.007630011560498735 -0.022092277649147604 0.38673903934273784 0.92192453417648512
0.35579369122722831 -0.31194369966674818 0.0038733597379581111 0.072145388786868214 0.42902294173884908 0.90040788442712771
0.23196317310220346 -0.17541980820922684 0.0080124697610336748 0.35636576145667725 0.12849685973076863 -0.92546853058368972
0.32050301250680996 -0.27227333154567912 0.0088084086545563624 -0.15418854480819699 -0.3165997263646142 0.93594364462599033
0.28744792274976072 -0.23622603248320795 0.013846195387405658 0.25404922063723162 0.26461351782257231 -0.93028956765040549
0.29042062618607339 -0.2391881866707769 0.013393629870588125 -0.23345960134372606 -0.28387966984550533 0.93000481051919059
0.53103171334361432 0.025532061578085186 0.012047235930090973 -0.25398539288249311 -0.3054202013708186 -0.91771995771963799
0.40637762667628813 0.072139929255048141 0.007039789362168601 -0.028691332896948307 0.38613003203944352 0.9219980508514185
0.51648154917090094 -0.18954740289529748 0.033928653501886362 -0.23632233403033873 0.18675410740206952 -0.95355894301658628
0.49141625869465755 -0.19553389989350137 0.035622990409113625 0.15250617476127543 -0.25670307591090646 0.95438220723018652
0.35926068127142341 -0.032644828880646216 0.040501821929662486 0.13012913075660237 -0.18926929584689814 -0.97326437465785742
0.40508368529452371 -0.023579291319196241 0.042622414074856285 0.043971013672767262 -0.19368444346561228 -0.98007800011836066
0.32140563463014049 -0.27315366644838535 0.0086438913112853542 -0.15192693130205798 -0.31686385680364221 0.93622406708899586
0.4037275099886028 -0.021864174325772371 0.042192900421521892 0.048747490806881823 -0.19998171562884964 -0.97858622285119823
0.32410911674052278 -0.27553684264748268 0.0070653405242315339 0.14481132199976618 0.24746321983943032 -0.95801442361134725
0.26928790614274739 -0.1197488170194296 0.030192024522978513 0.33561697188372963 0.022094892088739174 -0.9417393821685397
0.39134860012721923 -0.24964569357327823 0.028700376560260664 -0.028045080932049701 -0.34472138545467895 0.93828601175000015
0.39008584367122973 -0.24833470835053173 0.029160880396930083 -0.03064860209968558 -0.34108994360060096 0.93953090080309443
0.48964601860150586 -0.19664356072581574 0.035595247441740488 0.15117259387238308 -0.25731148670779574 0.95443053475364015
0.35848975791367399 -0.035103430709488133 0.040264293251274438 -0.11147184761001779 0.21471951231985759 0.97029354229507858
0.32555384124443026 -0.27695895995863834 0.0067816263495845148 0.13911537314368591 0.24311919374366969 -0.95996873417237971
0.44151076100926095 -0.28552331420032523 0.011571725628825538 -0.063067103060545734 0.38679529217190167 -0.92000649044732496
0.36177263730178583 -0.039939720813615173 0.042251415997448034 0.1204292778628142 -0.17023223601134904 -0.97801726715637149
0.39766817694422246 0.072801836884277021 0.0064817318630301232 -0.046878037613619694 0.38752863488651701 0.9206649807245243
0.40064379080228635 0.070856021989204473 0.0077834275033280718 0.068766982286019754 -0.37348453896049544 -0.92508399689149334
0.48708364356884148 -0.19656831769100599 0.036652056836177074 -0.15201782547274867 0.21801107332900349 -0.96403410346547014
0.45555870073810101 -0.28314732278005816 0.011489269483047314 -0.086082036080617486 0.37680361335574597 -0.92228461985781196
0.27197103459027921 -0.22405682332217924 0.013025232687309042 0.28806442436164426 0.2364213504373599 -0.92796758158600012
0.35691858753774314 -0.036568489701264126 0.040414449840331178 -0.11270468347732786 0.21185962777369161 0.97077966214886691
0.35791443817299351 -0.038196475133312507 0.040885413443918377 -0.11100157272433242 0.20713148111934998 0.97199547343700587
0.39164075909773088 -0.24727222021904244 0.029600031177556191 -0.027631173719417982 -0.33852478652035045 0.94055169297080021
0.24193176097247501 -0.041205576176357533 0.013395494867844401 -0.31675691094337843 0.16785278047991747 0.93353655710677408
0.23981502690991552 -0.038572072828563238 0.011865682315312933 -0.31468954492523055 0.17031683818804449 0.93378941145441285
0.23881968170380485 -0.037140641627352193 0.011120209278103449 -0.31283139264655985 0.1717929464762229 0.93414329913339922
0.48418305818098456 -0.19609563882816852 0.037253929406597865 -0.14585706468857881 0.21399656043961357 -0.96588363108629527
0.42468309322004433 0.046410149122542807 0.020077007639631692 -0.0063120245354668552 -0.36721960268209186 -0.93011285430977153
0.54486757749602721 0.011288556371524169 0.012787634405965477 0.27242234967511403 0.30190506165371384 0.91358600971411408
0.48770485012334469 -0.20045725542271231 0.034836153610726429 0.15089983671165283 -0.26135973167307974 0.95337313258774625
0.35512338373249247 -0.037775125802155779 0.04047469528833398 -0.11479926561677349 0.21051332178746712 0.97082710611305856
0.3839131228598891 -0.2214065209847354 0.037800638176459317 -0.041911082081374229 -0.27411427158550533 0.9607834445450838
0.36115705050143493 -0.0098918613848404877 0.034038652684332774 -0.12141990319104558 0.27227449281807903 0.95452805494114989
0.24105837455093471 -0.037442617176940446 0.012042625528581777 -0.31081713407776351 0.17628927827951416 0.93397794381204402
0.46748421296208181 -0.27830479277139225 0.011507545791660334 0.095973396012991721 -0.37409387224493046 0.92241144941209785
0.4813394015567608 -0.19596650100638016 0.03724718002142665 0.14260847791824746 -0.24993386287423427 0.9577034437729689
0.3605132813853254 -0.015627611797712323 0.035551908267388729 -0.11876683037018761 0.25839125820078085 0.95871184288566935
0.37110431305817443 0.026117352134378345 0.023972205969046357 -0.12036348690078308 0.34490016794797651 0.9308901681565569
0.48480311907006607 -0.20046022674256475 0.035972576349593249 -0.15202260555144326 0.22558552057041881 -0.96228909393712003
0.40863310522093282 -0.018470301279005334 0.041754566099571552 0.036886316728786256 -0.20962054791550899 -0.97708680552435334
0.35250125185700365 -0.038035591679697146 0.040221116537151928 -0.11820707889220305 0.21181367426299552 0.97013506992324638
0.35356306985209723 -0.03903183964206796 0.040566118632158081 -0.11670073335363029 0.20846038003418244 0.97104336092201826
0.3747936685345748 0.067666269817454716 0.006866024459109 -0.099639002598809812 0.38692362495924248 0.91671270178257802
0.35596640960573872 -0.0421025693036262 0.041490175813537734 -0.11228575212485707 0.20019792873805181 0.97329990198229699
0.37070166264610915 0.068558377506107465 0.0059193658405903996 -0.10954537723055831 0.38622029089407284 0.91587864765432347
0.34892479362506024 -0.023538577869335397 0.036110543959066474 -0.12814172965330423 0.25223727873980872 0.95914339508511215
0.54917701758391568 -0.19956328080354616 0.022886950410529447 0.22877168299979719 -0.2512397824057343 0.94050097756151196
0.51336902215946567 -0.034223679740730754 0.034851071797205715 -0.23437354139426403 -0.1866180640860971 -0.95406642391977536
0.2564111642464092 -0.019082693180909549 0.011466913151632995 -0.28046986428442122 0.23835571278041942 0.92979740234806874
0.48202595428317746 -0.20003010541814423 0.035991993703700327 0.14499434616282053 -0.25773260035187451 0.95527511550164279
0.50229597254515623 -0.023008271534856101 0.034967499718894159 -0.20451048062545094 -0.21796331967818722 -0.95428897855377726
0.48454694301339862 -0.20297617624477229 0.03471098704247199 0.14841181417883836 -0.26335294940596804 0.95321516849624444
0.35121386281500205 -0.039021724228461438 0.040284732753291412 -0.11979270195260541 0.21004954812779658 0.97032411898818771
0.51526578232806275 -0.038490475907929901 0.035455531037862857 0.2212688081982091 0.1944769432632367 0.95562483907521567
0.42105035060501766 -0.02105152142584862 0.042612744514086885 0.0056658532862201121 -0.19891355898688742 -0.98000066028432309
0.41973821467378702 -0.019360138668459384 0.042246971682033729 0.0076593367029030735 -0.20429841029601145 -0.9788786922350462
0.51552566797312915 -0.13570408463321945 0.042095056219941841 0.20787989426630921 -0.075772148927957278 0.97521512037430369
0.42389135365457742 -0.021443019085652971 0.042578479791708264 -0.0016689962231308442 0.21967319145976419 0.9755720903170042
0.49810260834052134 -0.02110516198161163 0.035386825630611532 -0.19471776523383064 -0.22339107426097127 -0.95508189169456659
0.4792799341011264 -0.19975073609236238 0.037090440476504533 -0.14146209058680606 0.21874020852693604 -0.96547459733563301
0.47524352266075537 0.038156156221635207 0.019318576513507893 -0.13917802052026823 -0.35554149542633678 -0.92424007900223837
0.48165751144538854 -0.2027404794027528 0.035312616171632401 0.14543948911538657 -0.26156916583575285 0.95416399349893932
0.51714405950757159 -0.044425284289366825 0.035884843276769884 -0.24161383624365901 -0.16299173198651712 -0.95658582962516114
0.36235501444795948 0.024384814493168785 0.022988721704843756 -0.13524791668181257 0.34277597203853327 0.92963037494816625
0.33843541546224953 0.058399924521995494 0.0042531356312673317 -0.16100978454280565 0.37865714474672202 0.9114244982519063
0.35154228893236339 -0.043098121231000777 0.041646319666309481 0.14256017552927383 -0.16200807432693221 -0.97643739185159328
0.27395506738969422 0.0042612443583728218 0.0092323657105438037 0.34381122680313297 -0.23358924699535141 -0.90952179963553892
0.43467043461343863 -0.024902740261904536 0.043224022866894751 0.025585820516561247 0.20755364258873768 0.97788897694812005
0.27124031389949438 -0.10685217052648267 0.031391679694766361 -0.31774105212146991 0.017508125068122733 0.94801586977926711
0.26815405570463541 -0.10234696080576254 0.030179991941794899 -0.32159347786125958 0.028866627073656254 0.94643771735835325
0.27739773013344649 0.0074936047929278059 0.0095689690377959158 0.33892296954622975 -0.23423087220624247 -0.91118994683845589
0.48012254215980499 -0.20409824002107804 0.035248029296983417 0.14354279003414583 -0.26270297583793695 0.95413972452419438
0.30840772673151118 0.028357863846916992 0.011169766911250484 -0.17201910184175712 0.36172666281000776 0.91627684136067211
0.34862598307776876 -0.042538750763700076 0.040719741649961172 -0.12320365061376724 0.20383025873872923 0.97122298474549273
0.51702721234130555 -0.047420470171647799 0.03646255946084042 -0.24090556304109478 -0.15702277361447142 -0.95776216163631744
0.51690485766750627 -0.12466143195988241 0.042203172862681305 0.2094443992388425 -0.041820746729388944 0.97692582562366348
0.3319777949317898 0.053553025954339417 0.0047975960979752298 -0.16515469582670331 0.37802379142691556 0.91094562931143641
0.32903889398488889 0.05367837776550554 0.004104958335168757 -0.165949669780214 0.37848741930302782 0.91060857701274256
0.47753316909226584 -0.20384810905948225 0.036301929933371793 -0.143586767406504 0.22794214674352975 -0.9630291885315323
0.52944964445635989 -0.062934170034650364 0.03567800740534411 -0.26731446401071163 -0.12111021526471855 -0.95596824899637722
0.48021034911052446 -0.20695588103558041 0.035021599812352269 -0.15066193307820105 0.2362247482736069 -0.95994731637950359
0.27258479716132111 -0.10554268587151067 0.031937678719327053 -0.3129577135060746 0.022750206167163708 0.94949454852379278
0.48413307901488867 -0.0090934245350485655 0.034870195547871366 -0.1585863849617459 -0.24756617368479877 -0.95580403229523625
0.34838477680840313 -0.045844548014919557 0.041350903372541443 -0.12321367690272286 0.19612671966951351 0.97280660958681164
0.35213616157576078 0.02098260575475917 0.022713180472051925 0.17007908927879301 -0.31780318887851461 -0.93277769941650268
0.54297730554209334 -0.21743018096345682 0.018009017310230968 0.18854150716164267 -0.29006401642900081 0.93825101462790472
0.27118604490718357 -0.10392675693852245 0.03136920298142188 -0.31612472578736434 0.025690435529958967 0.94836973763830357
0.47742982939382378 -0.20633279418280293 0.035662093548579937 -0.14589081535077214 0.2331272969853713 -0.9614403431292976
0.43688962461599196 -0.021170110783834593 0.042501831569615095 -0.027401822396753182 -0.2048024084779427 -0.97841970217845198
0.34464838347459076 -0.043807507813453418 0.040469090560763747 -0.12931627726755415 0.20179194011656873 0.97085390936929961
0.53431633019675573 -0.071787902851914831 0.035368298106729354 -0.27992467996812487 -0.099310032163742359 -0.95487155736066365
0.315950497318298 0.031752933406596344 0.011017269724915842 -0.16629326285064747 0.36751820355170461 0.91502837157577432
0.51629217773677472 -0.11741680343218551 0.042300104589653893 -0.22383209416807803 0.0026278501935570646 -0.97462417783661248
0.34863881867674235 -0.050006614349845026 0.042392731848487387 0.14363256270266789 -0.14554706184786856 -0.97886962345294837
0.54067444742190363 -0.081540324420001462 0.03436335810263777 -0.29496001829270363 -0.0781119430565793 -0.95231145743432788
0.47425347238330806 -0.20632372277457942 0.035774716108810056 0.13644256444543754 -0.26378788855938912 0.95488186518382057
0.4408002041998762 -0.023173035900945913 0.042672022606211071 0.040725783200934979 0.21228282612052052 0.97635926395817807
0.40998662663334623 -0.24840358899860157 0.029057359204887809 0.016026193690674196 -0.34539915336599364 0.93831902142599866
0.34370089845542245 -0.046203525028303466 0.041028587339772944 0.15977365811587296 -0.15638261698650832 -0.97468808101706217
0.46582619347274457 0.045122850043687844 0.017420864600281936 0.098309371823493433 0.37502542647951076 0.92178695852432802
0.53867875400821785 -0.22090778524391913 0.017619849060934001 0.18353222313399317 -0.29147156450843481 0.93880788777816493
0.51797983706117412 -0.11304120486609157 0.041947571008782727 -0.23051591308879757 -0.0068405872552901618 -0.97304451089291932
0.29843154944341599 -0.12262521264726342 0.039889215700591556 0.26547084383711989 0.021931431487754484 -0.96386941199796639
0.51847969601874411 -0.11023834117501054 0.041812277708551795 -0.23259850066604471 -0.012611896201641302 -0.97249106811430774
0.29724842929005707 -0.12112674225792816 0.039851616550444599 -0.24713556392667829 -0.013346554543498451 0.96888899391233674
0.45055675246158255 -0.025416087379135522 0.042923750457582358 -0.061480037215816276 -0.20248362220252186 -0.97735387028634013
0.34327382261390571 -0.049056048638603633 0.041428219625091516 0.15803383708918625 -0.15084523463181443 -0.97584374851906552
0.34154710518204967 0.015357977019816029 0.022214110386390745 -0.15018355662845057 0.33472529254535072 0.93027086262489067
0.34601073557830436 -0.052597844009388002 0.042240358252939446 -0.12635795865946067 0.17865815645088831 0.97576376721877922
0.27067512620572981 0.011103557285823693 0.0068914745395239167 -0.27544444032964838 0.26647151844758782 0.92364673449740708
0.27196917099254103 0.010368682457870329 0.0064729546299331009 0.33542335728771516 -0.22910548895009195 -0.91378435438498129
0.4699366869945521 -0.20719918927308123 0.036649435311057882 -0.13354419477039853 0.2312982650045381 -0.96367373143041324
0.47150160640845984 -0.20897004963564741 0.035616729513957703 0.13198608209075444 -0.26636958295202479 0.95479155809647631
0.34083520319019495 -0.049168468955703849 0.041045002954006413 0.1629440254072366 -0.15132638776297441 -0.97496131664322749
0.2246874305544547 -0.25870385586439587 -0.00043126265415892979 0.0056838007814435506 0.055273016235943336 -0.99845510068548293
0.415600514983888 -0.21397675391146764 0.039784802410679637 0.02237836391450472 -0.2558749768949094 0.96645082907902746
0.3444418625578537 -0.053840740682606705 0.042236739704718931 -0.12991973104495017 0.1777789814385474 0.97545655835812617
0.33659664527918942 0.01154091787483223 0.022746175351171915 -0.15119008676706594 0.33043153336491693 0.93164186220965661
0.51909844401437821 -0.10458899308991698 0.041794947899549864 0.21043690748892749 0.015018243530753695 0.977492076861878
0.28076146118584328 -0.27756878401144219 -0.00037423610323314795 -0.083102179135487939 -0.090211949140458256 0.99244941032538914
0.46980508964851903 -0.20987095957065646 0.035977779041679356 -0.13521750616086328 0.23709534440104904 -0.96203015737085129
0.33435518113852336 0.011619191939620386 0.022342304218435326 -0.15235489071244365 0.33186971215623889 0.93094064334378201
0.45743880856073738 -0.027861002180150144 0.042611960179610664 0.074853084678319123 0.19798016264551441 0.97734378338074879
