0.242191 0.365399 0.00930756
0.181994 0.392122 3.95033e-05
0.40446 0.102528 -0.0033189
0.411614 0.270366 0.00373221
0.405469 0.184725 0.00160927
0.405177 0.18288 0.00149096
0.178271 0.390107 0.000193038
0.399799 0.0937573 -0.00272942
0.41048 0.275262 0.00399991
0.40484 0.200876 0.00256599
0.170046 0.390331 -0.000779767
0.170278 0.407542 -0.00111648
0.402405 0.160822 0.000635448
0.166605 0.391348 -0.00157433
0.166397 0.407445 -0.00032766
0.163894 0.389562 -0.00109064
0.402106 0.157168 0.0003662
0.226281 0.355736 0.0125716
0.401705 0.153107 -2.4149e-06
0.401524 0.150996 -0.000232321
0.157778 0.404694 -0.0013184
0.400581 0.0960651 -0.00431843
0.4036 0.216795 0.00298678
0.403474 0.214651 0.0030129
0.403451 0.20481 0.00325159
0.403001 0.200954 0.00346645
0.400555 0.15663 0.000931044
0.400371 0.153207 0.000520042
0.400051 0.148971 -4.10832e-05
0.397296 0.0901249 -0.00356941
0.408182 0.281837 0.0053572
0.138719 0.378711 -0.00239862
0.402015 0.212988 0.00367406
0.230247 0.356501 0.0123144
0.13432 0.37866 -0.00352418
0.133958 0.376881 -0.00285741
0.134909 0.398093 -0.00213041
0.132859 0.39733 -0.0024558
0.131309 0.396808 -0.00227909
0.128586 0.39552 -0.00240587
0.125352 0.371993 -0.00337062
0.125397 0.370146 -0.00280037
0.126191 0.394226 -0.00287516
0.396196 0.0882603 -0.00349253
0.122116 0.392164 -0.00228609
0.121316 0.391466 -0.0030478
0.401423 0.289463 0.00487537
0.400429 0.234124 0.00369674
0.400387 0.228713 0.00459059
0.395575 0.144971 0.00101362
0.117974 0.38961 -0.0026779
0.116009 0.369131 -0.00467152
0.395271 0.14138 0.000755769
0.399511 0.292797 0.0039421
0.114411 0.38807 -0.00222071
0.111221 0.358704 -0.0029937
0.238094 0.355454 0.012561
0.397169 0.251031 0.00449857
0.397141 0.249334 0.00458449
0.395733 0.256669 0.00461021
0.395944 0.255222 0.00469203
0.38786 0.116301 -0.00218942
0.240043 0.355572 0.0126064
0.394358 0.255406 0.00523344
0.383954 0.115758 -0.0009501
0.381882 0.0675052 -0.00451338
0.394744 0.306641 0.00660713
0.395003 0.3048 0.00690735
0.0891315 0.340609 -0.00461528
0.390305 0.261529 0.00584552
0.0873037 0.34264 -0.00577388
0.087212 0.340657 -0.00524774
0.0865878 0.337327 -0.00452675
0.390313 0.257529 0.00629453
0.0835653 0.339423 -0.00602106
0.0848533 0.369364 -0.00404919
0.0821962 0.339748 -0.00656566
0.0782184 0.332192 -0.00620364
0.388521 0.261548 0.00636152
0.0760478 0.323804 -0.00524717
0.0749892 0.326283 -0.00607231
0.074755 0.324527 -0.00584249
0.074365 0.320949 -0.00541834
0.378983 0.102672 -0.00297352
0.378455 0.0635809 -0.0054643
0.072539 0.320378 -0.0060523
0.0719975 0.318608 -0.00604121
0.0712267 0.314898 -0.00565767
0.383213 0.273796 0.00658157
0.0702664 0.31679 -0.00650796
0.0697411 0.314821 -0.00638954
0.0689692 0.311718 -0.0057853
0.372939 0.09678 -0.00272599
0.372611 0.0948482 -0.00324437
0.371494 0.0919857 -0.00364491
0.371386 0.0911814 -0.00384542
0.381557 0.280019 0.00627566
0.370612 0.0968512 -0.00198324
0.370817 0.0946297 -0.00271841
0.379694 0.286109 0.00573394
0.37949 0.282121 0.00653625
0.36834 0.0891986 -0.00345996
0.367887 0.0878649 -0.0037416
0.365553 0.0850281 -0.00399376
0.219689 0.066224 0.00687429
0.379211 0.325323 0.00809547
0.364343 0.0869244 -0.00301092
0.364046 0.0853323 -0.00341702
0.363549 0.0818287 -0.00430894
0.374229 0.292545 0.00623969
0.374016 0.290662 0.00682717
0.221718 0.0655521 0.0065267
0.36123 0.0780542 -0.00458545
0.256876 0.345795 0.0157135
0.356502 0.0720418 -0.00510894
0.368626 0.298863 0.00665857
0.0564197 0.293008 -0.00726622
0.352072 0.0683575 -0.00530964
0.364433 0.306952 0.00639045
0.363062 0.308557 0.00643616
0.0540725 0.288491 -0.00749073
0.0537541 0.286797 -0.00737967
0.349087 0.0681471 -0.00467867
0.0517951 0.283069 -0.00810167
0.359084 0.311438 0.00685976
0.225901 0.0654787 0.00648656
0.344619 0.0658817 -0.00460729
0.0503757 0.282903 -0.00893053
0.0495371 0.279605 -0.0089633
0.34296 0.0660974 -0.00403262
0.353091 0.319136 0.00652176
0.353354 0.317742 0.00679232
0.0480373 0.27946 -0.00972518
0.0453938 0.268139 -0.00870013
0.349616 0.321304 0.00678548
0.0438506 0.267982 -0.00929558
0.0421636 0.255855 -0.00950795
0.0417832 0.254167 -0.00965488
0.0416811 0.252409 -0.00958825
0.331804 0.0529429 -0.00612951
0.345761 0.323978 0.00697817
0.330169 0.05319 -0.00552855
0.343547 0.326027 0.00694294
0.327435 0.0492893 -0.00615829
0.340057 0.330231 0.00687928
0.34031 0.326611 0.00775186
0.0374401 0.232812 -0.0108874
0.0359923 0.228625 -0.01113
0.323902 0.0496298 -0.00505946
0.32374 0.0458773 -0.00613843
0.323505 0.044196 -0.0067016
0.321569 0.0456044 -0.00573072
0.321574 0.0436345 -0.00651371
0.319332 0.0436654 -0.00606408
0.317652 0.043775 -0.00574674
0.317545 0.041922 -0.00643216
0.323146 0.341479 0.00718509
0.302671 0.00608104 -0.00871786
0.0801222 0.1901 0.00748825
0.302998 0.0350642 -0.00735001
0.30286 0.00653767 -0.00941878
0.299955 0.00547782 -0.00947862
0.299259 0.0347368 -0.00654474
0.290156 0.394873 0.00559533
0.305594 0.348589 0.00798903
0.272801 0.342165 0.0156422
0.301103 0.353901 0.00692853
0.239589 0.06536 0.00633032
0.301499 0.352481 0.00737322
0.299868 0.353983 0.00720834
0.0901806 0.26712 0.0106183
0.0906706 0.268879 0.0106203
0.0805812 0.178044 0.00649229
0.29584 0.355634 0.00790515
0.278041 0.399184 0.00475079
0.27669 0.0297905 -0.00672183
0.276284 0.0247875 -0.00866469
0.274573 0.0249103 -0.00875194
0.272564 0.0265136 -0.00819272
0.0921305 0.268857 0.0111029
0.269663 0.0218676 -0.00923411
0.268327 0.021141 -0.00941275
0.0828239 0.181464 0.00768357
0.082962 0.183472 0.00792513
0.264126 0.0220868 -0.0090805
0.095766 0.278473 0.0113716
0.0963616 0.282195 0.011116
0.25629 0.406483 0.0043506
0.242131 0.0187066 -0.00969124
0.250701 0.407626 0.00472971
0.249 0.407891 0.00465525
0.233966 0.0195635 -0.00976684
0.248496 0.0661482 0.00701837
0.2319 0.0207702 -0.00893309
0.232256 0.01929 -0.00968438
0.244993 0.408451 0.00428718
0.0982005 0.283985 0.0115959
0.0987049 0.285811 0.0114962
0.243015 0.408696 0.00450369
0.22993 0.0189665 -0.00952909
0.250714 0.0656077 0.00658456
0.239131 0.408723 0.00286954
0.0991148 0.278025 0.0125704
0.235393 0.409506 0.00338363
0.100437 0.287855 0.0118618
0.224032 0.0234203 -0.00865007
0.229368 0.410114 0.00323153
0.086442 0.159145 0.00577254
0.227636 0.410536 0.0032874
0.225197 0.410779 0.00271103
0.22324 0.410923 0.00253331
0.153666 0.248249 0.0291838
0.218959 0.411618 0.00342019
0.102464 0.287609 0.0127094
0.213089 0.41153 0.00315966
0.212988 0.411302 0.0023782
0.0881841 0.15866 0.00637927
0.481857 0.210577 0.00176577
0.479496 0.206361 0.00116237
0.202741 0.393009 -0.00113398
0.467232 0.189017 0.000360792
0.427016 0.181584 -0.000259941
0.427193 0.179189 -0.00111371
0.426223 0.213387 0.000738796
0.150435 0.23831 0.0285322
0.188959 0.394367 0.000767991
0.424779 0.195094 1.76601e-05
0.150211 0.236338 0.0284814
0.184756 0.390768 0.00134976
0.182379 0.390288 0.00095302
0.14969 0.232429 0.028349
0.149442 0.23047 0.0282816
0.169675 0.387919 0.000410043
0.167284 0.385583 0.0012945
0.161953 0.387321 -0.000403183
0.424277 0.199862 -0.000160056
0.424442 0.198206 -0.000287481
0.421887 0.240688 0.00120951
0.422595 0.223606 0.00162011
0.418792 0.24535 0.00240148
0.413971 0.129961 -0.00353508
0.229378 0.365216 0.00928768
0.413849 0.128256 -0.00329141
0.148437 0.234991 0.0281825
0.141756 0.373759 7.32874e-05
0.227202 0.365534 0.00910025
0.141138 0.372463 0.000374206
0.410328 0.114276 -0.00348482
0.14002 0.374202 -0.000409923
0.410142 0.112283 -0.00306787
0.135359 0.37105 -0.000461293
0.408148 0.112319 -0.00375898
0.133332 0.369151 -0.000376865
0.223414 0.366013 0.00894389
0.13263 0.367468 1.98033e-05
0.407983 0.110477 -0.00325892
0.131485 0.369305 -0.000997087
0.129133 0.367855 -0.00122628
0.409975 0.200234 8.37777e-05
0.409748 0.198516 0.000118569
0.409795 0.1968 -3.24297e-05
0.40969 0.194224 -5.23407e-05
0.409628 0.192506 -5.2267e-05
0.409139 0.184353 -8.48129e-05
0.1258 0.362311 -0.00014856
0.409006 0.182644 -0.000236154
0.408885 0.178345 -0.000551511
0.213575 0.365303 0.00920852
0.407105 0.112079 -0.00434775
0.406615 0.110305 -0.00407536
0.408411 0.194718 0.000668715
0.113252 0.355688 -0.00165736
0.407528 0.182737 0.000467925
0.407348 0.178451 0.000222645
0.110797 0.352745 -0.0014463
0.290206 0.343671 0.0123801
0.407298 0.176739 0.000337222
0.407205 0.168342 -4.51558e-05
0.110301 0.357825 -0.00291361
0.252052 0.0647352 0.00292896
0.405744 0.156601 -0.00155128
0.40317 0.101472 -0.0050421
0.105567 0.347017 -0.00159357
0.407559 0.216721 0.00119513
0.104082 0.346458 -0.00182605
0.100028 0.346803 -0.00275823
0.0994178 0.343471 -0.00204189
0.0983339 0.347056 -0.00322631
0.0978073 0.343617 -0.00245208
0.146483 0.222901 0.0277042
0.405964 0.229782 0.00202265
0.0931041 0.340164 -0.00306886
0.406049 0.216744 0.00194634
0.406082 0.214617 0.00181536
0.402835 0.156444 -3.54881e-05
0.0890632 0.336382 -0.00332293
0.399566 0.0943064 -0.00427156
0.0864843 0.332883 -0.00337021
0.398275 0.0915294 -0.00297927
0.0838898 0.33107 -0.00387646
0.0818557 0.327303 -0.00365937
0.40294 0.238974 0.00212601
0.0784151 0.321711 -0.00390679
0.402852 0.234974 0.00254013
0.402648 0.23279 0.00298899
0.400797 0.250611 0.00283169
0.40108 0.235164 0.00325086
0.39457 0.130852 -0.00253361
0.0743077 0.318053 -0.00485261
0.0737766 0.314755 -0.00413425
0.399535 0.257193 0.00271708
0.0523709 0.14797 -0.0122151
0.39958 0.251066 0.00339359
0.0708878 0.312201 -0.00485108
0.0505526 0.153893 -0.0120951
0.0676501 0.302997 -0.00428805
0.0492705 0.156025 -0.0123142
0.398141 0.257166 0.00347017
0.389167 0.0788289 -0.00635029
0.388211 0.0769372 -0.00547161
0.0475512 0.156607 -0.0131207
0.394235 0.26955 0.00318292
0.0464396 0.170493 -0.0107666
0.27404 0.353249 0.0122727
0.0463482 0.169234 -0.0109879
0.385097 0.105804 -0.00423083
0.0467209 0.160958 -0.0123563
0.383871 0.0715819 -0.00641761
0.0603337 0.29194 -0.00510711
0.383084 0.102587 -0.00450531
0.059011 0.294102 -0.00622687
0.0587666 0.292045 -0.00593665
0.0586812 0.290218 -0.0056594
0.382107 0.0691446 -0.00661866
0.392668 0.305818 0.00402525
0.0571011 0.292213 -0.00680352
0.0566231 0.28837 -0.00629639
0.0562386 0.286348 -0.00605874
0.381263 0.104287 -0.0033364
0.38139 0.102121 -0.0040462
0.379608 0.065753 -0.00673966
0.389365 0.312657 0.00658093
0.0538099 0.282906 -0.0068839
0.26992 0.352187 0.0125402
0.37837 0.0969176 -0.00482268
0.378065 0.0637854 -0.00657783
0.376762 0.0620444 -0.0063395
0.387325 0.283321 0.00356677
0.376644 0.0943075 -0.00496804
0.375959 0.0909124 -0.00554421
0.375235 0.0601483 -0.00668891
0.374945 0.094439 -0.00420146
0.268178 0.352258 0.0124853
0.0493992 0.267159 -0.00687358
0.374124 0.0591408 -0.00738211
0.386173 0.316089 0.00466557
0.383188 0.287775 0.00380471
0.372417 0.0573473 -0.00793108
0.384501 0.31841 0.00441994
0.0471783 0.263296 -0.00711142
0.0468518 0.261167 -0.00708986
0.0464782 0.258167 -0.00725151
0.0460815 0.254735 -0.00749794
0.381741 0.289731 0.00392225
0.0407806 0.215289 -0.00887958
0.0405765 0.214 -0.00906339
0.263915 0.353188 0.0126099
0.369971 0.0850129 -0.00533649
0.369395 0.0537372 -0.00744288
0.0440993 0.253781 -0.00841453
0.379814 0.292058 0.00422297
0.368324 0.084908 -0.00490926
0.0393888 0.216023 -0.00972234
0.0391711 0.214183 -0.00991754
0.381272 0.323269 0.00543551
0.37781 0.295999 0.0041581
0.365132 0.0779785 -0.00601512
0.365385 0.0503961 -0.00769087
0.041097 0.240205 -0.00976131
0.376232 0.297843 0.00431654
0.259943 0.355761 0.0122955
0.0385302 0.230028 -0.00997432
0.363441 0.0753385 -0.00622514
0.372103 0.303932 0.00433982
0.223284 0.0593709 0.00381851
0.359118 0.0715967 -0.00603056
0.298724 0.388348 0.00647395
0.258083 0.356128 0.0123226
0.36917 0.306994 0.00467342
0.296517 0.391092 0.00703455
0.107852 0.297013 0.0128312
0.108342 0.299181 0.0125104
0.108898 0.300392 0.0124516
0.355257 0.0680893 -0.00637673
0.252074 0.037795 -0.0106525
0.251171 0.0389108 -0.00934717
0.250653 0.037662 -0.00932934
0.366447 0.310235 0.00486147
0.248538 0.0368566 -0.0105372
0.110188 0.3006 0.012808
0.218412 0.0582619 0.00351299
0.245723 0.0358115 -0.0106891
0.0931071 0.144296 0.00465489
0.254424 0.356593 0.0125293
0.0927626 0.145895 0.0050032
0.353843 0.0690479 -0.00553683
0.0929672 0.150162 0.00616211
0.352882 0.0659731 -0.00658605
0.239712 0.0368003 -0.00908237
0.365253 0.312495 0.00469759
0.364958 0.308734 0.00578336
0.350766 0.0660516 -0.00593053
0.252383 0.356615 0.0125367
0.0947497 0.142605 0.00476978
0.236475 0.0356522 -0.00992823
0.0942762 0.149711 0.00659328
0.214636 0.0584686 0.00355636
0.234216 0.0358798 -0.00938004
0.350543 0.0624158 -0.00722921
0.350171 0.0609538 -0.00764445
0.349771 0.0350254 -0.00933057
0.232466 0.0359386 -0.0102246
0.229742 0.0349306 -0.0110499
0.0959863 0.141797 0.00502075
0.117072 0.307991 0.0132057
0.0981108 0.135931 0.0044601
0.0977352 0.145022 0.00677081
0.266486 0.404221 0.00596965
0.248518 0.356657 0.0124923
0.0998354 0.139216 0.0059562
0.220243 0.0334129 -0.00974358
0.348184 0.0586686 -0.00785449
0.210971 0.0589621 0.00331992
0.216197 0.0356643 -0.00963635
0.26086 0.405906 0.00480216
0.123879 0.312963 0.0141651
0.125216 0.317124 0.0136617
0.362927 0.34296 0.00606409
0.364292 0.341755 0.00597849
0.361696 0.315394 0.00505239
0.252999 0.407518 0.00535243
0.126433 0.316919 0.0140452
0.127276 0.319752 0.0136592
0.361541 0.311756 0.00609608
0.346492 0.0583051 -0.00764082
0.206725 0.0594466 0.00330273
0.203773 0.0340933 -0.0101767
0.361467 0.344439 0.00626548
0.344275 0.0565916 -0.00762754
0.132844 0.316903 0.0155997
0.355179 0.323022 0.00495209
0.355925 0.321587 0.00518787
0.355719 0.317976 0.00613995
0.204619 0.0599647 0.00326362
0.23932 0.409877 0.00509183
0.356392 0.349364 0.00589475
0.136965 0.329275 0.013889
0.237238 0.410494 0.00515462
0.111665 0.121263 0.00516025
0.235302 0.410603 0.00484577
0.137124 0.321532 0.0156153
0.187672 0.0379671 -0.0115702
0.337358 0.0259088 -0.00842264
0.233354 0.410532 0.00433962
0.354101 0.351425 0.0057093
0.352003 0.32153 0.00616706
0.186022 0.0379344 -0.011917
0.333769 0.0491207 -0.00821327
0.333037 0.0472919 -0.00852937
0.182307 0.0386646 -0.0124385
0.227129 0.411005 0.00420365
0.140187 0.329359 0.0145916
0.236252 0.356646 0.0121892
0.331291 0.045586 -0.00837945
0.331074 0.0435632 -0.00881686
0.22314 0.41163 0.00508594
0.330336 0.0507945 -0.00657255
0.142225 0.329044 0.014981
0.173975 0.0414329 -0.0124327
0.143061 0.331902 0.0144311
0.19614 0.061307 0.00288776
0.116959 0.116892 0.00524581
0.172275 0.0415756 -0.0126172
0.32774 0.0400917 -0.00946565
0.342249 0.33077 0.00610582
0.342258 0.328742 0.00659153
0.118985 0.11103 0.00412629
0.323245 0.0399168 -0.00862362
0.145908 0.328414 0.0157219
0.320508 0.0410004 -0.00743716
0.203829 0.388551 0.000436763
0.203812 0.386997 0.00152012
0.159853 0.0466276 -0.0123656
0.337441 0.365384 0.00768214
0.201626 0.387626 0.00220283
0.319054 0.0377249 -0.00876473
0.316631 0.013715 -0.0100929
0.197877 0.387178 0.00359741
0.334962 0.367272 0.00672517
0.222295 0.356511 0.0122296
0.3142 0.011986 -0.0101331
0.333454 0.368197 0.00587929
0.195689 0.387119 0.00401612
0.32712 0.34316 0.00563424
0.308511 0.00913454 -0.00999887
0.324948 0.344976 0.00554463
0.324966 0.343092 0.00616979
0.192251 0.387182 0.00365629
0.18883 0.384598 0.00392855
0.144438 0.206838 0.0269678
0.32092 0.375462 0.0054932
0.188064 0.388303 0.00277577
0.187781 0.386398 0.00327958
0.299866 0.00584083 -0.011016
0.315503 0.349976 0.0058195
0.315025 0.378802 0.00704447
0.315891 0.378153 0.00617026
0.289869 0.0241408 -0.0105397
0.286486 0.0240961 -0.00978829
0.284349 0.0240478 -0.00933218
0.301579 0.358425 0.00533717
0.301655 0.356577 0.00594617
0.174626 0.382086 0.00352245
0.144236 0.204894 0.0268717
0.298205 0.358727 0.00615464
0.298117 0.356819 0.00680982
0.173174 0.382009 0.00337361
0.276084 0.022254 -0.00961066
0.104868 0.307903 0.0094262
0.169335 0.384697 0.00189033
0.203787 0.203111 0.0408168
0.203966 0.204652 0.0411598
0.168872 0.381115 0.00315521
0.143307 0.213362 0.0270905
0.270081 0.0206528 -0.00960487
0.268238 0.0201098 -0.00979381
0.264148 0.0208651 -0.00961742
0.157817 0.376519 0.0028978
0.205212 0.200016 0.0399909
0.203965 0.389963 -0.00400033
0.220905 0.190879 0.0340146
0.155482 0.374998 0.00280801
0.217198 0.191301 0.0325819
0.154662 0.378632 0.00139441
0.154056 0.374923 0.00247816
0.216636 0.187692 0.0337612
0.208109 0.191273 0.0332867
0.0869698 0.131453 -0.000326166
0.0872082 0.133154 3.6872e-05
0.204548 0.156815 0.0287933
0.204065 0.152922 0.0284699
0.109863 0.0741781 -0.0124775
0.206375 0.188858 0.0315496
0.205881 0.184701 0.0311279
0.24219 0.015661 -0.0112575
0.141047 0.367833 0.00180636
0.203899 0.167212 0.0292105
0.138256 0.366471 0.00173287
0.204744 0.192135 0.0320753
0.232584 0.0186429 -0.0100201
0.206901 0.222917 0.0325977
0.202832 0.193047 0.0316713
0.128756 0.363861 2.76153e-05
0.208391 0.208079 0.0412233
0.12793 0.36193 0.000545923
0.093232 0.086579 -0.0126863
0.126538 0.358728 0.00133447
0.206975 0.239073 0.033322
0.20208 0.201773 0.0365171
0.202246 0.20312 0.0371153
0.206499 0.235195 0.0331874
0.202989 0.206179 0.0365821
0.121795 0.358042 0.000350249
0.120807 0.353212 0.00114687
0.0876775 0.094653 -0.0120538
0.205165 0.225098 0.0326576
0.119772 0.356788 2.54131e-05
0.205146 0.197254 0.0361753
0.119392 0.354746 0.000361495
0.47989 0.208477 0.00135218
0.476439 0.20411 0.000327213
0.205627 0.207964 0.0374447
0.206776 0.196916 0.0365953
0.475615 0.206673 7.35644e-05
0.47519 0.200573 -3.89549e-05
0.115 0.320081 0.00940502
0.205662 0.202527 0.0383585
0.474942 0.19858 -0.000116175
0.208534 0.196408 0.0368681
0.473822 0.210642 0.000242567
0.473699 0.209175 -3.34015e-05
0.202032 0.200597 0.0359836
0.474024 0.207492 -0.00019434
0.471827 0.210912 0.000199715
0.114832 0.353365 -0.000638344
0.116698 0.320207 0.00996525
0.471833 0.209654 -0.000136991
0.469751 0.212724 0.000463685
0.470162 0.21144 0.000164256
0.0942067 0.12206 -0.000523853
0.201128 0.203725 0.0354805
0.11282 0.349741 -1.81665e-05
0.202787 0.196794 0.0342871
0.109579 0.345929 0.000247459
0.466611 0.191342 -0.000112701
0.466232 0.226315 -0.000605607
0.466707 0.217116 0.000413677
0.1078 0.346419 -0.000621595
0.0776848 0.108538 -0.011471
0.466224 0.213281 -0.000281268
0.119656 0.325683 0.0097221
0.0956445 0.118326 -0.000951395
0.0953576 0.119987 -0.000598212
0.105715 0.342939 -5.24065e-05
0.210899 0.194146 0.0351615
0.200527 0.199802 0.0342199
0.0760821 0.11232 -0.0111273
0.199176 0.204128 0.0341074
0.200205 0.205685 0.0345373
0.464426 0.187097 -6.03443e-05
0.201575 0.208551 0.0342461
0.201773 0.197808 0.0340579
0.0976849 0.116127 -0.000727783
0.464371 0.215317 -0.000180835
0.0974873 0.119483 0.000240788
0.202851 0.209467 0.0343645
0.462637 0.192788 -0.00124602
0.205282 0.211662 0.0347395
0.462418 0.1915 -0.000925843
0.123363 0.325602 0.0110279
0.462031 0.22057 0.000417982
0.124435 0.329125 0.0102591
0.462286 0.217556 8.57791e-05
0.100661 0.339646 -0.000694137
0.208868 0.192955 0.0343209
0.460518 0.189407 -0.00122559
0.216318 0.193768 0.0342446
0.460069 0.185478 -0.00103365
0.460062 0.181303 -0.000937471
0.12633 0.33102 0.0102452
0.126918 0.332816 0.00983183
0.0987202 0.337071 -0.000369517
0.19622 0.232523 0.0329472
0.461531 0.241809 0.00140097
0.459903 0.223534 0.000145433
0.457741 0.181341 -0.000942969
0.45932 0.24353 0.00141348
0.45943 0.24197 0.0011467
0.458482 0.225053 -0.000278854
0.129556 0.33423 0.0101777
0.456681 0.223872 -0.000325949
0.456468 0.221746 8.65855e-05
0.0654823 0.122127 -0.0125168
0.197125 0.202866 0.0319304
0.451871 0.185635 -0.00211344
0.450595 0.185711 -0.0022672
0.447637 0.167798 -0.00210378
0.444227 0.16798 -0.00244567
0.197222 0.206011 0.031979
0.441146 0.170123 -0.00285546
0.0868202 0.324583 -0.0012746
0.0624594 0.133709 -0.0106643
0.0626193 0.13228 -0.0109839
0.0851357 0.324829 -0.00192234
0.061083 0.13649 -0.0105808
0.084231 0.328166 -0.00302902
0.197988 0.202037 0.0325598
0.0814449 0.317645 -0.00166693
0.133387 0.33065 0.0124165
0.441569 0.255579 0.0014179
0.437906 0.168619 -0.00294234
0.0590985 0.134983 -0.0119119
0.0810969 0.321175 -0.00272989
0.440286 0.256722 0.00184471
0.108051 0.107749 -0.000151273
0.108377 0.109651 0.000646013
0.0798987 0.321772 -0.00333116
0.438474 0.256981 0.00174587
0.0565318 0.146833 -0.0103892
0.0562839 0.14514 -0.0108059
0.0754508 0.311967 -0.00219207
0.137568 0.339324 0.0106831
0.0736727 0.312332 -0.00326921
0.0727517 0.309144 -0.00262597
0.0717271 0.304211 -0.00209581
0.0530897 0.155696 -0.0101895
0.0710693 0.308287 -0.00333943
0.0708636 0.306526 -0.00301203
0.0701797 0.302614 -0.00275654
0.139244 0.339297 0.0112807
0.0519553 0.161409 -0.00932634
0.0517106 0.159683 -0.00991039
0.111689 0.105824 0.000237842
0.111953 0.107632 0.000909704
0.0680655 0.299192 -0.00321099
0.139936 0.335688 0.0127474
0.140455 0.337486 0.0123333
0.0672563 0.296917 -0.00296297
0.0664189 0.295307 -0.00294263
0.203014 0.212075 0.0339188
0.050634 0.162366 -0.00976806
0.203906 0.215244 0.0327799
0.0651001 0.295077 -0.00347471
0.064793 0.293486 -0.00329674
0.143072 0.339344 0.0124581
0.0490411 0.172221 -0.00917596
0.0488605 0.170527 -0.00952965
0.0488748 0.168901 -0.00971215
0.0488096 0.16253 -0.0106946
0.429939 0.157342 -0.00455571
0.0625542 0.289447 -0.0036864
0.0618124 0.286357 -0.00345814
0.20444 0.386379 -0.00221973
0.146264 0.339082 0.0130619
0.145625 0.340512 0.0125656
0.204019 0.388152 -0.00342614
0.047848 0.174797 -0.00924159
0.428358 0.157514 -0.00385005
0.427358 0.151777 -0.00447435
0.0466004 0.1787 -0.0092009
0.0464448 0.176755 -0.00962987
0.0584944 0.285964 -0.00487163
0.42601 0.152779 -0.00383077
0.425839 0.151477 -0.00404426
0.431726 0.272253 0.00213864
0.431213 0.271016 0.0020327
0.207004 0.387903 -0.00376755
0.0459815 0.196434 -0.00780568
0.118447 0.0928415 -0.00151732
0.0457509 0.195146 -0.00811238
0.427532 0.207784 -0.000243923
0.0452748 0.181044 -0.00962002
0.20784 0.200394 0.0375355
0.044813 0.179003 -0.0100489
0.423783 0.148509 -0.00308043
0.423408 0.143851 -0.0039027
0.423269 0.141865 -0.0040019
0.429212 0.26958 0.00200038
0.428754 0.26752 0.00185786
0.426905 0.226135 0.000105429
0.423904 0.191655 -1.64758e-05
0.218286 0.194209 0.0346801
0.423762 0.187738 -0.000293209
0.422478 0.142582 -0.00322869
0.427863 0.277533 0.00116198
0.0497378 0.265069 -0.00632225
0.049565 0.262874 -0.00599737
0.0492769 0.260736 -0.00593106
0.0488629 0.257318 -0.00613985
0.0486361 0.255178 -0.00633781
0.0480565 0.251342 -0.00643127
0.0465071 0.239369 -0.00686358
0.422628 0.187371 -0.00111079
0.422561 0.185677 -0.00142771
0.41968 0.153927 -0.00232359
0.41941 0.150103 -0.00226506
0.419265 0.131988 -0.00321468
0.426056 0.271198 0.0016595
0.124249 0.0922407 -0.000361103
0.124497 0.0940762 0.000300252
0.124301 0.0958772 0.000807529
0.0478441 0.260986 -0.00659514
0.42541 0.267811 0.0011799
0.422505 0.219894 0.00095973
0.422705 0.217627 0.000546075
0.423024 0.273386 0.0015048
0.423094 0.272241 0.00140471
0.120264 0.108227 0.00367766
0.414493 0.118384 -0.00343486
0.126347 0.091705 -2.08578e-05
0.12641 0.0937469 0.000703134
0.413756 0.116573 -0.00351675
0.148621 0.332338 0.0150859
0.421355 0.275207 0.00149053
0.149721 0.32848 0.016504
0.15918 0.351049 0.0118498
0.249388 0.0417012 -0.00702609
0.248802 0.0398803 -0.00762783
0.245301 0.0395359 -0.00677781
0.127849 0.0913339 0.000215528
0.152527 0.331636 0.0161383
0.152819 0.333451 0.0156633
0.159166 0.213284 0.0293986
0.160588 0.348902 0.0126833
0.243019 0.0416353 -0.0064019
0.161188 0.352391 0.0117487
0.419062 0.27369 0.00141676
0.206989 0.257281 0.0333538
0.129813 0.0892111 -0.000162748
0.13002 0.0909763 0.000538412
0.41346 0.18972 -0.00201459
0.16224 0.346858 0.0135183
0.162636 0.348509 0.0131666
0.413722 0.18841 -0.00214764
0.206984 0.255171 0.0333671
0.239205 0.0416154 -0.00649078
0.239031 0.0398733 -0.00692267
0.409939 0.120783 -0.00456373
0.15669 0.335181 0.0160642
0.23645 0.0383107 -0.00687479
0.412519 0.200568 -0.00111507
0.27841 0.401006 0.00602191
0.412493 0.188334 -0.00152019
0.161527 0.228807 0.0301975
0.410159 0.160564 -0.00316857
0.276363 0.401752 0.00599757
0.133485 0.0886721 0.000360772
0.158886 0.334865 0.0165402
0.407235 0.11451 -0.00511918
0.272195 0.403242 0.00663289
0.268793 0.404466 0.00640449
0.167467 0.354337 0.0119827
0.136539 0.0960874 0.00395376
0.167426 0.339719 0.0165611
0.408436 0.160669 -0.00238829
0.408424 0.156727 -0.00295666
0.408049 0.15466 -0.0030858
0.140681 0.095815 0.00476085
0.255964 0.407372 0.0053306
0.412883 0.274264 0.00283767
0.142034 0.0898272 0.00324064
0.412819 0.260828 0.00309304
0.41044 0.230518 -0.000372817
0.410443 0.228387 -0.000311383
0.409962 0.214526 -8.26753e-06
0.143927 0.087994 0.00302137
0.171299 0.353703 0.0127118
0.171689 0.355295 0.0121768
0.403692 0.105183 -0.0054843
0.14608 0.0890557 0.00399209
0.178171 0.342523 0.017213
0.401412 0.0973033 -0.00383025
0.410014 0.270189 0.00298798
0.180544 0.347663 0.0162702
0.174646 0.356354 0.0121918
0.14109 0.0818893 -0.000983229
0.408518 0.238901 7.49562e-05
0.408941 0.228385 0.000472097
0.402144 0.131641 -0.00531988
0.408961 0.282647 0.00287224
0.175675 0.354742 0.012868
0.18558 0.350695 0.0162513
0.142647 0.0811391 -0.00090634
0.407138 0.238928 0.000547601
0.400762 0.133097 -0.00407042
0.400824 0.131717 -0.00477085
0.39844 0.0950823 -0.00637647
0.177574 0.356382 0.012607
0.405701 0.245047 0.000728535
0.155571 0.083662 0.00364711
0.178261 0.0399413 -0.0122308
0.397454 0.0929895 -0.00635503
0.203766 0.2296 0.0329984
0.175981 0.0454816 -0.0102783
0.176431 0.0404281 -0.0123321
0.157338 0.0820077 0.00325967
0.146622 0.0792159 -0.000323182
0.146359 0.080643 0.000200611
0.395445 0.0892285 -0.00663639
0.170351 0.0443761 -0.0115388
0.170238 0.042992 -0.0122006
0.159123 0.081557 0.00320459
0.159135 0.0834104 0.00409769
0.148303 0.0786375 1.64143e-05
0.167096 0.0467356 -0.0106487
0.166625 0.0434695 -0.0123769
0.390452 0.0816386 -0.00719687
0.183963 0.357709 0.0128361
0.16118 0.0830446 0.00407287
0.163007 0.0487506 -0.0104146
0.204092 0.384847 0.00274187
0.203868 0.383378 0.00350729
0.398137 0.268507 0.00126501
0.202059 0.385191 0.003206
0.159077 0.0493361 -0.0111602
0.154212 0.0758781 0.000464668
0.386835 0.0771438 -0.00778913
0.157182 0.0498179 -0.011397
0.171332 0.243746 0.0313937
0.155648 0.0706744 -0.00178527
0.396494 0.271141 0.0015671
0.156118 0.0741475 -5.44995e-05
0.156259 0.0755672 0.000610466
0.386872 0.103783 -0.00556776
0.171831 0.24765 0.0314948
0.19554 0.383566 0.00547931
0.195298 0.382018 0.00605506
0.154085 0.0533757 -0.0102345
0.157997 0.0719017 -0.000910765
0.385001 0.0744271 -0.00749465
0.191534 0.383298 0.00495074
0.167747 0.184092 0.028174
0.301204 0.377501 -0.000811255
0.191609 0.381868 0.00547604
0.205074 0.382891 -0.000742724
0.395064 0.274759 0.00155326
0.395195 0.273234 0.00181222
0.385088 0.100303 -0.00604711
0.385085 0.0984569 -0.00671549
0.168187 0.187594 0.0284132
0.394348 0.301907 0.00375216
0.393465 0.2733 0.0026725
0.381843 0.0942904 -0.00708156
0.381833 0.0700844 -0.00807001
0.381025 0.0686451 -0.00780127
0.380481 0.0963314 -0.00591011
0.162631 0.0762714 0.00117224
0.176646 0.379285 0.00460887
0.176708 0.378046 0.00504428
0.170135 0.187345 0.0284558
0.170707 0.175566 0.0278446
0.136203 0.0618224 -0.0105207
0.378769 0.0922133 -0.00641835
0.171334 0.181262 0.0283465
0.378607 0.0901752 -0.00678369
0.172769 0.377763 0.00467499
0.199863 0.358105 0.0146953
0.378244 0.0868606 -0.00741009
0.200437 0.361462 0.0133213
0.171586 0.183212 0.0283687
0.1704 0.37627 0.0048769
0.387568 0.287305 0.00215809
0.168746 0.380091 0.00346485
0.181412 0.260699 0.032175
0.202097 0.357876 0.0144383
0.388032 0.28399 0.00299858
0.20251 0.360944 0.0128941
0.383617 0.319437 0.00132424
0.373349 0.0813153 -0.0078764
0.383784 0.292117 0.00238369
0.384288 0.290157 0.0026438
0.160329 0.37519 0.00389587
0.37203 0.0828891 -0.00685687
0.372011 0.0810094 -0.00761061
0.157201 0.372057 0.00421615
0.155972 0.374176 0.00319076
0.154781 0.369068 0.00457965
0.153964 0.372645 0.00322111
0.153725 0.370698 0.00380665
0.15203 0.372494 0.00283436
0.113468 0.0767446 -0.0102034
0.111801 0.0743137 -0.0118168
0.380394 0.294295 0.00348422
0.36874 0.0802164 -0.00682985
0.365812 0.0515026 -0.00885867
0.142616 0.365446 0.00293656
0.141805 0.36211 0.00397727
0.084553 0.151009 0.00285343
0.106472 0.0835248 -0.00971644
0.140956 0.365692 0.00245785
0.374444 0.30632 0.00273107
0.374733 0.304912 0.00303562
0.374436 0.330473 0.00437522
0.299346 0.375378 -0.00031455
0.373081 0.304955 0.00366118
0.372709 0.332424 0.00386068
0.301414 0.37336 -0.000664671
0.371619 0.309946 0.0028148
0.371456 0.308482 0.00329719
0.370916 0.334923 0.0037444
0.102933 0.305576 0.00946426
0.10273 0.303849 0.0098624
0.303473 0.37134 -0.000620539
0.371948 0.333383 0.00377955
0.368771 0.314376 0.00273441
0.0834228 0.153116 0.00291503
0.129236 0.355624 0.00311385
0.128689 0.354327 0.00342773
0.303356 0.379156 -0.000319043
0.36878 0.337209 0.00374965
0.3675 0.316521 0.00250656
0.367288 0.31491 0.00316663
0.0902284 0.0978083 -0.00970345
0.307322 0.369393 -0.000475051
0.306956 0.370955 -0.000886713
0.0890842 0.0988174 -0.00991185
0.0867076 0.104269 -0.00940975
0.352192 0.0583307 -0.00939307
0.367047 0.338922 0.00412055
0.36564 0.317241 0.0030047
0.0855313 0.105257 -0.00954198
0.0836687 0.10728 -0.00943482
0.0839136 0.105901 -0.00989407
0.310892 0.37074 -0.000976989
0.365814 0.339888 0.00410044
0.311114 0.377661 0.000249831
0.312768 0.376048 -0.000208053
0.36636 0.338567 0.00289602
0.314223 0.375861 0.000441846
0.0814094 0.109363 -0.00957881
0.316818 0.373808 0.000336188
0.363799 0.317454 0.00366093
0.109828 0.343249 0.00139561
0.318697 0.371961 3.48582e-05
0.32096 0.366612 -0.000424207
0.079957 0.111294 -0.00958894
0.0785305 0.114389 -0.00939498
0.320863 0.369849 -1.9055e-06
0.32033 0.371328 0.000323074
0.322926 0.366325 -0.00058064
0.348381 0.0561183 -0.00886192
0.322868 0.369448 0.000327226
0.186844 0.0624323 -0.00107922
0.18696 0.0639246 -0.000535204
0.324862 0.362241 -0.000200709
0.324766 0.364198 -0.000561829
0.0977646 0.300636 0.00864125
0.0975162 0.298619 0.00888853
0.0766021 0.120195 -0.00880175
0.0766537 0.118296 -0.00926148
0.0769551 0.116203 -0.00966608
0.324686 0.367833 0.000117166
0.102416 0.33645 0.0011761
0.326114 0.360666 0.000165408
0.326156 0.361925 -0.000250248
0.326251 0.36358 -0.000602648
0.0753881 0.122313 -0.00872704
0.0751972 0.119054 -0.0096827
0.326402 0.367275 0.000118447
0.328415 0.360187 3.60209e-05
0.347381 0.0526123 -0.0098898
0.32857 0.36366 -0.000630472
0.101002 0.336922 0.000480363
0.330405 0.360223 -2.04018e-05
0.100328 0.333652 0.00137204
0.0740895 0.123988 -0.0087501
0.0736286 0.120894 -0.00979661
0.0715236 0.126971 -0.00888367
0.0721287 0.12526 -0.00913997
0.0973741 0.334718 0.000163745
0.0962002 0.333204 0.000304432
0.0960215 0.331372 0.000780435
0.331809 0.36136 -0.000286837
0.33181 0.362581 8.73053e-05
0.347863 0.0342569 -0.0105964
0.0947815 0.333122 -0.000170417
0.0939245 0.329774 0.000301709
0.093871 0.327579 0.000785276
0.0928904 0.324372 0.00130045
0.0778873 0.164108 0.00308127
0.361581 0.320966 0.00333489
0.0909813 0.32439 0.000432764
0.345996 0.0524632 -0.00951026
0.345356 0.0494028 -0.0104749
0.0888186 0.324526 -0.000508397
0.0652748 0.137838 -0.00840938
0.0648362 0.134033 -0.00954271
0.206029 0.380245 0.0011544
0.359979 0.323371 0.00325268
0.0634979 0.136439 -0.0094974
0.344225 0.0527787 -0.00889287
0.344111 0.0509885 -0.0095277
0.358375 0.323745 0.00370802
0.357513 0.348127 0.00525402
0.0915023 0.283617 0.00869247
0.358801 0.346837 0.00517975
0.356031 0.325843 0.00369059
0.0767859 0.166276 0.00278451
0.081793 0.315164 -0.000838678
0.0810033 0.311178 -0.000162718
0.0807517 0.309479 0.000101607
0.0792959 0.309364 -0.000234184
0.33806 0.0485544 -0.0092996
0.0586971 0.146924 -0.00939747
0.0586854 0.145439 -0.00970202
0.177517 0.16742 0.027577
0.337481 0.0449853 -0.0102484
0.0776399 0.311547 -0.00121356
0.33741 0.0429903 -0.0109345
0.33597 0.0471094 -0.00928217
0.089492 0.279932 0.00872034
0.0759319 0.175675 0.00370843
0.0559849 0.162476 -0.00712121
0.189803 0.263459 0.0326184
0.0558391 0.159599 -0.00776175
0.334873 0.0250945 -0.0108128
0.0751118 0.166852 0.00206754
0.352309 0.35232 0.00435415
0.0716532 0.298137 -0.00126738
0.0713469 0.29647 -0.00113992
0.333666 0.0428486 -0.00975688
0.333206 0.040962 -0.0103776
0.333523 0.0244928 -0.0114704
0.350894 0.353779 0.0047872
0.0530402 0.159804 -0.0091532
0.0740655 0.180163 0.00367662
0.332004 0.0432613 -0.00914567
0.0661461 0.286823 -0.00178697
0.33125 0.0396854 -0.0104722
0.330889 0.0222998 -0.010892
0.329965 0.0216472 -0.0117506
0.0653499 0.292776 -0.00296316
0.064514 0.288917 -0.00278569
0.0505828 0.179647 -0.00687703
0.0497331 0.168383 -0.00932786
0.182292 0.164436 0.0275301
0.0631484 0.288715 -0.00331048
0.0622782 0.285334 -0.00308427
0.0848231 0.27596 0.00820532
0.0843045 0.274205 0.008278
0.344179 0.338318 0.00324957
0.0837483 0.270516 0.00832653
0.327359 0.0392183 -0.00986065
0.32724 0.0375962 -0.0108445
0.0727005 0.180951 0.00309568
0.297317 0.370242 0.00229893
0.327773 0.0197851 -0.011354
0.342776 0.338667 0.00352085
0.299233 0.3682 0.00201189
0.0584632 0.263597 -0.00260808
0.0503347 0.199451 -0.00559623
0.0501605 0.198177 -0.00582056
0.324819 0.0365836 -0.0110227
0.324259 0.0177742 -0.011243
0.04894 0.178483 -0.00796715
0.0571883 0.263791 -0.00318544
0.0810938 0.266248 0.00790276
0.0805585 0.265035 0.00792175
0.0551753 0.251474 -0.0030037
0.30069 0.367639 0.00160995
0.0492932 0.204352 -0.00552153
0.0488791 0.198354 -0.00639627
0.300857 0.371286 6.36801e-05
0.331367 0.348613 0.0034661
0.302856 0.366047 0.00151831
0.0554298 0.264069 -0.0039432
0.0538414 0.254096 -0.00382977
0.0537955 0.252148 -0.00379546
0.32721 0.372273 0.00512244
0.302836 0.370533 -0.000258695
0.304104 0.365876 0.00131164
0.304738 0.366723 0.000887894
0.0482097 0.20649 -0.00573818
0.0476927 0.202821 -0.00635562
0.0474971 0.200714 -0.0066825
0.314085 0.379119 0.0068264
0.078601 0.262767 0.00761692
0.0782873 0.260705 0.00776817
0.314865 0.378533 0.0059079
0.29428 0.0217595 -0.012475
0.313649 0.379004 0.00557036
0.306785 0.366817 0.000527838
0.292336 0.0217678 -0.012153
0.288605 0.0214993 -0.0114221
0.287593 0.0181185 -0.0125176
0.287199 0.0164606 -0.0130571
0.072901 0.218917 0.00589612
0.0727039 0.217266 0.00566633
0.30608 0.360369 0.00368444
0.0723243 0.213139 0.00524828
0.0720514 0.21107 0.00517148
0.286182 0.0202642 -0.0112888
0.0715633 0.207347 0.00502685
0.286028 0.018435 -0.011996
0.298464 0.364138 0.00384164
0.296588 0.361266 0.00598857
0.263683 0.0134949 -0.0134298
0.162274 0.0813677 0.00336254
0.251121 0.0431434 -0.0061383
0.165145 0.0810316 0.00355727
0.248392 0.0421811 -0.00622419
0.196048 0.204065 0.0315526
0.195755 0.200303 0.0310812
0.319219 0.372661 0.000644743
0.24616 0.0461056 -0.00413093
0.242755 0.0469342 -0.00482758
0.241487 0.0446483 -0.00642502
0.240144 0.0474863 -0.00491657
0.239334 0.0464598 -0.0059286
0.168793 0.0786212 0.00334529
0.168784 0.0804093 0.00410594
0.235934 0.0463291 -0.00451851
0.23358 0.0452331 -0.00433272
0.0767189 0.258843 0.0072529
0.23309 0.0428396 -0.00521313
0.322519 0.360192 0.000957715
0.474657 0.204684 -0.000207056
0.473308 0.206644 -0.000434036
0.206381 0.348301 0.0159332
0.206716 0.349952 0.0146942
0.473088 0.201003 -0.000736542
0.0748657 0.243076 0.00642631
0.176823 0.0786965 0.00495999
0.073971 0.239399 0.00650901
0.0733817 0.234852 0.00631684
0.0733499 0.233004 0.0062498
0.470072 0.228854 -0.00011892
0.0726863 0.229484 0.00590357
0.0724853 0.227408 0.00584778
0.268457 0.40424 0.00514087
0.469642 0.210902 -6.55564e-05
0.186665 0.0724941 0.00328353
0.468848 0.226715 -0.000437644
0.467714 0.212463 -5.35697e-05
0.189934 0.0719795 0.00356213
0.190028 0.0733092 0.00408875
0.192676 0.0764944 0.00564737
0.19399 0.0743787 0.00570906
0.195568 0.0755124 0.00695047
0.0729028 0.223146 0.00611871
0.0730299 0.225223 0.00616164
0.0728061 0.209307 0.00551212
0.0738178 0.219382 0.00634104
0.0742138 0.222966 0.00669378
0.0743833 0.225036 0.00673608
0.0750201 0.228899 0.00690925
0.0751092 0.230817 0.00694769
0.0760174 0.23656 0.00733841
0.326444 0.369402 0.0011504
0.0761551 0.238649 0.00732579
0.0763018 0.240749 0.00723241
0.0757127 0.264986 0.00603034
0.0754798 0.262876 0.00636477
0.465884 0.230039 -0.000379897
0.32912 0.365854 0.000289163
0.328651 0.367488 0.0010239
0.0791368 0.260571 0.00809474
0.330351 0.357176 0.000955672
0.465662 0.211415 -0.00091744
0.46531 0.203634 -0.00255225
0.0740187 0.206803 0.00602231
0.465203 0.201878 -0.00262319
0.0747108 0.214916 0.0063429
0.0760976 0.224798 0.00743116
0.465069 0.231355 -0.000196634
0.463921 0.215327 -0.000223033
0.192111 0.0438835 -0.00619158
0.332291 0.36337 0.00072399
0.079909 0.254489 0.0085062
0.0802646 0.256513 0.00868898
0.463979 0.213248 -0.000786918
0.332249 0.366332 0.00232615
0.4627 0.197696 -0.00237068
0.252187 0.0630831 0.0018961
0.082134 0.265909 0.00833469
0.251982 0.066611 0.00343381
0.462896 0.229567 -0.000742317
0.462658 0.227253 -0.000629736
0.33639 0.36094 0.00123782
0.185041 0.0475469 -0.0081091
0.18494 0.0459252 -0.00883242
0.253555 0.0676789 0.00404673
0.462052 0.223686 -2.46163e-05
0.462779 0.221497 0.000354297
0.0644412 0.237065 0.00203767
0.182989 0.0463124 -0.00888038
0.0646067 0.240254 0.00235082
0.0756607 0.204747 0.00665251
0.065522 0.244536 0.00249759
0.335884 0.363857 0.00232086
0.18125 0.048268 -0.00821197
0.461086 0.19908 -0.00259362
0.347983 0.34074 0.00138221
0.460956 0.197784 -0.00246237
0.347303 0.353699 0.00155391
0.460635 0.2321 -0.000791421
0.179036 0.046999 -0.00903307
0.460662 0.229558 -0.00081644
0.174872 0.0476573 -0.00947685
0.460627 0.224117 -5.18178e-05
0.460009 0.213399 -0.00126062
0.458737 0.210571 -0.00230026
0.350956 0.351284 0.0019612
0.458773 0.199562 -0.0027266
0.457779 0.184252 -0.00123781
0.167215 0.0482618 -0.00983856
0.163383 0.0530536 -0.00823612
0.159482 0.0518162 -0.00978731
0.457443 0.210659 -0.00238475
0.0660935 0.234237 0.00267834
0.456554 0.187634 -0.00196067
0.457454 0.233235 -0.00129419
0.0662714 0.240155 0.00327623
0.457223 0.229751 -0.00120095
0.0667608 0.244345 0.00313932
0.355475 0.347404 0.00192186
0.456596 0.225708 -0.000688108
0.357155 0.345611 0.00179283
0.154109 0.0577165 -0.00833511
0.360988 0.339398 0.000695044
0.0682089 0.256068 0.00344032
0.15392 0.0559929 -0.00908534
0.0692194 0.260202 0.00373322
0.0700587 0.262211 0.00393135
0.153746 0.0543308 -0.00983963
0.192575 0.378113 0.00727694
0.0625329 0.188495 -0.000286543
0.0628676 0.190598 3.4115e-05
0.191099 0.379534 0.00636373
0.150478 0.0597944 -0.00808609
0.360791 0.341196 0.00142793
0.455903 0.213866 -0.00169021
0.14844 0.0605343 -0.00821413
0.146247 0.0613491 -0.00842829
0.364496 0.324143 0.00118813
0.454318 0.221835 -0.000647328
0.453365 0.198089 -0.00306142
0.36427 0.338765 0.00170718
0.366715 0.335007 0.00083909
0.140477 0.0619111 -0.00949725
0.351426 0.0408184 -0.0127854
0.451996 0.229628 -0.00139676
0.178493 0.375435 0.00627878
0.451836 0.19658 -0.0032309
0.174172 0.375257 0.00584482
0.370552 0.328951 -2.66237e-05
0.450165 0.187988 -0.00254687
0.0674573 0.231854 0.0032186
0.172615 0.37553 0.00550242
0.450783 0.238813 -0.000810054
0.45059 0.235363 -0.00109907
0.370529 0.330873 0.000788816
0.37033 0.332703 0.00163615
0.169706 0.372388 0.00628832
0.130867 0.0709345 -0.00813453
0.355129 0.0443716 -0.012565
0.129368 0.0728031 -0.00798936
0.357284 0.0575114 -0.0115751
0.37236 0.327119 0.000134201
0.450504 0.228383 -0.00140414
0.450315 0.226387 -0.00159001
0.0705417 0.259749 0.00447829
0.448194 0.188565 -0.00289655
0.126208 0.0753656 -0.00766346
0.071867 0.265631 0.00417759
0.0636832 0.184512 -0.000353773
0.0635981 0.186395 -1.04008e-05
0.160834 0.368226 0.00636906
0.159652 0.372522 0.00467429
0.159762 0.369272 0.00580977
0.157962 0.36604 0.00628113
0.35821 0.047875 -0.0122664
0.122015 0.0755359 -0.00819828
0.120364 0.0758176 -0.00837717
0.118197 0.0770952 -0.00834169
0.359947 0.0497747 -0.0121196
0.118081 0.0752652 -0.00919143
0.360316 0.0517162 -0.0126435
0.116217 0.0790209 -0.00813541
0.116566 0.0771496 -0.00885395
0.44474 0.170591 -0.00281112
0.375965 0.312953 0.000689847
0.447673 0.242424 -0.000524608
0.375993 0.3206 0.000514314
0.112902 0.0810421 -0.00846806
0.110226 0.0839353 -0.00812452
0.361805 0.0514917 -0.0117195
0.110734 0.0821612 -0.00878819
0.37845 0.311055 0.000421203
0.144157 0.361642 0.00484111
0.107213 0.0842725 -0.00911107
0.444041 0.184866 -0.00351274
0.443917 0.178585 -0.00378488
0.103362 0.0870947 -0.00911151
0.44197 0.185 -0.00371849
0.441284 0.171338 -0.00305185
0.0736742 0.265595 0.00499726
0.443325 0.238386 -0.000937253
0.0740398 0.269229 0.0041655
0.440043 0.183118 -0.00384407
0.0652434 0.176274 -0.000844311
0.0984819 0.0897273 -0.00970394
0.129019 0.351988 0.00450577
0.0968438 0.0975158 -0.00769357
0.364344 0.054016 -0.0115992
0.0945124 0.0963487 -0.00867866
0.0945611 0.094334 -0.00935277
0.379778 0.310625 0.000213268
0.441137 0.23284 -0.00111659
0.43806 0.179156 -0.00421232
0.437639 0.173096 -0.00383909
0.119964 0.344402 0.00412741
0.118861 0.342843 0.00425149
0.436945 0.168962 -0.00324033
0.0898304 0.106546 -0.00766801
0.366371 0.0555607 -0.0114613
0.366963 0.0613847 -0.011992
0.435575 0.17321 -0.00423032
0.0840141 0.109547 -0.00845221
0.0663769 0.174543 -0.000626608
0.433775 0.148968 -0.00546172
0.0666666 0.177772 -8.8641e-05
0.0820609 0.109903 -0.00909332
0.437057 0.234851 -0.0012736
0.437122 0.233276 -0.00155992
0.080515 0.112149 -0.00906195
0.431775 0.149109 -0.00534239
0.43197 0.181641 -0.00332749
0.431823 0.179461 -0.00339948
0.431732 0.175316 -0.00387211
0.431525 0.171125 -0.00392503
0.0794249 0.278802 0.00538838
0.430993 0.161366 -0.00318415
0.0803431 0.282558 0.00462921
0.429193 0.150727 -0.00538625
0.0679228 0.171625 -0.000498533
0.1006 0.327041 0.00327428
0.0991346 0.327008 0.00295494
0.0742045 0.132197 -0.00647398
0.383346 0.312199 0.000408998
0.383166 0.314131 0.00118385
0.0742868 0.129185 -0.00714595
0.0975376 0.327177 0.00240576
0.0968023 0.324084 0.00301202
0.072889 0.136529 -0.00592384
0.0821794 0.284048 0.00486843
0.0731848 0.134842 -0.00629384
0.0728851 0.132989 -0.00685105
0.070678 0.138614 -0.00613521
0.385696 0.300621 0.000369013
0.0694327 0.171566 3.6604e-05
0.38512 0.30251 0.000293178
0.0715506 0.135464 -0.00676361
0.385457 0.310323 0.000336778
0.434375 0.257499 0.000890276
0.0692705 0.13904 -0.00655712
0.0832756 0.2807 0.00624644
0.432321 0.235591 -0.00166597
0.431196 0.181211 -0.00288781
0.430829 0.179509 -0.00291766
0.427484 0.143367 -0.0055395
0.372832 0.0628902 -0.0111978
0.0858426 0.292038 0.0052085
0.431166 0.240814 -0.00165446
0.0706109 0.158196 -0.00156984
0.431444 0.239456 -0.00150591
0.0850866 0.310749 0.00138512
0.426165 0.147749 -0.00401839
0.0712887 0.165456 0.000228756
0.0826405 0.304963 0.00178095
0.0715636 0.169339 0.00066133
0.0787169 0.297229 0.00155292
0.373604 0.0730088 -0.010844
0.429456 0.247962 -0.00168067
0.38727 0.297914 0.000165744
0.059985 0.162324 -0.00537869
0.387148 0.302353 -2.02581e-05
0.0598251 0.15881 -0.00620249
0.428757 0.227382 -0.00120819
0.428718 0.22576 -0.000987399
0.0756618 0.297802 0.000411589
0.0753647 0.295687 0.000440739
0.0749999 0.291899 0.000712012
0.0718687 0.157136 -0.00120462
0.0744673 0.29003 0.000876813
0.072421 0.161084 0.000155676
0.059108 0.170494 -0.00475995
0.058263 0.161077 -0.00632629
0.0580788 0.159393 -0.00676233
0.429149 0.273564 0.00181631
0.428767 0.26152 0.000356984
0.0736188 0.296005 -0.000191751
0.428567 0.250903 -0.00107722
0.427775 0.249343 -0.00140627
0.0563417 0.179341 -0.00461423
0.0559156 0.175226 -0.00562931
0.388834 0.294777 0.000101154
0.0558392 0.173381 -0.00603353
0.388646 0.297936 -0.000115439
0.425662 0.255544 -0.000640902
0.0739012 0.151746 -0.00147825
0.0550226 0.181372 -0.00480367
0.0739252 0.154815 -0.000798287
0.425542 0.252497 -0.000529681
0.388828 0.301808 0.000342655
0.38887 0.303874 0.000661465
0.422586 0.21335 -1.06864e-05
0.422951 0.212016 8.63128e-05
0.42284 0.209882 2.72296e-05
0.377968 0.0764425 -0.0105751
0.0623553 0.263295 -0.000612492
0.0922079 0.301269 0.00638359
0.0928733 0.303339 0.00629261
0.0529679 0.179858 -0.00574306
0.0935683 0.306348 0.00600888
0.0751561 0.148584 -0.00148774
0.421637 0.181769 -0.00206746
0.421462 0.177918 -0.00233924
0.0757089 0.154619 6.44186e-05
0.0756426 0.156068 0.000406878
0.0608055 0.261372 -0.00109869
0.0599898 0.257563 -0.000839306
0.0563386 0.229278 -0.00208019
0.0529088 0.19991 -0.0041232
0.0947158 0.304793 0.00667952
0.0949825 0.306815 0.00636128
0.0770978 0.142897 -0.00198784
0.0524441 0.198088 -0.00455539
0.419667 0.158057 -0.0020015
0.0763756 0.148424 -0.00093542
0.051322 0.180167 -0.00641753
0.058894 0.261723 -0.00204696
0.0585607 0.257373 -0.00148343
0.0578615 0.253572 -0.00164069
0.425555 0.277347 0.00121427
0.0565663 0.241888 -0.00204375
0.0561978 0.239614 -0.00217536
0.0555617 0.231963 -0.00246047
0.0982011 0.310044 0.00651156
0.0783379 0.140456 -0.00213842
0.0545384 0.226226 -0.00257008
0.0537983 0.224032 -0.00283005
0.0527751 0.215988 -0.0032341
0.390565 0.294271 -3.39472e-05
0.42409 0.2595 -7.81777e-05
0.424304 0.25756 -0.000158436
0.42389 0.24994 0.000159625
0.0564877 0.253807 -0.00237625
0.0555676 0.247923 -0.00275325
0.0795824 0.138401 -0.00215618
0.421554 0.217719 -0.00019429
0.421277 0.210065 -0.00133358
0.0802761 0.143899 -0.000315426
0.424305 0.279452 0.00111775
0.423066 0.267994 0.000690084
0.101297 0.310317 0.00748073
0.0820941 0.258458 0.00931874
0.102152 0.314175 0.00690039
0.0834357 0.261937 0.00940626
0.0817812 0.132172 -0.00258844
0.0818442 0.133761 -0.0021933
0.41983 0.226125 0.000192217
0.415043 0.144149 -0.00392352
0.390769 0.299743 0.000730733
0.0836922 0.264017 0.00914454
0.253006 0.0507819 -0.0022339
0.0853792 0.27527 0.00846064
0.4152 0.140379 -0.00333476
0.414912 0.138257 -0.00339076
0.0765624 0.194611 0.00615079
0.414265 0.134127 -0.00335609
0.104586 0.317971 0.00692755
0.0828335 0.130362 -0.00250035
0.421777 0.271504 0.00114864
0.0831519 0.133296 -0.00164984
0.243517 0.0474909 -0.00384829
0.0837235 0.137551 -0.00057667
0.239865 0.0513596 -0.00230417
0.379015 0.0708515 -0.0105615
0.239689 0.0479928 -0.00405911
0.420167 0.263292 0.000372561
0.0858324 0.269745 0.00907163
0.0861338 0.271798 0.00905392
0.235895 0.0474666 -0.00417286
0.379395 0.0727151 -0.0107821
0.076929 0.178409 0.00487466
0.418818 0.235826 0.00121904
0.418579 0.232328 0.000103152
0.416663 0.186498 -0.00323832
0.085247 0.137002 -9.05155e-05
0.0912958 0.279087 0.00958246
0.380008 0.0763229 -0.0107013
0.0917558 0.280932 0.0093715
0.380606 0.0803226 -0.0100995
0.0922636 0.282745 0.00922515
0.0791723 0.160233 0.00304289
0.0797958 0.174096 0.00533895
0.086238 0.133132 -0.000333506
0.0925296 0.275152 0.0106613
0.0929839 0.278788 0.01029
0.0937767 0.282785 0.00989606
0.0944593 0.284585 0.00985392
0.111551 0.322955 0.00749139
0.0950363 0.286693 0.00970082
0.0953565 0.288304 0.00951848
0.080542 0.158335 0.00316575
0.419035 0.270124 0.00111652
0.418972 0.268193 0.000790096
0.0826861 0.156293 0.00344459
0.0819157 0.157626 0.0035101
0.418825 0.263983 0.000924654
0.113501 0.32632 0.00745001
0.194308 0.204426 0.0311887
0.0840707 0.153623 0.0032443
0.418716 0.294175 0.000879294
0.0853049 0.149342 0.00280232
0.08688 0.148715 0.00323036
0.114863 0.32232 0.00883408
0.415499 0.247873 0.00133256
0.115359 0.326724 0.00805365
0.088449 0.142829 0.00254435
0.383191 0.0764271 -0.0101299
0.0888895 0.146632 0.00361767
0.190989 0.0506449 -0.00431158
0.190896 0.0487392 -0.00497601
0.409192 0.130889 -0.00684564
0.189418 0.0511724 -0.00512055
0.189191 0.0493747 -0.00600788
0.383757 0.0804177 -0.0105798
0.189115 0.0479449 -0.00674927
0.0931367 0.118399 -0.00211165
0.0902305 0.144248 0.00356679
0.415057 0.281896 0.000558632
0.396506 0.281852 -0.000260368
0.413518 0.255797 0.00232517
0.395746 0.285305 -0.000479758
0.120512 0.331841 0.00803652
0.0953986 0.112593 -0.00311421
0.0920103 0.140397 0.00312121
0.407001 0.120636 -0.00663448
0.114085 0.310715 0.0113856
0.406592 0.118742 -0.00642674
0.405985 0.116762 -0.00661528
0.121997 0.330187 0.00908578
0.0938169 0.139964 0.00363334
0.114773 0.307214 0.0125869
0.096871 0.110718 -0.00319477
0.411432 0.264208 0.00312781
0.0950497 0.133708 0.00282012
0.095563 0.135734 0.00336554
0.396252 0.291347 0.000184224
0.0955263 0.137657 0.00371914
0.124032 0.331349 0.00935849
0.124805 0.333259 0.00897905
0.124768 0.335073 0.00838855
0.0984389 0.109703 -0.00288271
0.116587 0.308682 0.0128272
0.404584 0.129123 -0.00700027
