0.220669 -0.204941 0.00502291
0.221856 -0.206772 0.00508448
0.223326 -0.208236 0.0049361
0.224369 -0.209623 0.0047175
0.287202 -0.280169 0.00370188
0.288677 -0.281798 0.00374286
0.290378 -0.283043 0.00361059
0.291667 -0.284459 0.0037135
0.293778 -0.285108 0.00427883
0.221549 -0.207589 0.00498305
0.222615 -0.209064 0.00487227
0.223594 -0.210413 0.00492404
0.226586 -0.21446 0.00489985
0.227492 -0.215478 0.00493085
0.228594 -0.216701 0.00509236
0.229197 -0.218275 0.005106
0.230567 -0.220031 0.00477187
0.282204 -0.276821 0.00423649
0.283767 -0.278295 0.00419689
0.284794 -0.279364 0.00432939
0.286687 -0.280351 0.00436189
0.288582 -0.281496 0.00455445
0.290321 -0.281989 0.0039572
0.292259 -0.282979 0.00351599
0.294323 -0.283788 0.00365818
0.295361 -0.284157 0.00489659
0.225977 -0.214696 0.00513674
0.22732 -0.216034 0.00496412
0.228354 -0.217316 0.00539355
0.229072 -0.21869 0.00549156
0.230457 -0.220371 0.00552987
0.231596 -0.222161 0.00520436
0.232552 -0.223631 0.00513218
0.233134 -0.226032 0.00461065
0.235912 -0.228928 0.00488196
0.236843 -0.231055 0.00513887
0.237901 -0.232843 0.00534852
0.238746 -0.234029 0.00537414
0.2401 -0.235115 0.00518768
0.480275 -0.0377527 0.0403566
0.244219 -0.23968 0.00447521
0.26497 -0.262565 0.00493303
0.266008 -0.26381 0.00488651
0.266945 -0.264713 0.00464366
0.278879 -0.274436 0.00401193
0.280145 -0.275436 0.00454709
0.281994 -0.276693 0.00503497
0.283486 -0.277982 0.00506265
0.284869 -0.278708 0.00492675
0.287165 -0.279301 0.00402094
0.288347 -0.280505 0.0036641
0.228964 -0.219863 0.00488001
0.229765 -0.220981 0.00500883
0.231844 -0.223095 0.00438917
0.232515 -0.223927 0.0045033
0.233915 -0.225938 0.00477805
0.235513 -0.227536 0.00438109
0.236041 -0.229184 0.00512215
0.237418 -0.230851 0.00536912
0.238598 -0.232709 0.0057878
0.239202 -0.233915 0.0061703
0.240129 -0.235898 0.00559314
0.241312 -0.237406 0.00563909
0.242504 -0.238626 0.00525128
0.243503 -0.240228 0.00498677
0.245141 -0.241817 0.00473645
0.24656 -0.243734 0.00445464
0.247736 -0.245556 0.0041342
0.248884 -0.246754 0.00415976
0.250841 -0.248404 0.00434361
0.252404 -0.249814 0.00444016
0.253467 -0.250969 0.00441455
0.254764 -0.2529 0.00444301
0.256358 -0.254398 0.0046221
0.25739 -0.255618 0.00471414
0.261525 -0.260019 0.00485176
0.262988 -0.261485 0.00509619
0.269767 -0.268387 0.0043918
0.27133 -0.268925 0.00447894
0.27829 -0.274561 0.0042922
0.279637 -0.275409 0.00438037
0.527632 -0.100219 0.0378275
0.280766 -0.276445 0.00490382
0.238846 -0.23268 0.00473737
0.23951 -0.233988 0.00502968
0.240714 -0.235416 0.00508811
0.241984 -0.236734 0.00501538
0.243362 -0.237846 0.00462162
0.244155 -0.239877 0.00519127
0.245984 -0.241561 0.00443451
0.247516 -0.243128 0.00395362
0.248645 -0.245061 0.0040787
0.24953 -0.246354 0.00425133
0.250807 -0.248379 0.0050975
0.518384 -0.0919849 0.0397461
0.519674 -0.0935538 0.0395905
0.252179 -0.249993 0.00488714
0.253216 -0.251117 0.00495024
0.258337 -0.258106 0.00471848
0.26279 -0.258133 0.00388836
0.26438 -0.259387 0.00402614
0.267298 -0.262252 0.00536274
0.268809 -0.263578 0.00462742
0.269764 -0.265726 0.00363325
0.270641 -0.266418 0.00357669
0.529511 -0.217266 0.0191522
0.530806 -0.218248 0.01772
0.306086 0.0241877 0.0147196
0.30697 0.0225815 0.0149831
0.308093 0.0213366 0.015209
0.463237 -0.0262288 0.0402668
0.464808 -0.0275902 0.0404217
0.528529 -0.217539 0.0185716
0.517703 -0.0930475 0.0399637
0.518685 -0.0943101 0.0398397
0.519849 -0.0961528 0.0396746
0.529631 -0.218873 0.0173413
0.30483 0.0233823 0.015083
0.306147 0.0215468 0.0156053
0.307026 0.0203367 0.0161318
0.526749 -0.21749 0.0198154
0.527636 -0.218501 0.0188649
0.529168 -0.21989 0.0184579
0.303013 0.0237088 0.0148165
0.303806 0.0226041 0.0157123
0.305032 0.0208784 0.0161779
0.305821 0.0195598 0.0160438
0.52639 -0.217514 0.0206038
0.527621 -0.218892 0.0196527
0.52896 -0.220332 0.0191534
0.529226 -0.221861 0.0188363
0.301951 0.0226719 0.0134195
0.460835 -0.0254837 0.0403737
0.461675 -0.0275181 0.0406307
0.463312 -0.0282737 0.0406513
0.303085 0.0210771 0.0143246
0.52046 -0.100805 0.0396174
0.303959 0.0203442 0.0154147
0.526095 -0.220053 0.020218
0.527462 -0.221351 0.0195078
0.528543 -0.223033 0.0188248
0.301187 0.0210648 0.0134828
0.302341 0.0200081 0.014187
0.525698 -0.221553 0.0199535
0.525758 -0.223127 0.019704
0.527057 -0.224674 0.0189881
0.299513 0.0200826 0.0128814
0.300897 0.0185062 0.0138919
0.524265 -0.224395 0.0196329
0.525901 -0.225842 0.0189438
0.526158 -0.228188 0.0182894
0.45637 -0.0235739 0.0402467
0.298102 0.0185579 0.0128135
0.299332 0.017573 0.0137862
0.300539 0.0167305 0.0146437
0.523166 -0.226008 0.0194705
0.5244 -0.227652 0.018756
0.524946 -0.229159 0.0181307
0.296555 0.0171014 0.0133113
0.297795 0.0158915 0.014052
0.299425 0.0159534 0.0146616
0.521401 -0.227451 0.0194449
0.522619 -0.229188 0.0185841
0.523991 -0.230547 0.0178521
0.293852 0.0168858 0.0130018
0.295381 0.0164674 0.0133504
0.296266 0.0148217 0.0140853
0.520083 -0.229318 0.0191574
0.521352 -0.23027 0.0185156
0.522438 -0.231697 0.0177388
0.292951 0.0165482 0.0129044
0.522605 -0.109292 0.0392859
0.523613 -0.110896 0.0390523
0.294185 0.0150564 0.0135159
0.294929 0.0135778 0.0143372
0.519041 -0.229948 0.0191929
0.519565 -0.231538 0.0185255
0.520587 -0.232852 0.0178395
0.292607 0.0137163 0.0129095
0.294078 0.0120448 0.0141389
0.294111 0.01065 0.0144648
0.517747 -0.233044 0.0185411
0.518818 -0.233981 0.0179387
0.520236 -0.235246 0.017123
0.291266 0.0119821 0.0126279
0.292371 0.0110259 0.0135493
0.293291 0.00980812 0.0142525
0.515999 -0.234582 0.0184434
0.517472 -0.235103 0.0179809
0.519109 -0.236218 0.0171853
0.522338 -0.112236 0.0392856
0.289469 0.0100113 0.0127478
0.290766 0.00918046 0.013539
0.291752 0.00812597 0.0142643
0.514607 -0.235693 0.0184763
0.516057 -0.236596 0.0178967
0.288148 0.00908537 0.0124469
0.289084 0.007673 0.0136971
0.290162 0.00666703 0.0142329
0.511699 -0.236315 0.0188581
0.513274 -0.236918 0.0184507
0.514924 -0.238282 0.017727
0.285881 0.00801217 0.0125365
0.445631 -0.019617 0.0398895
0.287571 0.00664323 0.013839
0.510871 -0.236983 0.0188328
0.52171 -0.113536 0.0393839
0.522149 -0.114732 0.0392469
0.512205 -0.238077 0.0183074
0.513373 -0.239757 0.0175882
0.284082 0.00651622 0.0128293
0.286455 0.00501991 0.01337
0.286699 0.00353164 0.0140832
0.509757 -0.238143 0.0188667
0.510557 -0.239455 0.0183228
0.511706 -0.241137 0.0175328
0.43633 -0.0117383 0.0383818
0.512438 -0.242444 0.0169108
0.283549 0.00538035 0.0129235
0.283829 0.0036193 0.0134746
0.285165 0.00233025 0.0137958
0.508756 -0.240837 0.0182933
0.510361 -0.242205 0.0175165
0.511574 -0.243278 0.0168628
0.283124 0.00270409 0.0129018
0.283875 0.0010682 0.0139166
0.507733 -0.242221 0.0180768
0.508811 -0.243609 0.0174151
0.509724 -0.244742 0.0166649
0.278055 0.00401986 0.0135774
0.530695 -0.13099 0.0368394
0.433533 -0.0116115 0.0384115
0.279146 0.00259149 0.013407
0.280792 0.00119676 0.0135094
0.283138 0.000772473 0.0135934
0.506133 -0.243645 0.0179734
0.507147 -0.244782 0.0173635
0.508071 -0.246137 0.0165704
0.27713 0.00355851 0.0141654
0.278267 0.00212191 0.013659
0.279285 0.000222114 0.0135573
0.50466 -0.245184 0.0178113
0.505939 -0.246251 0.0171215
0.507028 -0.247314 0.0163988
0.529684 -0.131716 0.0370809
0.530535 -0.132977 0.0367954
0.275576 0.00211127 0.0141777
0.27691 0.000600598 0.0138402
0.278228 -0.00104781 0.0139534
0.279582 -0.00200233 0.0138653
0.503146 -0.246452 0.0178655
0.504707 -0.247874 0.0168318
0.506191 -0.248179 0.0161902
0.274283 0.000672735 0.0136163
0.275353 -0.000875425 0.0138179
0.276772 -0.00262765 0.0139364
0.278145 -0.00389458 0.0140499
0.500897 -0.246742 0.0184747
0.501829 -0.248179 0.017616
0.502894 -0.249124 0.0168295
0.52958 -0.134249 0.0369605
0.272877 -0.00102415 0.012954
0.274261 -0.00215496 0.013564
0.275688 -0.00382676 0.0137589
0.276997 -0.00483721 0.0141141
0.500337 -0.249167 0.017647
0.501683 -0.250853 0.0165029
0.272785 -0.00354824 0.0129717
0.274089 -0.00548458 0.013517
0.498796 -0.25048 0.0175159
0.499818 -0.251858 0.0166008
0.271372 -0.00529269 0.0125287
0.272247 -0.00688727 0.0133074
0.528165 -0.135573 0.0372012
0.497 -0.251635 0.0175481
0.498404 -0.253221 0.016534
0.270085 -0.00694221 0.0130209
0.271179 -0.00810754 0.0136275
0.495598 -0.252947 0.0173679
0.49727 -0.254377 0.0164716
0.269355 -0.00946997 0.0131604
0.521105 -0.129492 0.038999
0.521581 -0.130704 0.0388137
0.27078 -0.0104018 0.0141091
0.494446 -0.254308 0.0170961
0.495222 -0.255557 0.0163959
0.496022 -0.256785 0.015606
0.267183 -0.0095077 0.0128664
0.268562 -0.0105623 0.0126385
0.269698 -0.0121443 0.0136053
0.492035 -0.256085 0.0166298
0.493357 -0.256754 0.0161372
0.494318 -0.257624 0.0154674
0.521396 -0.13354 0.0387779
0.267111 -0.0113752 0.0133568
0.26828 -0.0130837 0.0134727
0.49085 -0.256854 0.0165013
0.492235 -0.257991 0.0158158
0.493251 -0.258934 0.0152246
0.265299 -0.0128756 0.012986
0.266553 -0.0145367 0.0133743
0.26737 -0.0159709 0.0136638
0.487872 -0.257416 0.0167996
0.489451 -0.25818 0.016195
0.490824 -0.259486 0.0154107
0.491845 -0.260419 0.0148351
0.263576 -0.0147618 0.0125455
0.26493 -0.0161947 0.013058
0.265731 -0.0174088 0.0135295
0.485466 -0.257739 0.0169554
0.486727 -0.258344 0.0165628
0.488099 -0.259662 0.015852
0.489479 -0.260839 0.0150858
0.261931 -0.0146513 0.0117778
0.484599 -0.258573 0.0168175
0.485555 -0.259881 0.0162533
0.522446 -0.140223 0.0385371
0.523021 -0.142213 0.0382732
0.524367 -0.143672 0.0377059
0.48677 -0.261291 0.0155054
0.483417 -0.259659 0.0167856
0.483965 -0.261077 0.0162437
0.485184 -0.262615 0.0153787
0.485956 -0.263944 0.0146776
0.259445 -0.0188602 0.0133662
0.260426 -0.0202099 0.0143039
0.521964 -0.143896 0.0383683
0.48236 -0.262254 0.0162045
0.483771 -0.263609 0.0153364
0.484857 -0.264694 0.0146582
0.257778 -0.0195269 0.014618
0.258772 -0.020606 0.015405
0.481304 -0.263685 0.0159851
0.482248 -0.264917 0.0153038
0.483587 -0.26616 0.014391
0.479411 -0.265085 0.0158998
0.48067 -0.266257 0.0151722
0.481789 -0.267657 0.0143209
0.47788 -0.266316 0.0156616
0.479416 -0.267793 0.0147596
0.475271 -0.266747 0.0157512
0.476487 -0.267658 0.0152713
0.477683 -0.269211 0.0144458
0.473057 -0.267549 0.0155144
0.474257 -0.268756 0.0149821
0.475674 -0.269867 0.0143111
0.471555 -0.268408 0.0150757
0.473101 -0.269982 0.0143905
0.474499 -0.270693 0.0141198
0.467204 -0.268035 0.0150626
0.468689 -0.268567 0.0148048
0.470121 -0.269804 0.0142627
0.471583 -0.271089 0.0137433
0.466061 -0.268573 0.014686
0.467379 -0.269878 0.0140941
0.468714 -0.271221 0.0134893
0.469735 -0.27227 0.0131179
0.463871 -0.268517 0.0143924
0.464857 -0.269523 0.014032
0.466216 -0.270938 0.013527
0.467581 -0.272348 0.0129795
0.456243 -0.271971 0.0139362
0.457179 -0.272923 0.0135365
0.45465 -0.273317 0.0136387
0.455617 -0.274292 0.0131764
0.453425 -0.274445 0.0133572
0.518235 -0.152075 0.0381979
0.454349 -0.275739 0.012729
0.455605 -0.277022 0.0120806
0.452902 -0.277156 0.0123395
0.454095 -0.278126 0.0118024
0.451362 -0.278364 0.0120596
0.241341 -0.0558852 0.014927
0.240744 -0.0583897 0.0150955
0.443029 -0.278171 0.0131991
0.239616 -0.0598789 0.0148266
0.439704 -0.278951 0.013168
0.517365 -0.153119 0.0383103
0.517669 -0.154544 0.0379801
0.441172 -0.27948 0.0127977
0.236889 -0.0596838 0.0137966
0.238126 -0.0611118 0.0143816
0.239128 -0.062237 0.0148404
0.437339 -0.278977 0.0133966
0.438558 -0.279594 0.0129777
0.439886 -0.280974 0.0122622
0.437444 -0.28087 0.0124857
0.236961 -0.0657119 0.0143065
0.428444 -0.283242 0.0126189
0.516456 -0.155866 0.0381114
0.516967 -0.157129 0.0377645
0.429809 -0.284454 0.0120184
0.427057 -0.28462 0.0121681
0.428387 -0.286042 0.0114255
0.231078 -0.0766373 0.0126723
0.232447 -0.0779655 0.0131848
0.395407 -0.00977903 0.037246
0.396734 -0.0103984 0.0374055
0.234622 -0.081148 0.0137971
0.235834 -0.0824826 0.0142103
0.229888 -0.0777979 0.0124248
0.230596 -0.0791713 0.0127276
0.22942 -0.080215 0.0123996
0.230711 -0.0818659 0.0127566
0.515644 -0.158376 0.0379613
0.229112 -0.0819847 0.0122853
0.229565 -0.0834809 0.0123408
0.410391 -0.284062 0.0126306
0.411336 -0.285083 0.0121631
0.41385 -0.287898 0.0107035
0.4085 -0.285241 0.0120871
0.394181 -0.0103868 0.0373104
0.395283 -0.0115558 0.0376335
0.409837 -0.286481 0.0115036
0.411136 -0.287636 0.0108958
0.405834 -0.285395 0.0120136
0.407064 -0.286494 0.0115047
0.408363 -0.28777 0.0108824
0.402872 -0.284836 0.0123421
0.399815 -0.285589 0.0121314
0.401386 -0.286133 0.0118059
0.398896 -0.28639 0.0117841
0.399913 -0.28766 0.0111121
0.227114 -0.101821 0.0118121
0.396209 -0.286675 0.0117632
0.392625 -0.0114464 0.0373985
0.39745 -0.287417 0.0113214
0.398766 -0.288789 0.0105543
0.230679 -0.111928 0.0130203
0.231292 -0.113211 0.0132583
0.39268 -0.288596 0.0107694
0.229459 -0.112995 0.0123996
0.230538 -0.114348 0.0128747
0.231228 -0.115605 0.0131129
0.39026 -0.288377 0.0107576
0.391499 -0.289583 0.01019
0.229289 -0.115969 0.0122229
0.230654 -0.11738 0.0126971
0.231442 -0.121559 0.0127453
0.391046 -0.0127011 0.0374138
0.232073 -0.122849 0.0130405
0.230634 -0.123242 0.0122751
0.231693 -0.124918 0.0128633
0.395694 -0.0185031 0.0390569
0.397012 -0.019476 0.0393143
0.376139 -0.285163 0.0110746
0.370528 -0.282605 0.0118206
0.372068 -0.283745 0.0115162
0.373503 -0.28514 0.0109253
0.374714 -0.286564 0.010276
0.375928 -0.28736 0.00994478
0.389696 -0.0142318 0.0374464
0.367795 -0.282366 0.0115594
0.369035 -0.283457 0.0112621
0.370523 -0.28453 0.0109572
0.230738 -0.147241 0.0111777
0.511824 -0.166795 0.0377636
0.512906 -0.16815 0.0373259
0.231824 -0.148532 0.0114356
0.236052 -0.15722 0.0121352
0.234241 -0.157371 0.0113753
0.235715 -0.158978 0.0118197
0.236537 -0.160238 0.0120336
0.343796 -0.276724 0.011083
0.345176 -0.278124 0.0105883
0.346424 -0.27996 0.00998562
0.511097 -0.16844 0.0378119
0.511571 -0.169683 0.0375405
0.347842 -0.281104 0.00976819
0.233187 -0.158775 0.01082
0.234478 -0.160071 0.0111916
0.235798 -0.161367 0.0115927
0.342577 -0.277725 0.0103766
0.343712 -0.279042 0.00992466
0.344862 -0.280054 0.00968863
0.336906 -0.275255 0.011134
0.23814 -0.17018 0.0114465
0.239286 -0.172056 0.0116968
0.334242 -0.275241 0.0106191
0.33538 -0.276436 0.010218
0.23547 -0.169987 0.0103506
0.237011 -0.171593 0.0108021
0.238194 -0.172876 0.0111155
0.379637 -0.0120672 0.036766
0.380376 -0.0129674 0.0369608
0.382169 -0.0142604 0.0371867
0.245424 -0.182559 0.0117844
0.246158 -0.183547 0.0120391
0.327132 -0.270372 0.0111259
0.331236 -0.274467 0.0103172
0.332712 -0.275979 0.00991394
0.334136 -0.277499 0.00947213
0.244485 -0.183363 0.0111866
0.245544 -0.184667 0.0115456
0.24617 -0.185896 0.011738
0.324254 -0.270347 0.0105892
0.378242 -0.0123893 0.0367445
0.379473 -0.0137692 0.0370945
0.325452 -0.271511 0.0103589
0.331766 -0.276943 0.00932375
0.244453 -0.185989 0.0107897
0.245699 -0.187009 0.0113266
0.321501 -0.270105 0.0101548
0.323006 -0.271545 0.00993449
0.324204 -0.27271 0.00969797
0.325555 -0.274206 0.00935664
0.244963 -0.18876 0.010734
0.51417 -0.18229 0.0353087
0.245927 -0.190027 0.0110881
0.30496 -0.256395 0.0113125
0.305832 -0.257318 0.0111113
0.307352 -0.258738 0.0109237
0.320162 -0.271191 0.0094791
0.322023 -0.272555 0.00936304
0.323269 -0.273609 0.00920065
0.324118 -0.274603 0.00896429
0.247655 -0.196105 0.0111982
0.302087 -0.255513 0.0109144
0.303394 -0.256973 0.0106132
0.304841 -0.258267 0.0104565
0.306368 -0.259684 0.0102957
0.307832 -0.261197 0.0100957
0.245634 -0.196038 0.0105436
0.246993 -0.197244 0.0107771
0.248241 -0.19905 0.0108187
0.249574 -0.200654 0.0108907
0.250949 -0.201669 0.0111186
0.25218 -0.203184 0.0112112
0.253496 -0.205104 0.0112997
0.25459 -0.206387 0.0114151
0.29931 -0.255227 0.0101922
0.300676 -0.256329 0.0101219
0.30201 -0.258053 0.00982088
0.303544 -0.259492 0.00974627
0.304734 -0.260685 0.0096615
0.306129 -0.262059 0.00950089
0.244279 -0.197164 0.00985599
0.245458 -0.198411 0.00996065
0.246991 -0.199787 0.0101676
0.248575 -0.201566 0.0102674
0.249545 -0.202803 0.0102686
0.251028 -0.204365 0.0104107
0.252508 -0.205931 0.0106161
0.253612 -0.207211 0.0107159
0.254793 -0.208751 0.010814
0.284059 -0.242123 0.0108746
0.285474 -0.243704 0.010923
0.286608 -0.244967 0.0109535
0.288055 -0.246514 0.0108992
0.292661 -0.250209 0.010513
0.296793 -0.254711 0.00962602
0.298508 -0.256039 0.00959267
0.299657 -0.257297 0.00943354
0.303755 -0.261615 0.00918558
0.243271 -0.198005 0.00930272
0.244117 -0.198942 0.00931841
0.25252 -0.20866 0.00981926
0.253813 -0.210307 0.00997837
0.254835 -0.211808 0.0100734
0.255904 -0.213653 0.0100548
0.258542 -0.216462 0.0102247
0.259973 -0.218034 0.0102301
0.264114 -0.222383 0.0106996
0.265426 -0.223901 0.0108543
0.505891 -0.191156 0.0341198
0.266505 -0.225416 0.0108372
0.267903 -0.226997 0.0107977
0.284484 -0.244601 0.0103353
0.285631 -0.245852 0.0103272
0.501183 -0.187987 0.0355136
0.502123 -0.189199 0.0349626
0.503216 -0.19054 0.034193
0.504506 -0.192061 0.0333722
0.505643 -0.193383 0.0326998
0.287129 -0.247341 0.0102891
0.254807 -0.214827 0.00933923
0.256189 -0.216274 0.00947743
0.257258 -0.217577 0.00948638
0.258611 -0.218905 0.00954799
0.499663 -0.189125 0.0350918
0.500448 -0.190211 0.0344724
0.501528 -0.191516 0.0336294
0.50281 -0.193005 0.0328456
0.264302 -0.225063 0.0101737
0.265442 -0.226318 0.0101895
0.266643 -0.228043 0.00997238
0.283092 -0.245672 0.00943363
0.284631 -0.246758 0.00959822
0.498049 -0.190312 0.0345823
0.4988 -0.191315 0.0340653
0.499932 -0.192761 0.0332572
0.501005 -0.193906 0.0326083
0.254338 -0.216168 0.00879653
0.255183 -0.217127 0.00884265
0.256032 -0.218084 0.00887719
0.321407 -0.298188 0.00628896
0.365938 -0.0289107 0.0382967
0.497013 -0.192441 0.033884
0.498092 -0.193983 0.0330522
0.499253 -0.1955 0.0323212
0.525329 -0.213069 0.0213427
0.52628 -0.214168 0.0209223
0.527704 -0.215661 0.0203479
0.36351 -0.0291436 0.0380092
0.364359 -0.0301536 0.0383006
0.495502 -0.194143 0.0336288
0.496354 -0.195447 0.0330459
0.497891 -0.197031 0.0323063
0.498568 -0.198977 0.0316068
0.498999 -0.200093 0.0312872
0.529017 -0.216541 0.0200444
0.308557 0.0201411 0.0155989
0.309536 0.0188489 0.0157627
0.362016 -0.0304616 0.0380214
0.363097 -0.0311518 0.0382873
0.493741 -0.195368 0.0337517
0.494975 -0.19685 0.0330591
0.496359 -0.198441 0.0322822
0.497444 -0.199833 0.0317772
0.498472 -0.201193 0.0312194
0.31087 0.0170446 0.016176
0.312219 0.015512 0.0163047
0.524878 -0.213462 0.0212382
0.525464 -0.214652 0.0206602
0.360542 -0.0315023 0.0378498
0.492304 -0.19632 0.03383
0.493416 -0.198029 0.0331271
0.494845 -0.199627 0.0322927
0.49585 -0.20099 0.0317426
0.496887 -0.202668 0.0311806
0.527098 -0.216293 0.0196146
0.30778 0.0198623 0.0165521
0.308584 0.0182063 0.016559
0.309821 0.0161956 0.0171693
0.35871 -0.0330017 0.0377541
0.49085 -0.197662 0.0337676
0.491923 -0.199259 0.0330868
0.493287 -0.20076 0.0323696
0.494337 -0.202252 0.0317152
0.495263 -0.203676 0.0312029
0.311056 0.0151286 0.0171183
0.524404 -0.215689 0.0205446
0.525695 -0.216621 0.0198299
0.306629 0.0188021 0.0166868
0.357291 -0.0342029 0.0378525
0.357769 -0.0353476 0.0382781
0.489429 -0.198771 0.0337508
0.490445 -0.200386 0.0330378
0.491681 -0.201945 0.0323958
0.492621 -0.203368 0.0317988
0.493668 -0.204955 0.0311782
0.35064 -0.0293836 0.0363936
0.351705 -0.0306178 0.036819
0.307237 0.017507 0.0173065
0.308666 0.0159975 0.0179616
0.355652 -0.0352376 0.038179
0.356514 -0.0362526 0.0385454
0.489009 -0.201642 0.033079
0.490045 -0.203148 0.0324778
0.491153 -0.20457 0.0319047
0.492214 -0.206097 0.031259
0.349589 -0.0305502 0.0367801
0.350232 -0.0316505 0.0372397
0.35142 -0.033238 0.0377379
0.352861 -0.0349221 0.0383456
0.354072 -0.0363208 0.0388159
0.355232 -0.0370996 0.0390485
0.487433 -0.203206 0.0330864
0.488496 -0.20452 0.0326108
0.489432 -0.206063 0.032099
0.490676 -0.207263 0.0314304
0.347959 -0.0316818 0.0372063
0.348538 -0.0325902 0.0375409
0.349569 -0.0341054 0.0380824
0.351033 -0.035799 0.0387083
0.352552 -0.0373596 0.0392897
0.485923 -0.204439 0.0330553
0.487027 -0.205811 0.0325823
0.487975 -0.207249 0.0321332
0.489277 -0.208753 0.03153
0.34629 -0.032851 0.0375197
0.346983 -0.0340448 0.0379629
0.347955 -0.035384 0.0385312
0.349523 -0.0370854 0.0391035
0.350657 -0.0384213 0.0396693
0.484439 -0.205838 0.0331084
0.485365 -0.207072 0.0326172
0.486543 -0.208469 0.0321455
0.487587 -0.20974 0.0316474
0.344608 -0.0340906 0.0377226
0.345239 -0.0350812 0.0380671
0.346321 -0.0366996 0.0387974
0.347933 -0.0384087 0.0393171
0.349123 -0.0399516 0.0398835
0.482717 -0.206799 0.0331636
0.483943 -0.208397 0.0326328
0.48504 -0.209756 0.0321184
0.48634 -0.211164 0.0315802
0.342732 -0.0352844 0.0377546
0.343718 -0.0366337 0.0383093
0.344687 -0.0380166 0.0388411
0.34623 -0.0397177 0.0393863
0.347535 -0.0412839 0.0399489
0.481389 -0.208303 0.0330661
0.482442 -0.209777 0.0324711
0.483554 -0.21094 0.0320357
0.48486 -0.212391 0.031494
0.34111 -0.0364111 0.0377627
0.342094 -0.037697 0.0382741
0.343071 -0.0392664 0.0388693
0.344589 -0.0410063 0.0394226
0.34563 -0.0422625 0.039859
0.479791 -0.209518 0.033001
0.480899 -0.211046 0.0323513
0.482147 -0.212416 0.0318582
0.483268 -0.213624 0.0313826
0.33948 -0.0376682 0.0377924
0.340677 -0.0389375 0.0383588
0.341752 -0.0402586 0.0388407
0.342849 -0.0422088 0.0394041
0.343665 -0.0437358 0.0397676
0.475363 -0.208552 0.0340308
0.476372 -0.209416 0.0335305
0.478058 -0.210461 0.032924
0.479692 -0.212206 0.0322244
0.480726 -0.213666 0.0317149
0.481713 -0.214971 0.0312426
0.338442 -0.0389456 0.0379186
0.338806 -0.0401143 0.0382787
0.339946 -0.0415923 0.0388168
0.341169 -0.0434677 0.0392985
0.342491 -0.0450641 0.0397939
0.474231 -0.209076 0.0340868
0.475227 -0.210464 0.0334353
0.476246 -0.211898 0.0328173
0.477904 -0.213408 0.0321734
0.479548 -0.214621 0.0315861
0.337276 -0.0413061 0.0381643
0.338462 -0.0429527 0.0386731
0.339713 -0.0447797 0.0392105
0.340876 -0.0461917 0.0396762
0.341371 -0.0474989 0.0400769
0.472673 -0.210445 0.0338895
0.47366 -0.211846 0.0332638
0.475043 -0.213025 0.0327185
0.476112 -0.214509 0.0321739
0.33571 -0.0429284 0.0380875
0.336924 -0.0442149 0.0385977
0.338099 -0.0458429 0.0390986
0.339259 -0.0473789 0.0395052
0.340282 -0.0484723 0.0399153
0.470852 -0.211376 0.0339435
0.47208 -0.21312 0.033178
0.473455 -0.214282 0.032638
0.474753 -0.216041 0.0319626
0.33522 -0.0453542 0.038581
0.336783 -0.0469681 0.0391489
0.33775 -0.04859 0.0394736
0.338551 -0.0500082 0.0399423
0.469409 -0.212635 0.0338881
0.470468 -0.214309 0.0332087
0.471589 -0.215534 0.0327148
0.473151 -0.217229 0.0319965
0.473813 -0.218807 0.0314977
0.333689 -0.0465478 0.0385912
0.335111 -0.048101 0.0391267
0.335982 -0.0494709 0.0395497
0.337265 -0.0512183 0.0399952
0.467924 -0.214138 0.0337561
0.468898 -0.215441 0.0332479
0.470198 -0.21702 0.0326415
0.471684 -0.218412 0.0320467
0.472529 -0.219787 0.0315555
0.331922 -0.0478229 0.0386349
0.333463 -0.0493289 0.0391461
0.334368 -0.0512049 0.0395951
0.335561 -0.0525823 0.0399693
0.466382 -0.215374 0.0337838
0.467357 -0.216689 0.0333099
0.468609 -0.21823 0.0326673
0.470183 -0.219878 0.0318816
0.471141 -0.22129 0.0313753
0.330484 -0.049041 0.0385215
0.332088 -0.0508374 0.0392149
0.332783 -0.0525958 0.039531
0.334031 -0.054162 0.0399255
0.464822 -0.216613 0.0336863
0.465765 -0.217936 0.0331875
0.467226 -0.219592 0.0325279
0.468609 -0.221142 0.0318781
0.469688 -0.222352 0.0313658
0.32879 -0.0504015 0.0383809
0.330235 -0.0522724 0.0390069
0.33123 -0.053517 0.0393758
0.332654 -0.0555696 0.0397583
0.463244 -0.217914 0.033572
0.464307 -0.219047 0.0330268
0.465547 -0.220334 0.0324651
0.466811 -0.22218 0.0318765
0.467812 -0.223583 0.0313125
0.327531 -0.0521295 0.0384123
0.328317 -0.0536956 0.0386651
0.329462 -0.0549371 0.0390791
0.330769 -0.0567612 0.0394024
0.461468 -0.218924 0.0334715
0.462952 -0.22054 0.0327804
0.464022 -0.221729 0.0322899
0.465258 -0.223526 0.0316856
0.326646 -0.0549332 0.0383018
0.327723 -0.0562735 0.0386763
0.32949 -0.0580441 0.0391763
0.329967 -0.0598987 0.03948
0.459932 -0.220071 0.0333807
0.461479 -0.221664 0.0326722
0.462469 -0.223086 0.032171
0.463668 -0.224616 0.0316776
0.326033 -0.0557005 0.0382981
0.326265 -0.0577448 0.0384829
0.327913 -0.0590603 0.0389422
0.328913 -0.0609622 0.0392773
0.457036 -0.220369 0.0337052
0.458565 -0.221549 0.0332242
0.459923 -0.22301 0.0325749
0.460915 -0.224375 0.0320802
0.461918 -0.225837 0.0315994
0.325072 -0.0589714 0.038432
0.326458 -0.0605815 0.0387696
0.327714 -0.0619433 0.039159
0.328209 -0.0634124 0.039412
0.455793 -0.221421 0.0336232
0.457113 -0.22266 0.0330837
0.45836 -0.224433 0.0324205
0.459353 -0.225851 0.0319296
0.46011 -0.226848 0.0315275
0.324248 -0.0602032 0.0384243
0.324772 -0.0617835 0.0387111
0.326061 -0.0630735 0.0389837
0.327039 -0.0646711 0.0392912
0.327371 -0.0658216 0.0394792
0.453979 -0.222399 0.0336338
0.455553 -0.224002 0.0329368
0.456901 -0.225709 0.0322659
0.458165 -0.226799 0.0318118
0.322824 -0.0616644 0.0383791
0.323245 -0.063129 0.0386117
0.324311 -0.0643438 0.0388756
0.325645 -0.0661208 0.0391845
0.326521 -0.0669448 0.0394331
0.449625 -0.221495 0.0344305
0.451218 -0.222213 0.0340745
0.452756 -0.223535 0.0334901
0.453991 -0.225289 0.032781
0.455501 -0.227149 0.0320342
0.321796 -0.0642964 0.0385205
0.322994 -0.0658396 0.038631
0.324172 -0.0672713 0.0390295
0.325119 -0.0688825 0.0394039
0.448677 -0.222234 0.0343403
0.449868 -0.223624 0.0338363
0.451201 -0.224988 0.0333115
0.452183 -0.226363 0.0327151
0.453441 -0.227889 0.0320071
0.32039 -0.0652758 0.0383747
0.321612 -0.0670127 0.0385788
0.322977 -0.0683311 0.0389222
0.323911 -0.0697619 0.039261
0.324453 -0.0710086 0.0395281
0.447104 -0.223453 0.0341554
0.4482 -0.224684 0.0337005
0.449637 -0.226404 0.0329943
0.450611 -0.227688 0.0324535
0.451604 -0.229048 0.0318761
0.31901 -0.0668875 0.0381806
0.319706 -0.0680051 0.0383517
0.321006 -0.0695524 0.0387147
0.322087 -0.0708572 0.0389544
0.322861 -0.0724066 0.0393318
0.44554 -0.22474 0.0339606
0.446824 -0.226157 0.033448
0.448065 -0.227751 0.0328116
0.449358 -0.228725 0.0323013
0.450348 -0.229992 0.0316905
0.317543 -0.0677837 0.0377149
0.318218 -0.0691447 0.0379194
0.319732 -0.070414 0.0382339
0.320784 -0.071673 0.0385678
0.322163 -0.0730092 0.0389876
0.322412 -0.0748574 0.039445
0.443803 -0.225468 0.0338241
0.445236 -0.227117 0.0332398
0.446285 -0.228992 0.0325181
0.447786 -0.230066 0.0319725
0.448778 -0.231202 0.0313904
0.317643 -0.0697519 0.0374476
0.318636 -0.0712235 0.0379389
0.319677 -0.0724816 0.0382689
0.320984 -0.0741015 0.0389585
0.321937 -0.0750945 0.0393851
0.442405 -0.22674 0.0334326
0.443531 -0.228074 0.0329031
0.44495 -0.229686 0.0322909
0.317005 -0.0708223 0.0374012
0.317587 -0.0721198 0.037995
0.318489 -0.0734814 0.0385796
0.319832 -0.075144 0.0392266
0.321086 -0.076851 0.0401189
0.440897 -0.22793 0.0329843
0.442105 -0.229441 0.0323916
0.443155 -0.23071 0.0318411
0.316084 -0.072064 0.0378956
0.316616 -0.072929 0.0383605
0.317191 -0.074431 0.0390299
0.318427 -0.0759879 0.0395573
0.524161 -0.216252 0.0214639
0.52535 -0.217516 0.0208788
0.497784 -0.0344325 0.0371402
0.304202 0.0193462 0.0156748
0.305083 0.0179792 0.0167517
0.501315 -0.0394026 0.0370893
0.502333 -0.0406704 0.0370867
0.503866 -0.0420545 0.0370131
0.504971 -0.043597 0.0370538
0.506165 -0.0454142 0.0371382
0.507712 -0.0467809 0.0370488
0.509097 -0.0482729 0.0369694
0.306299 0.016065 0.0165944
0.307639 0.0155607 0.0179355
0.522863 -0.216909 0.0216287
0.516558 -0.0579193 0.0369891
0.517799 -0.0595261 0.0370121
0.518877 -0.060748 0.0369808
0.51989 -0.0625482 0.0370156
0.523928 -0.218624 0.0210114
0.302537 0.0193113 0.0150487
0.303638 0.018473 0.01538
0.304616 0.0165676 0.0161011
0.305888 0.0155471 0.0159807
0.521683 -0.218472 0.0215528
0.52324 -0.220255 0.0209611
0.524488 -0.221664 0.0203038
0.302344 0.0169887 0.0153296
0.303686 0.0153844 0.0159245
0.520797 -0.220364 0.0215027
0.521692 -0.221587 0.0210338
0.523113 -0.223073 0.0202928
0.301034 0.0155311 0.0149218
0.302343 0.0137238 0.015605
0.52 -0.2228 0.021116
0.521554 -0.224458 0.0202682
0.29926 0.014336 0.0146215
0.301138 0.0125608 0.0155048
0.518742 -0.224568 0.0208836
0.519922 -0.22559 0.0203038
0.519946 -0.227344 0.0197417
0.296219 0.0136982 0.0150838
0.297947 0.0126525 0.0148405
0.29936 0.0111896 0.0156046
0.51817 -0.226862 0.0202814
0.515176 -0.0590141 0.0375064
0.516445 -0.0605937 0.0374978
0.517518 -0.0618195 0.0374488
0.519111 -0.228349 0.0196275
0.295683 0.0130971 0.0151524
0.296646 0.0113072 0.0152486
0.297537 0.00969148 0.0156027
0.516478 -0.228652 0.0201607
0.517694 -0.229886 0.0195497
0.295754 0.0106307 0.0153574
0.481082 -0.0207403 0.0368611
0.482144 -0.0216209 0.0368901
0.483166 -0.022732 0.0369628
0.484475 -0.0242557 0.0370888
0.485774 -0.0257947 0.0372196
0.296751 0.00902628 0.0152615
0.514999 -0.229766 0.0201262
0.516196 -0.231192 0.019426
0.517306 -0.232175 0.0189238
0.294103 0.00880628 0.0149087
0.295565 0.00804128 0.0156463
0.295918 0.00604111 0.0158603
0.511877 -0.230815 0.0205976
0.513226 -0.2312 0.0200503
0.49853 -0.0414605 0.0379076
0.499706 -0.0428287 0.0379053
0.50096 -0.0444268 0.0379506
0.51459 -0.232372 0.0194465
0.515823 -0.233662 0.0187332
0.292778 0.00801835 0.0146925
0.293427 0.00635921 0.0149454
0.294487 0.00484812 0.015557
0.510491 -0.231404 0.0206263
0.511994 -0.232607 0.0199064
0.5111 -0.0570822 0.0378686
0.512402 -0.0585309 0.037904
0.513849 -0.0600675 0.0379067
0.515101 -0.0616563 0.0378954
0.516253 -0.0631261 0.0378357
0.517519 -0.0647466 0.0377421
0.518433 -0.0662707 0.0377116
0.513394 -0.233922 0.0192122
0.514454 -0.234635 0.0187948
0.290921 0.00621626 0.0144666
0.291953 0.0047377 0.0149069
0.293061 0.0034953 0.0152983
0.508886 -0.231531 0.020997
0.509214 -0.232471 0.0204655
0.510312 -0.234099 0.0197017
0.511997 -0.235132 0.0191595
0.289028 0.00463921 0.0145793
0.479693 -0.0210017 0.0371081
0.480904 -0.0224643 0.0372279
0.481909 -0.0237623 0.0373118
0.29004 0.00316368 0.0148017
0.291718 0.00225079 0.01521
0.507951 -0.233732 0.0202632
0.508745 -0.235378 0.0196539
0.510117 -0.236458 0.0191757
0.489473 -0.0332475 0.0383229
0.491026 -0.034778 0.0383979
0.492297 -0.03635 0.0384279
0.49355 -0.0381924 0.0384198
0.494553 -0.0397188 0.0384201
0.495562 -0.0409862 0.0383922
0.496797 -0.0423821 0.0383807
0.498369 -0.0439351 0.038361
0.499646 -0.0455044 0.0384101
0.287714 0.00327974 0.0142935
0.28894 0.00222028 0.0146533
0.289932 0.00095738 0.0152302
0.506764 -0.235113 0.0201859
0.508491 -0.0565755 0.0382546
0.509757 -0.0581556 0.0382419
0.511315 -0.0596739 0.0382283
0.512901 -0.0608243 0.0381445
0.513839 -0.0629264 0.0382189
0.514818 -0.0644762 0.0381892
0.516183 -0.0657981 0.0380506
0.516954 -0.0676029 0.0380752
0.51808 -0.0691359 0.0380243
0.519372 -0.0707052 0.0379924
0.5206 -0.0723037 0.0379397
0.521827 -0.0738976 0.0378362
0.507564 -0.236386 0.0196794
0.508676 -0.23802 0.0190515
0.286397 0.00175736 0.0143272
0.287313 0.000533457 0.0147019
0.28837 -0.000491456 0.0151335
0.505109 -0.23669 0.0201742
0.506146 -0.237698 0.0196718
0.507276 -0.239219 0.0190911
0.476767 -0.02062 0.0374098
0.478077 -0.0220182 0.0375328
0.285193 -0.00123733 0.0153756
0.286417 -0.00184457 0.0153686
0.503978 -0.237796 0.0201726
0.504677 -0.239164 0.0196527
0.505902 -0.240531 0.0190219
0.506941 -0.241567 0.0184809
0.281785 -0.000822938 0.0140865
0.28319 -0.00158157 0.0162607
0.517377 -0.0702131 0.0382341
0.518387 -0.0714795 0.0382066
0.519644 -0.0730653 0.0381458
0.5209 -0.0746501 0.0380857
0.502493 -0.239488 0.0201835
0.503476 -0.240417 0.0197098
0.504786 -0.241732 0.0190148
0.505261 -0.242873 0.0184515
0.281099 -0.00198862 0.0161171
0.501307 -0.240631 0.0202386
0.50187 -0.241822 0.0196924
0.503302 -0.243176 0.0188667
0.503908 -0.244424 0.0182792
0.280449 -0.00355576 0.0150207
0.28082 -0.0047747 0.0157516
0.473869 -0.0201931 0.0377326
0.474942 -0.0218817 0.0379743
0.47619 -0.0232517 0.0380623
0.500268 -0.243287 0.0196303
0.501839 -0.244789 0.01874
0.278861 -0.00446726 0.0140315
0.279962 -0.00596174 0.0152117
0.280636 -0.00730803 0.0161429
0.49908 -0.244527 0.0195948
0.499924 -0.245999 0.0189337
0.276949 -0.00593138 0.0143391
0.278692 -0.00754841 0.0150759
0.279834 -0.00805447 0.0157756
0.49751 -0.246126 0.0194143
0.529004 -0.0890427 0.0367143
0.529917 -0.0902772 0.0365245
0.53105 -0.0921434 0.0363324
0.498695 -0.247816 0.0186433
0.467269 -0.0153196 0.0371536
0.275727 -0.00730528 0.0144981
0.470116 -0.0182109 0.0377814
0.277088 -0.00885253 0.0150192
0.495866 -0.247589 0.0192275
0.473947 -0.0225285 0.0383037
0.497373 -0.248931 0.0184661
0.27564 -0.00996265 0.015211
0.493213 -0.248078 0.0194416
0.494236 -0.248969 0.0189238
0.495784 -0.250318 0.0182554
0.274275 -0.0111774 0.0156735
0.489981 -0.248413 0.0196946
0.491365 -0.24884 0.0192827
0.527669 -0.0900594 0.0372334
0.528737 -0.0913207 0.037002
0.530011 -0.092909 0.0367365
0.492645 -0.25034 0.0186236
0.532192 -0.0964161 0.036367
0.494045 -0.251614 0.0179906
0.533693 -0.0993822 0.0361116
0.488985 -0.249228 0.0194431
0.465901 -0.0165085 0.0377085
0.467338 -0.0177907 0.0379956
0.468606 -0.0188211 0.0381605
0.489916 -0.250093 0.0188899
0.491172 -0.251262 0.0183568
0.492571 -0.252606 0.01785
0.493712 -0.253559 0.0174434
0.271113 -0.0133641 0.015068
0.272324 -0.0153894 0.015603
0.530641 -0.0974002 0.0369278
0.531885 -0.0991848 0.0366748
0.533196 -0.100774 0.0363626
0.272901 -0.0168124 0.0154873
0.487115 -0.250343 0.0191819
0.488274 -0.251458 0.0185588
0.489471 -0.252617 0.0181231
0.490841 -0.253869 0.0175638
0.492316 -0.254989 0.0170292
0.464446 -0.0174017 0.0381644
0.269637 -0.0145672 0.0144009
0.529429 -0.0989288 0.0373485
0.530495 -0.100195 0.0371166
0.531838 -0.101779 0.0368177
0.270779 -0.0167234 0.0150787
0.271852 -0.0186653 0.0151936
0.485694 -0.251644 0.0188496
0.486887 -0.252835 0.0183159
0.48808 -0.253983 0.0178182
0.489415 -0.25531 0.0172227
0.490726 -0.255984 0.0168128
0.268298 -0.016251 0.0139146
0.528746 -0.0999958 0.0375508
0.529353 -0.101222 0.0374402
0.269715 -0.0175356 0.014349
0.271271 -0.0195362 0.0153741
0.484159 -0.252388 0.0188365
0.485559 -0.253661 0.0182729
0.486713 -0.2555 0.0174706
0.488308 -0.256304 0.0171418
0.266705 -0.0187985 0.0140595
0.268289 -0.0194949 0.01463
0.268913 -0.0209094 0.0149794
0.482603 -0.253734 0.0187456
0.484033 -0.255053 0.01803
0.48535 -0.256813 0.0172649
0.481344 -0.255463 0.0183866
0.482767 -0.256794 0.0177112
0.48389 -0.257835 0.0171892
0.533716 -0.110649 0.0364096
0.534877 -0.112228 0.0360505
0.535623 -0.113465 0.0358342
0.480058 -0.256596 0.0182644
0.481392 -0.257795 0.0177064
0.482226 -0.259506 0.0171248
0.261404 -0.0215896 0.0155761
0.26277 -0.023058 0.0160664
0.478314 -0.257829 0.0182505
0.479598 -0.259194 0.0177016
0.480814 -0.260846 0.0169702
0.260108 -0.0224783 0.0162205
0.534577 -0.114985 0.0362457
0.535595 -0.116634 0.0359532
0.47637 -0.258871 0.0181645
0.478028 -0.260405 0.0175426
0.47963 -0.262014 0.0169208
0.480577 -0.26296 0.0164112
0.475042 -0.260224 0.017961
0.476494 -0.261896 0.0173843
0.478083 -0.263491 0.0166726
0.479288 -0.264105 0.0161861
0.473306 -0.261419 0.0178434
0.47481 -0.263292 0.0170426
0.476424 -0.264899 0.0163124
0.472146 -0.263075 0.0174493
0.53633 -0.120191 0.0356856
0.473503 -0.264435 0.0167614
0.474831 -0.265759 0.0161932
0.469755 -0.264843 0.0169053
0.471898 -0.265657 0.0163838
0.472944 -0.266845 0.0158209
0.468594 -0.265627 0.0165541
0.470049 -0.266874 0.0158181
0.464951 -0.264652 0.0167603
0.533817 -0.120657 0.0364188
0.535228 -0.122079 0.0359398
0.535666 -0.123875 0.0356723
0.466267 -0.265609 0.0163212
0.467362 -0.266824 0.0157045
0.468863 -0.267381 0.0155267
0.253704 -0.0366177 0.0171219
0.254081 -0.0381167 0.0174975
0.46197 -0.264379 0.0164017
0.4634 -0.265498 0.0160226
0.464979 -0.266944 0.0154554
0.533818 -0.123635 0.0362256
0.251831 -0.0366171 0.0161447
0.252139 -0.0376817 0.0164969
0.25336 -0.0391692 0.0172557
0.253916 -0.0404771 0.0176036
0.456059 -0.268795 0.0149753
0.457342 -0.270089 0.0143692
0.454608 -0.270317 0.0147239
0.455601 -0.271321 0.0142379
0.247703 -0.0478454 0.0162883
0.532204 -0.124879 0.0366112
0.248803 -0.0491898 0.0169619
0.453004 -0.27166 0.0144955
0.454011 -0.272677 0.0139705
0.246359 -0.0488129 0.0157932
0.247446 -0.0501527 0.0164972
0.452736 -0.273746 0.0137276
0.242994 -0.0573778 0.0158533
0.442892 -0.275089 0.0146086
0.241659 -0.0585857 0.0154934
0.440086 -0.275221 0.015024
0.441393 -0.27652 0.0141636
0.442354 -0.277476 0.0135841
0.240778 -0.0596903 0.0152551
0.241129 -0.0613459 0.0155379
0.437628 -0.275692 0.0151448
0.438642 -0.276708 0.0144365
0.439995 -0.277824 0.0137007
0.441436 -0.278301 0.0132951
0.435111 -0.0100777 0.0379252
0.239818 -0.0630032 0.0151556
0.435853 -0.276825 0.014709
0.53176 -0.13028 0.0365843
0.532483 -0.131814 0.0363372
0.533809 -0.133433 0.0358643
0.43721 -0.278019 0.0139026
0.238568 -0.0672093 0.0149856
0.241891 -0.0713227 0.0163726
0.238185 -0.0699006 0.0148714
0.239313 -0.0712234 0.0152992
0.428553 -0.277815 0.0147567
0.433273 -0.0104212 0.0380775
0.531314 -0.133667 0.0365478
0.53235 -0.134744 0.0361931
0.429794 -0.278872 0.0141822
0.42618 -0.277798 0.0149031
0.427368 -0.278773 0.014415
0.428622 -0.28007 0.0137958
0.425909 -0.280264 0.013854
0.427156 -0.281571 0.013306
0.236574 -0.0793971 0.0145133
0.530658 -0.134749 0.0366458
0.531025 -0.136195 0.0364235
0.531932 -0.13754 0.0360341
0.419024 -0.278879 0.0148111
0.235605 -0.0801776 0.0141366
0.236817 -0.0820362 0.014694
0.417509 -0.280032 0.01428
0.408738 -0.279943 0.0143113
0.410015 -0.281203 0.0138172
0.411257 -0.282541 0.0132757
0.529591 -0.137234 0.0367056
0.40758 -0.280984 0.0138788
0.40884 -0.282388 0.0133099
0.40977 -0.283396 0.0129103
0.234504 -0.0953193 0.0146133
0.235594 -0.0967558 0.0151108
0.420551 -0.00416896 0.0364823
0.236187 -0.098511 0.0153362
0.404598 -0.280897 0.0139216
0.405902 -0.282438 0.0132523
0.407325 -0.283747 0.0127159
0.408832 -0.284125 0.012589
0.232931 -0.0965687 0.0139709
0.233977 -0.0979216 0.0144006
0.235184 -0.0994752 0.0149042
0.236554 -0.100904 0.0154774
0.417766 -0.00389778 0.0364112
0.402821 -0.282093 0.013485
0.404269 -0.28347 0.0128522
0.405808 -0.284533 0.0123816
0.236364 -0.103664 0.0153836
0.401637 -0.283312 0.0130472
0.402849 -0.283974 0.0127121
0.233914 -0.103581 0.0143317
0.414801 -0.00364196 0.0363615
0.235092 -0.10504 0.0148244
0.235716 -0.106621 0.0151263
0.398867 -0.28334 0.0131944
0.400155 -0.284469 0.0126254
0.232548 -0.104945 0.013807
0.2336 -0.10629 0.0142253
0.234853 -0.107661 0.0147666
0.397326 -0.284656 0.0126962
0.410308 -0.00238213 0.0360877
0.411957 -0.00329629 0.0363111
0.398262 -0.285689 0.0121718
0.391941 -0.281646 0.0139077
0.393366 -0.282798 0.0135103
0.233441 -0.112048 0.0142229
0.234704 -0.11369 0.0147718
0.235289 -0.114968 0.0150563
0.232215 -0.113343 0.0136642
0.23321 -0.114662 0.0140694
0.531542 -0.152948 0.0346938
0.234479 -0.116251 0.0146444
0.384795 -0.280476 0.0138904
0.409131 -0.00288628 0.0361789
0.386007 -0.281221 0.0135649
0.231413 -0.114461 0.0132552
0.232325 -0.116095 0.0135998
0.233582 -0.117672 0.0141085
0.234559 -0.119299 0.0144628
0.23499 -0.120876 0.0146024
0.383256 -0.28149 0.0132789
0.384846 -0.282511 0.0128351
0.232813 -0.118747 0.0136344
0.2331 -0.120596 0.0136374
0.234276 -0.121976 0.0142137
0.381866 -0.282794 0.0125268
0.383675 -0.283174 0.0124118
0.233042 -0.123281 0.0135562
0.232614 -0.124727 0.0133546
0.233039 -0.126323 0.0136404
0.234342 -0.127703 0.0143355
0.235059 -0.129281 0.0145867
0.235762 -0.130534 0.0147855
0.37489 -0.281106 0.0132172
0.376149 -0.282242 0.0127123
0.233974 -0.130343 0.0139738
0.235272 -0.131904 0.0144055
0.371947 -0.280778 0.0128701
0.373246 -0.282385 0.0123401
0.374673 -0.283151 0.0121058
0.234364 -0.133107 0.013838
0.23566 -0.134657 0.0142166
0.369355 -0.280688 0.0124183
0.370532 -0.281738 0.0121747
0.371713 -0.282558 0.011991
0.364907 -0.278905 0.0127057
0.366305 -0.280284 0.0121837
0.368164 -0.281236 0.0120248
0.353691 -0.276168 0.0127854
0.232255 -0.145885 0.0122325
0.349793 -0.274712 0.0132162
0.350974 -0.275558 0.0128727
0.352374 -0.276922 0.0122722
0.344751 -0.273167 0.0133106
0.346734 -0.274353 0.0129505
0.348288 -0.275651 0.0124645
0.349767 -0.276593 0.0121388
0.35093 -0.277784 0.011664
0.23722 -0.157682 0.0126201
0.238641 -0.159231 0.0131021
0.239887 -0.16053 0.01355
0.34266 -0.273041 0.0131188
0.343837 -0.274092 0.0126378
0.34501 -0.275349 0.0120538
0.236689 -0.159057 0.0122368
0.237503 -0.160317 0.0124664
0.238445 -0.161593 0.0127557
0.340311 -0.272748 0.0130464
0.341454 -0.273989 0.0124262
0.342633 -0.27522 0.0117923
0.343809 -0.275915 0.0115425
0.336804 -0.272741 0.0125662
0.338212 -0.27339 0.012407
0.339938 -0.274619 0.0118891
0.526648 -0.166783 0.0343597
0.240909 -0.170461 0.0126727
0.24957 -0.180831 0.0142046
0.328617 -0.266639 0.0130432
0.329733 -0.267975 0.0127854
0.335565 -0.273474 0.0118775
0.336659 -0.274456 0.0115396
0.240005 -0.171514 0.0121006
0.525649 -0.168028 0.0346076
0.248811 -0.181967 0.0136252
0.249602 -0.183406 0.0138595
0.394371 -0.00699903 0.0365498
0.395526 -0.00860401 0.0369825
0.397125 -0.00931745 0.0371597
0.327335 -0.267388 0.0123633
0.328735 -0.269054 0.0120468
0.330465 -0.270394 0.0119513
0.333424 -0.273361 0.0113882
0.334323 -0.274204 0.0111797
0.246355 -0.181762 0.0123978
0.393673 -0.00932247 0.0370561
0.247329 -0.183275 0.0126519
0.523915 -0.172227 0.0344864
0.320063 -0.263134 0.0120716
0.327255 -0.269279 0.0115756
0.247382 -0.186324 0.0123277
0.310801 -0.256083 0.013126
0.391073 -0.00953801 0.0368696
0.391812 -0.0104323 0.0371114
0.521383 -0.172021 0.0352342
0.522263 -0.173416 0.0347452
0.523254 -0.175086 0.03416
0.318768 -0.264129 0.0114257
0.246536 -0.187663 0.0116869
0.247513 -0.188928 0.0120399
0.389489 -0.0107874 0.0368625
0.390226 -0.0116783 0.0371279
0.51974 -0.173527 0.0353335
0.52063 -0.17462 0.0349245
0.52202 -0.176359 0.0342574
0.522705 -0.177902 0.0337934
0.305296 -0.253625 0.0127995
0.306439 -0.254497 0.0126414
0.307858 -0.25533 0.0126207
0.309567 -0.256664 0.0124576
0.388188 -0.0117332 0.0368576
0.389069 -0.0131985 0.037171
0.310993 -0.258234 0.0121182
0.519334 -0.175591 0.0350552
0.24681 -0.190076 0.0115406
0.52181 -0.178944 0.0338508
0.254744 -0.200707 0.0128487
0.256013 -0.202223 0.0130677
0.29542 -0.245517 0.0130337
0.296585 -0.246734 0.012951
0.386579 -0.0129365 0.0369057
0.387424 -0.0142295 0.0371622
0.298031 -0.248268 0.0128796
0.300934 -0.251311 0.0126973
0.520419 -0.180219 0.0339914
0.302089 -0.252536 0.0124808
0.303804 -0.253842 0.0122903
0.380064 -0.0082321 0.0357648
0.381413 -0.00976901 0.0362928
0.38246 -0.0110559 0.0365608
0.383772 -0.0126819 0.0368118
0.305168 -0.255314 0.0118886
0.306818 -0.256559 0.0117347
0.308296 -0.257859 0.0115334
0.51882 -0.181449 0.0342354
0.309759 -0.259368 0.0112887
0.248508 -0.196144 0.0114733
0.249665 -0.197607 0.0115965
0.379767 -0.0109475 0.0365294
0.381265 -0.0121427 0.0367999
0.382584 -0.0131258 0.0369377
0.51624 -0.181182 0.0350051
0.517148 -0.182596 0.034518
0.252362 -0.20053 0.0119304
0.253694 -0.202141 0.0120922
0.255116 -0.203728 0.0123496
0.256379 -0.204953 0.0126258
0.257466 -0.206149 0.0128407
0.515023 -0.182505 0.0350635
0.258591 -0.207656 0.0129668
0.263278 -0.212474 0.0130786
0.26429 -0.213661 0.0130014
0.265433 -0.215126 0.0129188
0.278174 -0.229247 0.0131528
0.279073 -0.230127 0.0130047
0.280449 -0.23172 0.0127963
0.281896 -0.233253 0.0127215
0.283043 -0.234492 0.0126952
0.294197 -0.246058 0.0124992
0.295595 -0.247651 0.0123059
0.297008 -0.249231 0.0121278
0.298129 -0.250508 0.0120274
0.299667 -0.251919 0.0119383
0.301151 -0.253401 0.0117177
0.302509 -0.254782 0.0114235
0.248945 -0.198484 0.0111791
0.250288 -0.200082 0.0112823
0.373359 -0.0158563 0.036587
0.253315 -0.203592 0.0115836
0.254116 -0.204564 0.0117115
0.255334 -0.205802 0.0119098
0.256563 -0.20761 0.0120028
0.258202 -0.209096 0.0123243
0.259283 -0.210375 0.0123674
0.261908 -0.213615 0.0122129
0.26315 -0.214805 0.0122214
0.264619 -0.216345 0.0122604
0.276609 -0.230052 0.0123925
0.277782 -0.231151 0.012278
0.366791 -0.0142685 0.0349429
0.367641 -0.0152932 0.0353461
0.279436 -0.232616 0.0122106
0.280849 -0.234183 0.0121288
0.281997 -0.235425 0.0121081
0.507612 -0.19023 0.0344247
0.509055 -0.19171 0.0339706
0.510253 -0.193395 0.0333561
0.5107 -0.194484 0.0325479
0.365198 -0.0155257 0.0349213
0.366073 -0.0165727 0.0353439
0.283424 -0.236986 0.0121062
0.506742 -0.191357 0.0339078
0.507422 -0.192676 0.0333159
0.508555 -0.194066 0.0327891
0.50963 -0.195453 0.031921
0.510112 -0.196687 0.0312278
0.364245 -0.0162846 0.0348894
0.364506 -0.0178517 0.0353412
0.292918 -0.247225 0.0117783
0.506076 -0.193954 0.0323984
0.506908 -0.194926 0.0319796
0.507966 -0.196405 0.0311264
0.508677 -0.19743 0.0305034
0.362911 -0.0191008 0.0353411
0.294257 -0.248648 0.011545
0.502995 -0.194144 0.0322719
0.504115 -0.194776 0.0318983
0.505239 -0.196114 0.031229
0.506278 -0.197518 0.0304599
0.507002 -0.19862 0.0298552
0.295683 -0.2499 0.0114169
0.361343 -0.0203702 0.0354085
0.298981 -0.253133 0.0110722
0.501276 -0.195078 0.0320382
0.502397 -0.196167 0.0313631
0.503477 -0.197592 0.0307107
0.504513 -0.198885 0.0300831
0.300173 -0.25432 0.0109048
0.256132 -0.209077 0.0113686
0.499973 -0.196567 0.0317755
0.50056 -0.197657 0.0313775
0.501649 -0.199035 0.0307665
0.502962 -0.200707 0.0301406
0.503827 -0.201166 0.0297183
0.25707 -0.209989 0.0115439
0.258052 -0.211322 0.0115648
0.262047 -0.215713 0.0115881
0.499633 -0.198325 0.0314896
0.500222 -0.200209 0.031003
0.501679 -0.20165 0.0303773
0.502729 -0.203058 0.0297584
0.266897 -0.222793 0.0116314
0.268115 -0.224008 0.0118004
0.269657 -0.225498 0.0119437
0.499536 -0.201848 0.0308465
0.500322 -0.203163 0.0304491
0.501394 -0.204369 0.0298885
0.271185 -0.226981 0.012015
0.27814 -0.233758 0.0114361
0.279856 -0.235064 0.0115335
0.498726 -0.20413 0.030618
0.499801 -0.205532 0.0300654
0.500537 -0.20655 0.0296205
0.281241 -0.236664 0.0114908
0.286198 -0.243046 0.0113481
0.496089 -0.204779 0.030845
0.497261 -0.205565 0.0305762
0.498134 -0.207016 0.0300497
0.499558 -0.207373 0.0295676
0.289 -0.24566 0.0114424
0.266303 -0.223904 0.011156
0.495441 -0.20665 0.0307144
0.496656 -0.2084 0.029989
0.348179 -0.025888 0.0352
0.349497 -0.027462 0.0356125
0.493911 -0.207931 0.0307256
0.494952 -0.20952 0.0301816
0.346501 -0.0269441 0.0356629
0.347836 -0.028512 0.0359672
0.34902 -0.0298981 0.0364532
0.491343 -0.208622 0.0310179
0.492523 -0.209379 0.030714
0.493438 -0.210838 0.0302549
0.3452 -0.0284922 0.0361667
0.346419 -0.0296806 0.0364028
0.347395 -0.031033 0.0369355
0.490128 -0.2096 0.031108
0.491011 -0.210833 0.030724
0.491978 -0.212361 0.0302394
0.343618 -0.0299059 0.0364976
0.344651 -0.0310729 0.0369048
0.345735 -0.0322302 0.0372426
0.488618 -0.210944 0.0312022
0.489451 -0.212081 0.0308365
0.490381 -0.213541 0.0303063
0.491124 -0.21454 0.0298358
0.34178 -0.0310699 0.0365924
0.34279 -0.0322996 0.0369548
0.344012 -0.0334758 0.0373724
0.487361 -0.211955 0.0312252
0.487754 -0.213392 0.0308606
0.488913 -0.214863 0.030343
0.490229 -0.215281 0.0298628
0.339842 -0.0320296 0.036433
0.341161 -0.0334363 0.0368918
0.342721 -0.0345106 0.0374832
0.486155 -0.214393 0.0309243
0.487365 -0.2161 0.0303509
0.487796 -0.21725 0.0297891
0.338605 -0.0329136 0.0364783
0.339586 -0.0346556 0.0369549
0.48371 -0.214913 0.0309717
0.484816 -0.215655 0.0307999
0.485794 -0.217168 0.0302576
0.486785 -0.218202 0.0296696
0.336969 -0.034375 0.0365936
0.338038 -0.0359816 0.0370712
0.482439 -0.21599 0.0309785
0.4832 -0.216943 0.030713
0.484158 -0.218247 0.0302277
0.485353 -0.21936 0.0296078
0.486448 -0.220009 0.0291666
0.335639 -0.0359851 0.0367184
0.33667 -0.0373654 0.037114
0.337432 -0.038817 0.0376215
0.478856 -0.215632 0.0314478
0.480328 -0.216455 0.0311082
0.481393 -0.218111 0.0306272
0.482711 -0.219361 0.030162
0.483966 -0.22064 0.0295589
0.334631 -0.038266 0.0369541
0.335887 -0.0400831 0.0375565
0.336375 -0.0412844 0.03797
0.476851 -0.21558 0.0317641
0.477604 -0.21652 0.0314384
0.478647 -0.217888 0.0310664
0.479922 -0.219554 0.0305733
0.481441 -0.220856 0.0300295
0.4828 -0.221283 0.0296228
0.333385 -0.0399233 0.0369455
0.334237 -0.041239 0.0373678
0.33516 -0.0423541 0.0377299
0.47603 -0.217769 0.0313717
0.477148 -0.219077 0.0309945
0.478667 -0.220444 0.0303853
0.479449 -0.221679 0.0299871
0.331656 -0.0410367 0.0367409
0.332517 -0.0420279 0.0371283
0.333797 -0.0437265 0.0378565
0.47463 -0.219071 0.0313472
0.475725 -0.220414 0.0308751
0.476841 -0.221651 0.0303968
0.47757 -0.222603 0.0298564
0.329911 -0.0422256 0.0365683
0.330974 -0.0432413 0.0370407
0.332276 -0.0449112 0.0378503
0.47306 -0.220521 0.0312326
0.474202 -0.221452 0.0308247
