0.344233 0.00175296 0.0262242
0.530698 -0.000403668 0.0200401
0.581267 -0.0494986 0.0132915
0.287625 0.0281354 0.00316085
0.23161 -0.141688 0.0123572
0.525703 0.0199855 0.0147107
0.520815 0.025571 0.0143727
0.26203 -0.0100053 0.00602387
0.34625 0.00773563 0.0250372
0.238049 -0.275843 -0.000134115
0.55039 -0.214965 0.0176082
0.483416 -0.0741267 0.0442162
0.541749 -0.203427 0.0228448
0.521248 -0.159239 0.0363211
0.52178 -0.160761 0.0361199
0.405569 -0.00822806 0.0371039
0.260805 -0.301303 0.000373361
0.273492 -0.315097 0.000731382
0.537387 0.0105349 0.0147952
0.281836 -0.30934 -0.000103943
0.27787 -0.301753 -6.2227e-05
0.234249 -0.0654912 0.0130469
0.432715 -0.281853 0.0126379
0.543636 -0.157169 0.0306989
0.315601 -0.199594 0.0319063
0.275118 0.0285458 -0.00317866
0.407107 -0.00688978 0.036945
0.562433 0.0351769 0.00562686
0.233534 -0.0737543 0.0132172
0.319525 -0.204038 0.0316271
0.546865 0.00283217 0.0142334
0.537537 0.0130229 0.0135939
0.551431 0.0446869 0.00498741
0.229496 -0.275528 0.00152748
0.545999 -0.0132784 0.0186586
0.538151 -0.17356 0.0297364
0.350861 -0.199792 0.0387808
0.399191 -0.0132271 0.0379549
0.53988 -0.178967 0.028369
0.233531 -0.282903 0.00107505
0.552339 -0.000756827 0.0136387
0.228965 -0.28135 0.0020478
0.462583 -0.047139 0.043822
0.289446 -0.302424 -0.000275135
0.23034 -0.283022 0.00200416
0.231394 -0.238953 0.00101706
0.542316 0.00957021 0.013352
0.275027 -0.0395649 0.0240851
0.306131 -0.153961 0.0384737
0.317769 -0.184175 0.0363871
0.233246 -0.0847563 0.0133259
0.526004 0.0636407 0.00514097
0.520918 0.0664904 0.00474128
0.279605 -0.0343037 0.0163829
0.411541 -0.00606108 0.0368832
0.270268 -0.0429739 0.0243957
0.520501 -0.16482 0.0363601
0.270209 -0.0460313 0.0246018
0.445739 -0.0304831 0.0421896
0.230424 -0.0907482 0.0126349
0.482356 -0.162052 0.0438826
0.267846 -0.0461599 0.0238965
0.271056 -0.0501187 0.0249675
0.535833 -0.221817 0.015139
0.292551 -0.28915 0.0012797
0.396463 -0.0515777 0.0450597
0.300429 0.0328756 0.0106832
0.50187 -0.100163 0.0431679
0.334494 -0.11987 0.0459111
0.308883 -0.197864 0.0309867
0.301925 0.0310183 0.0112657
0.31356 -0.182564 0.0358618
0.303803 0.0287834 0.0115479
0.533865 -0.22171 0.015208
0.52953 -0.15003 0.0353476
0.536214 -0.223926 0.0145508
0.33064 -0.18066 0.0389696
0.332293 0.0202676 0.0174662
0.335978 -0.186518 0.0388967
0.373835 -0.160038 0.0465172
0.308703 -0.298128 0.00217614
0.432221 -0.255249 0.0234413
0.245526 -0.22843 0.00139192
0.450289 -0.0388936 0.0436251
0.523416 -0.203059 0.028079
0.263175 -0.0740393 0.0247401
0.314049 0.0600121 -0.00193697
0.340029 -0.190877 0.0387886
0.300252 -0.284167 0.00274837
0.275462 -0.258019 0.0017968
0.537423 -0.226786 0.0139121
0.523159 -0.262486 0.00985124
0.299815 0.0295766 0.0114919
0.358056 -0.00314076 0.0305192
0.533874 -0.223474 0.0164398
0.245299 -0.225735 0.00182997
0.530283 -0.00302229 0.0211341
0.43862 -0.027987 0.0420865
0.440171 -0.0295172 0.0422407
0.42217 -0.261843 0.0219189
0.390098 -0.174769 0.0459008
0.443733 -0.0339187 0.0430963
0.355272 -0.00250216 0.0297642
0.386074 -0.17051 0.0464976
0.35671 -0.00409044 0.0304922
0.346733 -0.198183 0.0386049
0.516099 -0.165709 0.0369964
0.353602 -0.00357947 0.0297054
0.352069 -0.0049349 0.0297787
0.37073 0.0135171 0.0275633
0.29977 0.0275083 0.0122874
0.583624 -0.162375 0.0145889
0.309886 0.0240898 0.012945
0.258363 -0.0987679 0.0242976
0.298689 0.027107 0.0100298
0.40801 -0.264154 0.0214659
0.408923 -0.265122 0.0210575
0.295848 0.0277798 0.00876955
0.253697 -0.0990697 0.0226333
0.297962 0.0236712 0.0113412
0.533246 -0.230218 0.0153637
0.525035 0.000304604 0.0217295
0.569311 -0.0899606 0.0232779
0.23438 -0.0918827 0.01428
0.3933 -0.0155352 0.0382122
0.346623 -0.0105581 0.0301585
0.329041 0.0641812 -0.000756567
0.547342 -0.226522 0.0145445
0.295992 0.0239702 0.0101881
0.296747 0.022799 0.0109078
0.507298 0.074293 0.00526536
0.292722 0.0240178 0.00902049
0.311071 -0.284944 0.00130289
0.503752 0.0757841 0.00527511
0.529543 -0.233621 0.0152922
0.53063 -0.234566 0.0145327
0.527592 0.0452185 0.00413804
0.32235 0.0299976 0.0118956
0.396284 -0.265999 0.0211024
0.553827 -0.0354511 0.0212886
0.286675 0.0244032 0.00938289
0.547665 -0.245335 0.00922402
0.316975 -0.285228 0.00204846
0.395491 -0.250789 0.0265497
0.559711 -0.232082 0.00937505
0.291497 0.0200771 0.010109
0.525635 -0.235496 0.0155996
0.562814 0.00741285 0.00732196
0.539978 -0.0209503 0.0217675
0.322278 -0.174383 0.0391164
0.231313 -0.138957 0.0121642
0.28851 0.0201896 0.00992755
0.514168 -0.128832 0.0407433
0.42763 -0.024512 0.0418012
0.429246 -0.0254162 0.0419282
0.223644 -0.180542 0.00264008
0.343674 0.0419407 0.0118713
0.525488 -0.237757 0.0146494
0.336026 -0.299788 0.00129712
0.526907 -0.239891 0.0137299
0.347812 0.04274 0.0124691
0.437857 -0.0360905 0.0435897
0.519417 0.0501609 0.00457591
0.218736 -0.165988 0.00318655
0.354432 0.0458628 0.0126834
0.285872 0.0203018 0.009788
0.34878 0.0774995 -0.000982524
0.522858 -0.238067 0.0154095
0.568965 -0.217376 0.0101456
0.355584 0.0724762 -3.30254e-05
0.484213 -0.119538 0.0452221
0.329169 -0.181974 0.0384615
0.330537 -0.183411 0.038371
0.513794 -0.130922 0.0406771
0.331866 -0.184882 0.0383242
0.28658 0.0162602 0.010363
0.333171 -0.186372 0.0383396
0.366192 0.0456242 0.0142968
0.52371 -0.24162 0.0138692
0.309043 -0.186555 0.0343604
0.433785 -0.0341127 0.0433906
0.367744 0.0464498 0.0140879
0.564073 -0.0810457 0.0238609
0.562784 -0.0795053 0.024142
0.284039 0.0163949 0.00965015
0.240803 -0.0754172 0.0162246
0.536232 -0.0497341 0.0298279
0.58592 -0.165183 0.0132514
0.340214 -0.250646 0.0219433
0.521075 -0.241423 0.0149225
0.581022 -0.197536 0.0107555
0.492326 0.0101626 0.0254218
0.281233 0.0167299 0.00919305
0.481064 -0.109328 0.0463016
0.485418 0.066342 0.00390904
0.519379 -0.242793 0.0150259
0.340374 -0.255421 0.0200344
0.396668 0.0818009 0.00128597
0.505244 0.0127185 0.0221305
0.43101 -0.0339176 0.043295
0.266969 -0.184439 0.0211826
0.348397 -0.191277 0.0400265
0.434723 -0.0513634 0.045879
0.316995 -0.239128 0.0215778
0.281213 0.0140667 0.0105958
0.561334 -0.211398 0.0143542
0.519181 -0.245656 0.0142469
0.266715 -0.18735 0.0205805
0.325412 -0.166289 0.0408345
0.235741 -0.16443 0.0111616
0.279325 0.0126371 0.0106982
0.279365 0.0107456 0.0113877
0.516763 -0.245974 0.0148447
0.570493 -0.078752 0.020935
0.307124 -0.231871 0.0217118
0.575162 -0.0847633 0.0204225
0.42488 0.0815597 0.0016392
0.342474 -0.199404 0.0376981
0.395697 -0.302803 0.0031455
0.406368 0.0531311 0.0156282
0.515977 -0.248428 0.0141675
0.54611 -0.0646721 0.0292978
0.402305 -0.3026 0.00366302
0.516033 -0.251192 0.0131206
0.416403 -0.0232801 0.0415133
0.417674 -0.02451 0.0417491
0.307564 -0.234278 0.0211799
0.511156 -0.250661 0.0144069
0.512936 -0.251144 0.0138845
0.202254 -0.0795136 0.00564163
0.437503 -0.0517229 0.045878
0.509954 -0.251724 0.0142835
0.51146 -0.252385 0.0137156
0.440472 -0.298844 0.00448754
0.50853 -0.25236 0.014273
0.509729 -0.253549 0.0136129
0.475483 0.0299344 0.0216126
0.32825 -0.20157 0.0341076
0.530838 -0.048712 0.0311153
0.508506 -0.255242 0.0132673
0.504745 -0.253998 0.0144234
0.505998 -0.254966 0.0138161
0.414159 -0.0230518 0.0413838
0.384512 -0.0170584 0.0377033
0.579785 -0.122159 0.0189185
0.335882 0.000636847 0.0243794
0.449327 0.0371469 0.021072
0.451021 0.0357324 0.0216879
0.475871 0.0072013 0.0299519
0.239043 -0.0203152 0.00738844
0.474224 0.0057759 0.0306994
0.504084 -0.258894 0.0129114
0.577052 -0.122113 0.0200567
0.501393 -0.259234 0.0132559
0.511935 -0.176624 0.0368888
0.35705 0.0375605 0.0166107
0.44613 -0.27301 0.0150196
0.378689 0.0455974 0.0163837
0.511386 -0.143847 0.0408448
0.32874 -0.160669 0.0418947
0.327418 -0.159211 0.0418431
0.317637 -0.148962 0.0411139
0.413673 -0.0249673 0.0417186
0.557936 -0.121464 0.0281304
0.261121 -0.00282276 0.0122383
0.498417 -0.261885 0.012972
0.268908 0.014832 0.00634808
0.456249 -0.0625171 0.0460364
0.495422 -0.262556 0.0133756
0.373704 0.0456798 0.0156131
0.521371 -0.00512011 0.0244902
0.4971 0.062957 0.00308618
0.371032 0.0456711 0.0150282
0.439623 -0.00897955 0.0375356
0.492109 -0.264249 0.0134258
0.312268 -0.262332 0.0106592
0.51214 -0.148183 0.0405439
0.369058 0.0447341 0.0150541
0.411089 -0.0249092 0.0416088
0.493572 -0.265434 0.0127157
0.555368 -0.144093 0.0282847
0.418351 0.0540933 0.0155723
0.49053 -0.265506 0.0131789
0.319407 -0.144638 0.0419615
0.425375 0.0774227 0.0040807
0.246106 -0.290268 -0.00142348
0.529084 -0.0140795 0.0243244
0.372421 -0.196562 0.0412413
0.48805 -0.268111 0.0127653
0.343392 -0.212193 0.0344317
0.397921 0.0203189 0.0282694
0.550457 -0.170221 0.0265964
0.48666 -0.269656 0.0124971
0.246493 -0.273365 -0.00109528
0.484238 -0.269823 0.0130786
0.392004 -0.0652776 0.046327
0.26735 -0.00759837 0.00473505
0.442228 -0.251219 0.0243896
0.430065 0.0526822 0.0155467
0.314432 -0.127493 0.0415018
0.480796 -0.272568 0.0125469
0.57793 -0.158954 0.0176336
0.279781 -0.288954 -0.000920049
0.505693 -0.184296 0.036508
0.248616 -0.0217068 0.0118757
0.300557 -0.0746237 0.0379179
0.546447 0.0330558 0.00279799
0.246142 -0.0218507 0.0112245
0.430041 0.0564186 0.013903
0.299589 -0.0757105 0.0377224
0.478353 -0.276279 0.0112351
0.437058 0.0533924 0.0151723
0.293491 -0.0614475 0.0336002
0.33112 -0.312719 -4.29312e-05
0.430976 -0.221634 0.0355197
0.244238 -0.0287936 0.0117769
0.245152 -0.029831 0.0119969
0.471227 -0.277753 0.0105246
0.472811 -0.278872 0.00986152
0.470102 -0.278169 0.0101814
0.464137 -0.280528 0.00962111
0.465182 -0.281555 0.00898352
0.465402 -0.283969 0.00792353
0.39042 -0.198699 0.0416953
0.503702 -0.150201 0.0419246
0.235414 -0.0399482 0.0103102
0.540115 -0.182362 0.0277367
0.502529 -0.275443 0.00888405
0.440171 0.0527095 0.0154268
0.217269 -0.0257529 0.0116525
0.260856 -0.100754 0.0255154
0.25544 -0.032601 0.0170643
0.554125 0.0290659 0.00196806
0.216306 -0.0278272 0.0113048
0.216136 -0.0286881 0.0102619
0.214436 -0.0329513 0.00964964
0.449643 -0.288086 0.00800193
0.527557 0.0615844 0.00316568
0.391831 -0.19739 0.0420726
0.508051 -0.159098 0.0398582
0.314605 0.0396919 0.00647911
0.21398 -0.158876 0.00170001
0.31622 -0.114933 0.0424822
0.288539 -0.140483 0.0346114
0.55814 -0.0961025 0.028114
0.502048 -0.154329 0.0416648
0.439919 -0.289542 0.00830331
0.441277 -0.290958 0.00750433
0.288736 -0.137519 0.0350307
0.542199 0.0502206 0.00301609
0.438112 -0.290118 0.0081728
0.397709 -0.0275851 0.0412662
0.444081 -0.00826441 0.0370845
0.209411 -0.044344 0.00994465
0.365108 0.0337245 0.0187838
0.371392 0.0124097 0.0279451
0.257384 -0.117542 0.0249012
0.501612 -0.15714 0.0413326
0.371253 -0.224727 0.0343618
0.292182 -0.0880966 0.0359763
0.505179 -0.161648 0.0400671
0.446717 0.0505096 0.015687
0.394812 -0.02824 0.0410418
0.206472 -0.120294 0.00191501
0.373785 0.00971071 0.0293437
0.224494 -0.0731396 0.00997039
0.25826 -0.121832 0.0248985
0.369873 -0.223281 0.0346289
0.448651 0.0518317 0.0150167
0.29342 -0.0925089 0.0364317
0.206058 -0.0562065 0.00880549
0.222578 -0.0728282 0.00885216
0.223793 -0.0742658 0.0097148
0.272639 -0.0267799 0.0120011
0.393868 -0.0289706 0.0410856
0.204306 -0.100601 0.00200304
0.446945 0.0533009 0.0146579
0.522272 -0.00922418 0.0251964
0.267978 -0.229683 0.00972254
0.532489 -0.201462 0.0268224
0.211034 -0.0854148 0.00352199
0.553629 0.0415794 0.00331389
0.417211 -0.292157 0.00860325
0.215762 -0.065368 0.00399129
0.503337 -0.165731 0.0399318
0.287308 -0.250013 0.00919163
0.504935 -0.168421 0.0393481
0.21801 -0.053273 0.00372341
0.216864 -0.051711 0.00294774
0.527509 -0.0154111 0.0250413
0.410638 -0.226208 0.0352552
0.220513 -0.0860055 0.0085493
0.221628 -0.0873219 0.00886079
0.2257 -0.0317793 0.00451471
0.409931 -0.292666 0.00835991
0.571853 -0.179634 0.0170515
0.232798 -0.015762 0.00360725
0.497454 -0.00343342 0.0295706
0.47273 -0.144158 0.0460884
0.39032 -0.0310372 0.0412224
0.53103 -0.0201255 0.0249522
0.397061 0.0674825 0.00873155
0.46354 0.0505264 0.0146908
0.545153 -0.0373956 0.0250923
0.220545 -0.0913268 0.00802045
0.40258 -0.293856 0.00808072
0.394338 0.0653962 0.00922906
0.501433 -0.16976 0.0396296
0.227591 -0.0194588 0.00249812
0.38737 -0.0310681 0.0409948
0.40016 -0.293797 0.00812873
0.232906 -0.00111597 0.00363883
0.326052 0.0608753 0.00024876
0.475197 -0.121491 0.0468286
0.355871 0.0615649 0.00672218
0.401124 -0.297311 0.00655769
0.223449 -0.107099 0.00951737
0.331591 0.0210858 0.0169826
0.299484 -0.217096 0.0235452
0.380419 0.0661355 0.00747105
0.385915 -0.0317983 0.04108
0.566143 -0.192305 0.0170756
0.387405 -0.294573 0.00756057
0.50505 -0.0489463 0.0379901
0.218448 -0.112651 0.00741198
0.521793 0.0207534 0.015408
0.220905 -0.115431 0.00851385
0.384082 -0.293952 0.00768909
0.524006 -0.0824978 0.0377291
0.383108 -0.0316534 0.040943
0.219379 -0.116844 0.00774683
0.480028 -0.027933 0.0381096
0.22092 -0.119746 0.00858713
0.534317 -0.0261499 0.0254412
0.446166 -0.0757895 0.0470962
0.384174 -0.296274 0.00646888
0.281974 -0.200794 0.022811
0.565294 -0.190397 0.0175698
0.497779 -0.175121 0.0396589
0.38142 -0.296638 0.00604314
0.380304 -0.031201 0.0407124
0.563104 -0.0282026 0.0162275
0.522792 -0.011694 0.0256352
0.220384 -0.124242 0.00833395
0.482963 -0.0280266 0.0377876
0.288101 -0.116273 0.0350266
0.220307 -0.129944 0.00796938
0.375996 0.0633964 0.00851833
0.272769 0.0220261 -4.26044e-05
0.368719 -0.291991 0.00723129
0.473901 -0.0181108 0.0371533
0.369929 -0.293272 0.00672348
0.199514 -0.110308 0.00729365
0.219831 -0.13226 0.00747576
0.221148 -0.133615 0.00795607
0.506828 -0.0532373 0.0382256
0.366602 -0.291936 0.00712405
0.502786 -0.0481781 0.0383005
0.486999 -0.0301027 0.0378336
0.528057 -0.0846042 0.0367693
0.387761 -0.316728 0.00573899
0.199513 -0.113119 0.00712606
0.469803 -0.0157343 0.0369969
0.22242 -0.138553 0.00789117
0.223324 -0.139846 0.00822511
0.224081 -0.141126 0.00847134
0.364586 -0.29305 0.00638353
0.3663 -0.294267 0.00589918
0.380983 0.0631919 0.00861798
0.481495 -0.0295043 0.0381775
0.386481 -0.316725 0.00739458
0.49447 -0.180023 0.0391697
0.522246 -0.0710123 0.0375385
0.520985 -0.0694273 0.0376236
0.507613 -0.0520849 0.0379039
0.54688 -0.0432783 0.0255276
0.359712 0.0603768 0.00790516
0.360962 0.0591273 0.00830098
0.385128 0.0635627 0.00895265
0.360269 -0.291533 0.00672454
0.477496 -0.0274189 0.0385125
0.490547 -0.17857 0.0398859
0.356943 0.0602875 0.00749578
0.525147 -0.0713037 0.0367607
0.493771 -0.182439 0.037932
0.373064 -0.0351249 0.0405274
0.523853 -0.0697324 0.0370723
0.32393 0.0216049 0.0151506
0.322192 0.0203398 0.0150609
0.272696 -0.0123036 0.0161273
0.358106 0.0588502 0.00817216
0.550911 -0.227076 0.014089
0.346207 0.0293981 0.017311
0.487551 -0.178238 0.03988
0.461916 -0.0141701 0.0373718
0.497719 -0.0371256 0.0374725
0.491313 -0.182212 0.0380386
0.491149 -0.029324 0.0372207
0.393191 0.0668415 0.00868581
0.293074 -0.0538339 0.0311695
0.456422 -0.0109002 0.0369508
0.222663 -0.144013 0.007726
0.223759 -0.145326 0.00809452
0.359061 -0.292763 0.00582168
0.33354 0.051665 0.00577989
0.553803 -0.227324 0.0132913
0.317571 0.016751 0.0160696
0.331212 0.0476619 0.00696226
0.488715 -0.18206 0.0381266
0.332533 0.0467343 0.0074706
0.355857 -0.0324967 0.037396
0.360601 -0.0287817 0.0375433
0.529165 -0.104352 0.0375849
0.262869 -0.226278 0.00937709
0.199598 -0.124761 0.00575756
0.223407 -0.148062 0.00771365
0.224669 -0.149907 0.00794103
0.529869 -0.105872 0.0374751
0.485713 -0.181953 0.0384904
0.531163 -0.107461 0.0371769
0.361212 -0.0232744 0.036286
0.489267 -0.186169 0.0366357
0.368314 -0.0389094 0.0403089
0.225684 -0.151806 0.00816546
0.263779 -0.020877 0.0146351
0.264348 -0.0240394 0.0164193
0.530403 -0.108527 0.0373899
0.415679 0.0669897 0.00969743
0.484287 -0.183698 0.0382461
0.258744 -0.0215572 0.0162204
0.486423 -0.185979 0.0372714
0.513047 -0.00386598 0.0257219
0.51861 -0.00471513 0.0249988
0.222116 -0.149664 0.00687679
0.223455 -0.151287 0.00718151
0.259587 -0.0252225 0.0172212
0.225818 -0.153922 0.0079772
0.48274 -0.185072 0.0382593
0.260809 -0.0266439 0.0175718
0.517286 -0.0030769 0.0247676
0.485914 -0.188884 0.0368234
0.365266 -0.0411714 0.0401936
0.318142 0.0131731 0.0178487
0.451801 -0.0146702 0.0381026
0.531028 -0.113204 0.0372426
0.559596 -0.061562 0.0239812
0.480808 -0.18602 0.0384838
0.280359 -0.240304 0.0101422
0.414673 0.0699962 0.00809897
0.484534 -0.190079 0.0368112
0.346387 0.0318694 0.0163587
0.486248 -0.192878 0.0358326
0.363689 -0.0423325 0.0404707
0.55271 -0.0437895 0.0239432
0.505426 -0.187216 0.035819
0.366965 -0.0466315 0.041753
0.419495 0.0692871 0.00861012
0.345464 0.0329832 0.015731
0.48055 -0.188587 0.0379356
0.371707 -0.0201797 0.0371439
0.532664 -0.119151 0.0368002
0.484203 -0.19292 0.0362546
0.439944 -0.00621361 0.0368241
0.360218 -0.0424306 0.0405334
0.502658 0.00564429 0.0253129
0.291793 -0.0613085 0.0332534
0.364095 -0.0463848 0.0418889
0.274847 -0.232151 0.0110509
0.263702 -0.219698 0.0110931
0.443551 -0.0110487 0.037847
0.547965 -0.0378608 0.0241013
0.34991 0.030245 0.0175463
0.481535 -0.192578 0.0368522
0.250682 -0.039164 0.0160441
0.359271 -0.0430984 0.0407907
0.53053 0.0116466 0.0165821
0.361665 -0.045928 0.0416451
0.362465 -0.0474946 0.0421945
0.531644 0.0105197 0.0166953
0.532219 0.00939677 0.0168795
0.383922 -0.156076 0.0468954
0.477361 -0.19117 0.0379756
0.355351 0.036581 0.0166407
0.248116 -0.0421076 0.0155301
0.376356 -0.0163185 0.0372166
0.35882 -0.0454504 0.0414496
0.486663 0.0178261 0.0242545
0.385239 -0.157512 0.0468751
0.362213 -0.0502643 0.0428719
0.247593 -0.0432294 0.0155425
0.475752 -0.192237 0.0380445
0.244176 -0.191468 0.0102085
0.508901 -0.179027 0.0371768
0.488028 0.0167223 0.0243366
0.35824 -0.0481889 0.0421606
0.359264 -0.0497804 0.0425557
0.34059 -0.11163 0.046765
0.474241 -0.193419 0.0379902
0.458368 0.0649761 0.00908238
0.476749 -0.196682 0.0367093
0.451641 -0.270294 0.0152816
0.353769 -0.0472578 0.0416126
0.535406 -0.129626 0.0354817
0.520027 -0.00350003 0.0244076
0.343195 -0.114575 0.047387
0.248328 -0.0514571 0.0171127
0.316099 -0.263995 0.0108826
0.43427 -0.00586307 0.0369322
0.473894 -0.196228 0.0373731
0.313487 -0.261779 0.011141
0.476498 -0.199141 0.0362509
0.352597 -0.0479229 0.0415869
0.353939 -0.049353 0.0418131
0.35516 -0.0509142 0.0421683
0.356049 -0.052391 0.0424733
0.384226 -0.0200889 0.0385287
0.469939 -0.194643 0.0382393
0.471167 -0.196083 0.0378202
0.448916 -0.272863 0.0146862
0.473596 -0.199189 0.0366716
0.382499 -0.157383 0.0469314
0.243473 -0.0538198 0.0153494
0.351064 -0.0489397 0.041672
0.490754 0.0141716 0.0245476
0.329842 -0.0018414 0.0249185
0.559164 -0.215085 0.0141891
0.243229 -0.181837 0.010995
0.395749 -0.172059 0.0461083
0.323998 -0.26827 0.0112663
0.239285 -0.174164 0.0113415
0.243016 -0.0643912 0.0165021
0.36184 0.034449 0.0178824
0.512224 -0.173768 0.0370505
0.474135 -0.202613 0.0359117
0.432703 -0.00708353 0.0372467
0.350707 -0.0518274 0.0420286
0.352004 -0.0534632 0.0421304
0.337533 -0.111563 0.0460099
0.34282 -0.117653 0.0471488
0.337038 0.00138558 0.0244512
0.33828 -0.276352 0.0107215
0.465636 -0.195582 0.0388031
0.466829 -0.197204 0.0382027
0.482459 0.0540872 0.0103554
0.469415 -0.199896 0.0372364
0.238849 -0.169045 0.011887
0.433456 -0.27697 0.0148249
0.234251 -0.162939 0.0107129
0.358541 0.038584 0.0164412
0.566569 -0.0813066 0.0229603
0.351352 -0.0560228 0.0421101
0.341407 -0.276444 0.0109465
0.339906 -0.275616 0.011292
0.286959 -0.0734315 0.0330029
0.431315 -0.277506 0.0146784
0.466531 -0.200057 0.03766
0.562029 -0.206118 0.0155773
0.469066 -0.202558 0.0367048
0.388998 -0.0165834 0.0378224
0.347973 -0.055015 0.041974
0.348841 -0.0559508 0.0419279
0.230773 -0.152974 0.0103251
0.370316 0.0368297 0.0183131
0.352171 -0.0606778 0.0428121
0.560449 -0.0747077 0.0250355
0.463987 -0.199851 0.0382133
0.233146 -0.153094 0.0112867
0.534503 -0.137611 0.0353269
0.467248 -0.20389 0.0367385
0.341091 0.00480982 0.0246095
0.347229 -0.0572016 0.0417957
0.235718 -0.153351 0.0124673
0.340541 0.00611747 0.0241507
0.362406 -0.286375 0.00966986
0.369802 0.0416097 0.016444
0.359139 -0.284798 0.00989925
0.23043 -0.143665 0.0115981
0.365102 -0.286854 0.0096646
0.363612 -0.285801 0.0100207
0.467274 -0.206167 0.0361665
0.371786 0.0413413 0.0168993
0.346907 -0.0598963 0.0419533
0.360657 -0.283226 0.0107379
0.349103 -0.0628685 0.0426697
0.359276 -0.281833 0.0110839
0.230444 -0.141912 0.0116934
0.374622 0.0409421 0.0174608
0.461921 -0.203752 0.0377852
0.362181 -0.281774 0.0113999
0.370518 -0.286456 0.0100804
0.344063 -0.0599808 0.0417157
0.561481 0.00892983 0.00727907
0.563776 0.00612259 0.0072975
0.388798 -0.170629 0.0465869
0.420014 -0.282331 0.013118
0.231951 -0.134787 0.0124895
0.459185 -0.203415 0.0382616
0.41472 -0.280185 0.0142633
0.461598 -0.206298 0.0370741
0.427817 -0.237518 0.0302703
0.417238 -0.282657 0.0130769
0.343712 -0.0627169 0.0419425
0.344744 -0.0642039 0.0422519
0.499447 0.0491304 0.00969935
0.565219 -0.085413 0.0241686
0.237745 -0.0911039 0.0156714
0.230885 -0.127571 0.0124338
0.382231 -0.287838 0.0100257
0.458944 -0.206195 0.0374375
0.235342 -0.0907192 0.0145361
0.340996 -0.0621791 0.0416814
0.341984 -0.0637285 0.0419642
0.566327 -0.0867196 0.0239804
0.344254 -0.0667035 0.0425211
0.569649 -0.192301 0.0160445
0.418941 -0.236091 0.0316492
0.456076 -0.205726 0.0378537
0.384328 -0.288101 0.0101569
0.347534 -0.12972 0.0470358
0.339335 -0.0633632 0.0416257
0.227836 -0.117533 0.0115212
0.341652 -0.0667344 0.0422186
0.571257 -0.0943826 0.0228474
0.509585 0.0423276 0.00984354
0.593034 -0.0580169 0.00976175
0.4529 -0.206106 0.0379857
0.454537 -0.206873 0.0376652
0.52187 0.0318352 0.011042
0.45682 -0.209755 0.0366796
0.337753 -0.0645891 0.0414897
0.386003 -0.286714 0.0109765
0.227067 -0.112956 0.0112368
0.536908 -0.216285 0.0198829
0.383036 0.0434308 0.0174547
0.387553 -0.285428 0.0117475
0.420061 -0.00685691 0.0371803
0.523064 0.0324445 0.0103856
0.399843 -0.0195653 0.0393643
0.481492 0.0171579 0.0256738
0.390215 -0.285994 0.0118582
0.337427 -0.0678133 0.0415596
0.399447 -0.280882 0.0141537
0.339615 -0.0705172 0.0422148
0.396169 -0.0158979 0.038516
0.448971 -0.20646 0.0382558
0.585732 -0.0430898 0.0100503
0.451173 -0.209524 0.0372756
0.228355 -0.10919 0.0119324
0.584157 -0.0398482 0.010355
0.414605 -0.23684 0.0315163
0.583432 -0.0385485 0.0105594
0.336859 -0.0705802 0.0415915
0.337867 -0.071739 0.0420825
0.415819 -0.237846 0.0311944
0.418521 -0.00820322 0.037477
0.446436 -0.206397 0.0384776
0.521222 -0.168963 0.0358126
0.531168 -0.148802 0.035119
0.449623 -0.210889 0.0371159
0.549734 0.0177396 0.00846356
0.334608 -0.0702521 0.0412522
0.567433 -0.0912913 0.0239508
0.537191 -0.21016 0.0230234
0.337816 -0.0745319 0.0424089
0.383637 0.0455507 0.0168463
0.444565 -0.207506 0.0383768
0.574429 -0.0216037 0.0105148
0.571897 -0.182939 0.0163401
0.414356 -0.0062235 0.0368967
0.413178 -0.23793 0.0311668
0.335258 -0.0742156 0.0418369
0.5164 -0.162855 0.0372496
0.337656 -0.0773976 0.0425776
0.582639 -0.0301288 0.0101853
0.443084 -0.208627 0.0381841
0.444272 -0.210056 0.0377628
0.575789 -0.0205583 0.00980345
0.446747 -0.213335 0.0367576
0.334163 -0.0758349 0.041831
0.334735 -0.0773644 0.042137
0.573136 -0.181133 0.016227
0.565913 -0.0923524 0.0245602
0.306651 -0.178011 0.0355551
0.441527 -0.210032 0.0379474
0.568296 -0.100687 0.0242862
0.29909 -0.165736 0.0353771
0.412816 -0.007563 0.0371415
0.332916 -0.0783816 0.0418091
0.563842 -0.00650904 0.0104675
0.34654 -0.133188 0.0467058
0.516727 -0.160023 0.0374631
0.438745 -0.209603 0.038213
0.531462 -0.15574 0.0344571
0.320469 -0.187108 0.0363434
0.442511 -0.213801 0.0367696
0.331591 -0.0794644 0.0415702
0.332661 -0.0809665 0.0419349
0.415475 -0.284644 0.0122903
0.40994 -0.00716079 0.0370806
0.547687 0.0136451 0.010438
0.234496 -0.0861215 0.0136383
0.418516 -0.284057 0.0124868
0.371074 -0.159922 0.0464281
0.439672 -0.213917 0.0369241
0.421538 -0.284054 0.0124432
0.330237 -0.080517 0.0412631
0.377667 -0.167101 0.0463366
0.332807 -0.0841146 0.0420816
0.529837 -0.156972 0.0346293
0.423303 -0.283594 0.0126065
0.235111 -0.0753883 0.0138623
0.43407 -0.211012 0.0383112
0.236546 -0.0741066 0.0142969
0.367886 -0.27722 0.0138004
0.235405 -0.0724152 0.0138559
0.231749 -0.130088 0.0128268
0.307008 -0.172412 0.0363975
0.432624 -0.28436 0.0116939
0.33136 -0.0850341 0.042082
0.234379 -0.0679792 0.0132707
0.333888 -0.0878966 0.0426276
0.434541 -0.284547 0.0113289
0.434658 -0.281 0.0127328
0.432546 -0.212022 0.0381702
0.433818 -0.213078 0.037767
0.23475 -0.0626879 0.0131388
0.334278 -0.123075 0.0457836
0.32815 -0.0826402 0.0413501
0.328922 -0.084057 0.041783
0.2353 -0.140612 0.0140936
0.568775 -0.0363131 0.0163862
0.26 -0.0163157 0.00613334
0.237056 -0.146448 0.0145536
0.334815 -0.0923195 0.0434639
0.358563 -0.149195 0.0466123
0.23892 -0.0556118 0.0140284
0.448525 -0.280805 0.0114081
0.431294 -0.213086 0.03798
0.545486 -0.194441 0.0238572
0.46076 0.0242453 0.0254136
0.434974 -0.217486 0.0364175
0.447248 -0.277325 0.0130384
0.327452 -0.0852449 0.0423148
0.351771 -0.293146 0.00513068
0.538742 -0.00147653 0.0181201
0.238464 -0.153634 0.0138946
0.225752 -0.159683 0.00731973
0.525664 -0.158207 0.0352664
0.526799 -0.159573 0.0348799
0.227206 -0.164021 0.00750821
0.338074 -0.285492 0.00679106
0.339255 -0.286226 0.00659557
0.237318 -0.154402 0.0131474
0.394764 -0.240984 0.0302176
0.242016 -0.0501917 0.0140737
0.527332 -0.161106 0.0345904
0.521353 -0.156286 0.0365576
0.482751 -0.0411335 0.0406547
0.541198 -0.00428735 0.0178894
0.227064 -0.166667 0.00713668
0.330085 -0.194526 0.0363188
0.389031 -0.238584 0.0310231
0.409878 -0.0169225 0.0393543
0.273723 0.000922973 0.00705745
0.545086 -0.00901101 0.0177162
0.245593 -0.0454334 0.0150202
0.326718 -0.281598 0.00662781
0.399771 -0.0073856 0.0367205
0.323272 -0.187263 0.0366763
0.242056 -0.169043 0.0134302
0.319894 -0.277221 0.00685756
0.385889 -0.238498 0.0310297
0.322857 -0.279715 0.00660636
0.464651 -0.272156 0.0129756
0.279492 0.00679925 0.00679363
0.279964 0.00835825 0.00789562
0.409259 -0.0128777 0.0381649
0.246291 -0.178995 0.013073
0.391842 -0.00462543 0.0357644
0.334162 -0.125821 0.0456344
0.310864 0.0314839 0.00872356
0.345139 -0.309204 0.00387453
0.346892 -0.310267 0.00422886
0.307568 -0.269552 0.00644872
0.323087 -0.263129 0.0128922
0.41342 -0.0148494 0.0389322
0.412088 -0.0131584 0.0383576
0.414943 -0.0135006 0.0386118
0.523935 -0.146509 0.0374007
0.346606 -0.139009 0.0464879
0.417838 -0.0139406 0.0390416
0.31576 0.0329831 0.00888148
0.320593 0.0366686 0.00875415
0.387209 -0.00504271 0.0355068
0.569423 -0.118147 0.0237326
0.249917 -0.189108 0.0131743
0.244405 -0.207454 0.00692621
0.290446 -0.257678 0.00661303
0.291923 -0.259227 0.00652053
0.389835 -0.00819884 0.0365016
0.419394 -0.0126663 0.0388168
0.418024 -0.0108516 0.0381463
0.33481 -0.304179 0.00437917
0.205752 -0.166034 0.00808174
0.206202 -0.167388 0.00756222
0.320084 0.0392409 0.00773333
0.527683 -0.145315 0.0364429
0.38331 -0.240721 0.0301376
0.524543 -0.140822 0.0379029
0.263643 -0.0115254 0.0123881
0.244716 -0.209867 0.00659089
0.525057 -0.138091 0.0378581
0.24748 -0.213353 0.00685707
0.248601 -0.214641 0.00693318
0.249725 -0.21593 0.00700526
0.468642 -0.0296142 0.0407028
0.281319 -0.25036 0.00674482
0.288176 -0.257476 0.00587329
0.253571 -0.196484 0.0131517
0.523627 -0.136674 0.0382519
0.322594 0.0432821 0.00722284
0.37733 -0.237751 0.0307038
0.425316 -0.010343 0.0384288
0.540118 0.0276852 0.00800507
0.517754 -0.176834 0.0352588
0.330727 0.0461726 0.00750508
0.206301 -0.168169 0.00774361
0.434704 -0.0176948 0.0400614
0.243546 -0.21101 0.00569854
0.516833 -0.178713 0.0352416
0.3844 -0.244553 0.028993
0.569824 -0.119998 0.0233834
0.249015 -0.217084 0.0062606
0.338019 -0.132895 0.0454343
0.263777 -0.233483 0.00677031
0.264958 -0.234813 0.0066513
0.266478 -0.23663 0.00668603
0.267328 -0.237595 0.00672997
0.278972 -0.249582 0.00631153
0.296482 -0.157673 0.0357317
0.549132 -0.19028 0.0232636
0.268467 -0.218626 0.0131794
0.269552 -0.21991 0.0133175
0.373638 -0.236941 0.0307076
0.434598 -0.0155648 0.0395373
0.319106 -0.223626 0.0267731
0.379324 -0.241594 0.029479
0.286208 -0.237326 0.0128702
0.342252 -0.205034 0.036387
0.527433 -0.128277 0.0377027
0.261222 -0.233242 0.00611662
0.274665 -0.13119 0.0305733
0.275984 -0.132709 0.0308071
0.511379 -0.185068 0.0351146
0.465774 -0.0291505 0.0407037
0.527773 -0.122865 0.0378665
0.513767 -0.188131 0.0338615
0.273382 -0.246543 0.00548774
0.525451 -0.120002 0.0384381
0.524432 -0.118156 0.0386518
0.512216 -0.189477 0.0339077
0.439176 -0.0122267 0.038471
0.44595 0.0315834 0.0241393
0.312227 -0.216102 0.0272404
0.26834 -0.221089 0.012564
0.324566 -0.302864 0.00426447
0.269681 -0.222624 0.0127307
0.52479 -0.112754 0.0387188
0.483271 -0.0511541 0.0420516
0.568582 -0.121634 0.0237644
0.441252 0.033002 0.0235485
0.449683 -0.0188515 0.0393197
0.332863 -0.194702 0.0368315
0.493301 -0.0636287 0.0419343
0.288637 -0.243006 0.0120938
0.290274 -0.244503 0.0121155
0.365756 -0.0193197 0.0360535
0.525319 -0.109868 0.0386502
0.356572 -0.0203385 0.0346272
0.355722 0.0525819 0.0100305
0.450218 -0.0162352 0.0385871
0.549203 0.0161431 0.00919717
0.273556 -0.229922 0.0115933
0.52289 -0.103937 0.0390973
0.553647 0.0107053 0.00915106
0.339396 -0.137174 0.0453785
0.453058 -0.0165264 0.0385857
0.349786 -0.0247539 0.0348411
0.320077 -0.300726 0.00386412
0.329961 -0.232269 0.0264956
0.459433 -0.0215803 0.0397923
0.522262 -0.0967014 0.0390841
0.516892 -0.0929703 0.0401102
0.518007 -0.0948158 0.0400096
0.515685 -0.0476593 0.03513
0.458815 -0.024779 0.0404035
0.214343 -0.188824 0.0052022
0.528452 -0.0636126 0.0349759
0.457406 -0.0161251 0.038407
0.526525 -0.0985995 0.0380559
0.442776 0.0294514 0.0249836
0.378069 0.0595562 0.0102837
0.381122 0.0591582 0.0106996
0.383674 0.0594207 0.0109423
0.472971 -0.0313893 0.0403676
0.322027 -0.223703 0.0273915
0.527538 -0.0972813 0.0377592
0.525542 -0.0941846 0.0382083
0.471698 -0.0271835 0.0397785
0.524367 -0.0897702 0.0382059
0.40185 0.0618091 0.0114217
0.315107 -0.216237 0.0276648
0.572479 -0.133212 0.0219761
0.296758 -0.287957 0.00587876
0.493134 -0.0664564 0.041932
0.494256 -0.0679925 0.0418153
0.534093 -0.0822078 0.0348899
0.496811 -0.0709682 0.041812
0.347774 -0.208109 0.0360639
0.499564 -0.073993 0.0418655
0.209456 -0.180366 0.00709659
0.532328 -0.083328 0.0355205
0.258158 -0.230146 0.00667736
0.298598 -0.198826 0.0284929
0.507213 -0.0834132 0.0417102
0.567286 -0.00596961 0.00920441
0.410021 0.0627109 0.0116733
0.382645 0.0244541 0.0247445
0.408535 0.0636118 0.0112618
0.293625 -0.192884 0.0285349
0.530275 -0.0833934 0.0361162
0.530785 -0.0845856 0.0360068
0.533584 -0.0877251 0.0352961
0.493479 -0.0479644 0.0401613
0.519191 -0.0989629 0.0398934
0.53717 -0.0921959 0.0344786
0.471733 -0.0140038 0.0361894
0.256325 -0.224434 0.00732069
0.208987 -0.177094 0.00623602
0.207517 -0.17305 0.00726006
0.29881 -0.288859 0.00342209
0.538548 -0.0984439 0.0342489
0.264078 -0.23047 0.0081672
0.226262 -0.213191 0.00479437
0.521373 -0.079373 0.0382733
0.356819 -0.159172 0.0451744
0.229591 -0.217334 0.00471284
0.359456 -0.162072 0.0452981
0.294647 -0.286809 0.00292581
0.407384 0.0456913 0.0187584
0.298359 -0.264936 0.00678299
0.364995 -0.16812 0.0453001
0.539513 -0.10234 0.0339983
0.507685 -0.0880065 0.0417673
0.595899 -0.160462 0.00955166
0.46739 -0.0142239 0.036791
0.493792 -0.0451067 0.0394807
0.281478 -0.179568 0.0274693
0.556348 -0.0258661 0.0180559
0.551913 -0.183535 0.0238553
0.563819 -0.0352835 0.0177296
0.264749 -0.260384 0.0034735
0.491386 -0.0418117 0.039343
0.271293 -0.267601 0.00341958
0.244503 -0.206248 0.00723734
0.455061 -0.0252308 0.0406375
0.451235 -0.00242128 0.0350602
0.330043 -0.229704 0.0271337
0.277324 -0.272899 0.0034683
0.455451 -0.00663424 0.0357731
0.229452 -0.222372 0.00431875
0.456737 -0.00828228 0.0362192
0.415623 0.0661116 0.0101648
0.304032 -0.26725 0.00707046
0.300469 -0.264543 0.0075521
0.293895 -0.257388 0.00777572
0.451574 -0.00494347 0.0356704
0.506785 -0.0887478 0.0419318
0.56606 -0.0383937 0.0176571
0.596539 -0.155278 0.0098619
0.272306 -0.269682 0.00379946
0.273725 -0.270607 0.00424473
0.541141 -0.117036 0.0339352
0.276516 -0.273309 0.00416778
0.27939 -0.276508 0.00380125
0.321781 -0.221181 0.0279289
0.236324 -0.232473 0.00469981
0.571613 -0.148425 0.0213795
0.296909 -0.257516 0.00860506
0.52149 -0.109506 0.0395045
0.274367 -0.272411 0.00383975
0.243968 -0.242531 0.00382964
0.519594 0.015894 0.0173199
0.384147 0.0256792 0.0245904
0.251014 -0.25069 0.0041638
0.29376 -0.254602 0.00879279
0.444326 -0.00243389 0.035798
0.510988 -0.0983904 0.0415286
0.226843 -0.283935 0.00211999
0.520833 0.0150343 0.0172192
0.533399 -0.219569 0.0165075
0.354642 -0.212633 0.0361723
0.304642 0.0277638 0.0130034
0.287989 -0.184245 0.0284876
0.437759 0.00180809 0.034938
0.44204 -0.00221922 0.0358443
0.52126 -0.111765 0.0395289
0.531832 -0.21871 0.0175876
0.446558 -0.0218995 0.0403221
0.571033 -0.150159 0.0214236
0.249967 -0.207719 0.00908271
0.303575 0.0278626 0.0134731
0.304749 0.0258722 0.0143036
0.452959 -0.0292057 0.0416602
0.454233 -0.0306741 0.0419521
0.362244 -0.167991 0.0451719
0.241744 -0.197028 0.00887419
0.425523 0.0645676 0.0112116
0.302546 0.026794 0.0139963
0.540919 -0.127471 0.0336921
0.531403 -0.221346 0.0177759
0.433619 0.00388248 0.0346337
0.435226 0.00259101 0.0348821
0.281287 -0.17699 0.0277535
0.262916 -0.0259005 0.0176625
0.278705 -0.17369 0.0273784
0.265599 -0.0299508 0.0199389
0.42218 0.0330096 0.0241646
0.530491 -0.221513 0.0183364
0.440476 -0.00359946 0.0362109
0.264912 -0.0310447 0.0198287
0.429781 0.0623778 0.0118832
0.335718 -0.232771 0.0272537
0.540807 0.0236052 0.00891926
0.332952 -0.229762 0.0275776
0.30071 0.0236316 0.0124132
0.530599 -0.224484 0.017653
0.262236 -0.0342561 0.0193458
0.432685 0.00306898 0.0349017
0.433937 0.00168298 0.0351944
0.323828 -0.221499 0.0283826
0.240372 -0.189509 0.00821153
0.530207 -0.227589 0.0172955
0.232657 -0.180529 0.00746464
0.353988 -0.23508 0.0297691
0.573705 -0.0504727 0.0168819
0.575793 -0.0536204 0.0167491
0.527561 -0.228006 0.0180643
0.429979 0.0651317 0.0109731
0.350575 -0.208231 0.0365129
0.423286 0.0315393 0.0247858
0.295895 0.0207031 0.0109147
0.297431 0.0199227 0.0117371
0.525867 -0.229616 0.0178193
0.52689 -0.230421 0.0172527
0.567833 -0.148458 0.0228105
0.43112 0.00175463 0.0352578
0.340355 -0.149909 0.0452379
0.525222 -0.23208 0.0170649
0.282874 -0.175656 0.0283991
0.258119 -0.038396 0.0188054
0.433827 0.0632562 0.0115822
0.536432 -0.129178 0.0351454
0.388377 0.0265864 0.024902
0.289734 0.0180917 0.0106365
0.291604 0.0177853 0.011579
0.29239 0.0167897 0.012368
0.522702 -0.234366 0.0168238
0.341667 -0.151345 0.0452354
0.342979 -0.152777 0.0451978
0.288473 0.0170358 0.0105474
0.436951 0.063302 0.0115099
0.344305 -0.154208 0.0451128
0.430608 -0.000984067 0.0358439
0.433402 0.0658914 0.010361
0.362454 -0.0378383 0.0392326
0.230424 -0.172045 0.00802586
0.289975 0.0138369 0.0115392
0.519111 -0.237624 0.0168804
0.33539 -0.283885 0.00719446
0.335552 -0.230096 0.0279434
0.288051 0.0128464 0.0111866
0.333909 -0.282911 0.00736975
0.332764 -0.281549 0.00769982
0.283277 -0.173686 0.0287892
0.389975 0.027948 0.0246868
0.599967 -0.132133 0.0101796
0.283962 0.013207 0.010609
0.251849 -0.05215 0.0187283
0.286277 0.0104749 0.011505
0.516553 -0.240163 0.0167226
0.420337 0.0320269 0.024542
0.56714 -0.150761 0.0227821
0.358809 -0.214216 0.0363093
0.446284 -0.267873 0.017382
0.514813 -0.241093 0.0167574
0.357457 -0.212693 0.0365814
0.413724 0.0362277 0.0229304
0.28195 0.00945388 0.0118749
0.348351 -0.234748 0.0287385
0.595095 -0.0510782 0.00772148
0.41852 0.0313559 0.0247347
0.360249 -0.212833 0.0368828
0.439231 -0.0274322 0.0419055
0.248381 -0.0603121 0.01861
0.51446 0.0455353 0.00812558
0.281177 0.00679817 0.0126238
0.247135 -0.0617872 0.0180956
0.511932 -0.244153 0.0163988
0.513141 -0.245339 0.0158383
0.443724 0.0638419 0.0112977
0.520041 -0.129 0.0392995
0.341296 -0.230282 0.0288504
0.413353 0.0337206 0.0237642
0.245763 -0.0633603 0.0175955
0.555402 -0.175419 0.0239733
0.523225 0.0355281 0.00907109
0.44714 0.063276 0.0113025
0.278337 0.00476732 0.0133069
0.28015 0.00320282 0.0128833
0.391551 0.0293573 0.0244047
0.508931 -0.246859 0.0160856
0.411673 0.032707 0.0240834
0.600716 -0.12324 0.0103771
0.507457 -0.248251 0.0159412
0.536195 -0.134936 0.0350282
0.536372 -0.136417 0.0348736
0.505791 -0.249478 0.0158541
0.336485 -0.278546 0.00933068
0.271356 0.00390624 0.012907
0.272739 0.00243069 0.0133373
0.60016 -0.121564 0.0105497
0.457676 0.0570562 0.0123874
0.45622 0.0580001 0.0121253
0.319265 -0.20971 0.0300345
0.3412 -0.233191 0.0277367
0.346546 -0.284977 0.00825173
0.271438 0.00114832 0.0125948
0.502791 -0.250624 0.0162646
0.602846 -0.121957 0.00932796
0.51957 -0.134715 0.0391922
0.507753 0.0503656 0.00742953
0.501726 -0.253706 0.0154476
0.421728 -0.0159463 0.0400753
0.503245 -0.25501 0.0144953
0.394109 0.0290321 0.0247738
0.501406 -0.256331 0.0144775
0.502307 -0.257238 0.0137834
0.428048 -0.0234402 0.0416499
0.269153 -0.00681648 0.0126997
0.456143 0.0607041 0.0110319
0.498585 -0.256106 0.0153469
0.45385 0.0628424 0.0103721
0.231392 -0.160123 0.00995345
0.268023 -0.00783034 0.0121298
0.520481 -0.139096 0.0390198
0.521437 -0.140933 0.0387408
0.467602 0.0545921 0.0123549
0.422001 -0.00016992 0.0354946
0.602402 -0.111978 0.00979633
0.498553 -0.258806 0.0141793
0.413161 -0.278378 0.0151463
0.556232 -0.169804 0.0245521
0.241075 -0.093837 0.0172646
0.57555 -0.0567267 0.0172138
0.41165 -0.278914 0.0148652
0.497744 -0.261135 0.0133773
0.493747 -0.260488 0.0145442
0.495289 -0.261649 0.0137445
0.239665 -0.0954377 0.0167408
0.36883 -0.0298829 0.0388242
0.566577 -0.163615 0.0221484
0.520992 -0.143165 0.038684
0.489705 -0.261843 0.0147698
0.4907 -0.262758 0.0141734
0.5585 -0.169887 0.0237151
0.488309 -0.262509 0.0147488
0.403254 0.0246955 0.0267177
0.5994 -0.102047 0.0109436
0.487912 -0.265227 0.0137047
0.499703 0.0307755 0.0172089
0.403429 -0.276302 0.016043
0.539105 -0.147019 0.0331613
0.483653 -0.267651 0.0138822
0.417248 0.00282096 0.034553
0.480601 -0.268893 0.014071
0.517267 0.0407562 0.00897812
0.478927 -0.270169 0.0136967
0.475847 -0.27086 0.0139541
0.400467 -0.276551 0.0160037
0.575615 -0.0620408 0.0177927
0.248647 -0.0246272 0.0123648
0.474473 -0.271918 0.0136034
0.475702 -0.273152 0.0129974
0.558329 -0.165568 0.0244811
0.245909 -0.024909 0.0118353
0.471348 -0.272247 0.0132493
0.472819 -0.272838 0.0130855
0.600299 -0.100035 0.0104563
0.23943 -0.103594 0.0169077
0.402551 0.0283742 0.0255572
0.499659 0.0287748 0.0178586
0.536764 -0.146644 0.0338578
0.275188 -0.155369 0.0281311
0.413232 0.00324524 0.0343959
0.514397 -0.144309 0.0400811
0.470429 -0.272992 0.0127855
0.230036 -0.149829 0.010359
0.375932 -0.0290507 0.0396614
0.47405 -0.276513 0.0112135
0.535081 -0.14785 0.034233
0.576712 -0.066117 0.0177674
0.353601 -0.238423 0.0284687
0.361482 -0.289959 0.00776872
0.514144 -0.147142 0.0400411
0.567452 -0.168001 0.0211081
0.401214 0.0362538 0.0226958
0.517295 -0.151343 0.0386246
0.402049 0.035208 0.0232263
0.240706 -0.123385 0.0172164
0.272657 -0.149554 0.0286618
0.271207 -0.147993 0.0283106
0.579713 -0.0709616 0.0171499
0.493669 0.0442607 0.0125815
0.514703 -0.151175 0.0394755
0.379308 -0.276716 0.0154381
0.516516 -0.154683 0.0382985
0.244277 -0.0320516 0.0119615
0.461031 -0.277442 0.0114278
0.498064 0.0279777 0.0184985
0.501365 0.0241065 0.0188683
0.454258 -0.279118 0.0113832
0.237017 -0.124981 0.0154906
0.514473 -0.154066 0.0390571
0.238733 -0.126516 0.0162399
0.452048 -0.279064 0.0116786
0.45308 -0.280119 0.0111114
0.376421 -0.276811 0.0152462
0.578479 -0.0724014 0.0177071
0.212588 -0.036685 0.0106216
0.233253 -0.0582942 0.0119955
0.234275 -0.0592213 0.0126452
0.368591 -0.216002 0.0366912
0.408238 0.00159256 0.0349975
0.22752 -0.141248 0.0100938
0.438653 -0.285172 0.0105157
0.19892 -0.110487 0.00965841
0.494426 0.0572676 0.0073102
0.486357 0.038008 0.0164186
0.373465 -0.276511 0.0150214
0.210037 -0.0421508 0.0108247
0.225505 -0.0733798 0.0104841
0.227896 -0.0762476 0.0116388
0.228929 -0.077621 0.0121084
0.22665 -0.0773521 0.0112348
0.405291 0.00210871 0.0347083
0.421194 -0.289412 0.0100712
0.224074 -0.0776026 0.0101235
0.503209 -0.17848 0.038051
0.395945 -0.0194685 0.039261
0.501889 -0.176788 0.0385712
0.22649 -0.080326 0.0113471
0.227822 -0.0818208 0.0118686
0.564506 -0.167819 0.0221354
0.417277 -0.288758 0.0103347
0.566456 -0.17068 0.0207976
0.41983 -0.29114 0.00918859
0.29972 -0.141045 0.0371486
0.512485 -0.165087 0.0378315
0.37474 -0.291756 0.00789695
0.227762 -0.0848423 0.011687
0.41512 -0.28849 0.0103972
0.237947 -0.137749 0.014858
0.560693 -0.163269 0.0241249
0.324827 -0.218367 0.0293165
0.226347 -0.0858226 0.0110733
0.490562 0.0343153 0.0173876
0.363567 -0.242678 0.0278162
0.411507 -0.288402 0.0104741
0.237313 -0.139588 0.014663
0.414111 -0.290683 0.00922197
0.237897 -0.140848 0.0149521
0.226255 -0.0888978 0.0108666
0.506532 -0.163476 0.0396113
0.40847 -0.28884 0.010332
0.368716 -0.287163 0.00969232
0.510054 -0.167905 0.0381599
0.414795 0.0456771 0.0187236
0.357834 -0.272303 0.0153204
0.225195 -0.0903741 0.0102924
0.225968 -0.0917703 0.010695
0.27153 -0.142244 0.0284258
0.380059 -0.292376 0.00812982
0.22688 -0.12598 0.0105522
0.227306 -0.0932251 0.0113965
0.508523 -0.169088 0.0384778
0.355755 -0.272151 0.0152529
0.484778 0.0374078 0.0169691
0.486137 0.0357104 0.0174802
0.237921 -0.145842 0.0150415
0.402479 -0.290556 0.00960841
0.371828 -0.247357 0.0268368
0.239957 -0.14939 0.0157007
0.22451 -0.119861 0.0101511
0.403706 0.000839706 0.034909
0.225874 -0.100433 0.0112062
0.400045 -0.290415 0.00967201
0.239193 -0.150467 0.0150607
0.404826 -0.000620988 0.0353541
0.226091 -0.118507 0.0108204
0.506399 -0.176058 0.0380905
0.308603 -0.203543 0.0298729
0.399781 0.00243486 0.0341333
0.240562 -0.154684 0.0147289
0.502433 0.0415542 0.0116845
0.24467 -0.160955 0.0158326
0.225185 -0.10602 0.0104936
0.411202 0.0493419 0.0174183
0.225042 -0.108553 0.0102257
0.391543 -0.290558 0.00967043
0.271663 -0.13938 0.0286005
0.240963 -0.157384 0.0144314
0.484546 0.0346046 0.018221
0.390048 -0.291426 0.00918934
0.397114 -0.292761 0.00848935
0.399397 -0.00043369 0.0349063
0.502776 -0.171587 0.0392519
0.225006 -0.114747 0.0103505
0.38706 -0.291452 0.00902969
0.223576 -0.115775 0.00975111
0.477722 0.0621588 0.00782556
0.374688 -0.248065 0.0268913
0.40071 -0.00205496 0.0354183
0.312033 -0.08346 0.0403816
0.377144 -0.28756 0.00991394
0.301632 -0.198902 0.0292885
0.409392 0.0262454 0.0264773
0.248535 -0.173903 0.0156476
0.590542 -0.064746 0.0115903
0.469597 0.0658683 0.00670258
0.268482 -0.132461 0.0280755
0.407133 0.0284721 0.02562
0.375943 -0.288356 0.00947741
0.471896 0.0634052 0.00759985
0.249302 -0.176303 0.0151924
0.509319 0.0368889 0.0121045
0.397612 -0.00149004 0.0351158
0.473655 0.0622946 0.00804893
0.504057 0.0426423 0.0109452
0.498994 -0.172441 0.0396411
0.458958 0.0702215 0.00653807
0.224044 -0.094797 0.00985298
0.335654 -0.270929 0.0132379
0.27416 -0.137327 0.0296025
0.243962 -0.173262 0.0137653
0.404118 -0.28951 0.0100876
0.225538 -0.138519 0.00932541
0.389586 -0.0236973 0.0396266
0.381833 -0.0296894 0.0404863
0.393514 -0.0253652 0.0403115
0.270756 -0.132252 0.0290361
0.591361 -0.0594865 0.0106838
0.589623 -0.0578966 0.0112171
0.47658 0.0411053 0.0167037
0.587292 -0.0547872 0.0117656
0.445717 0.0705578 0.00718879
0.359099 -0.287457 0.00872197
0.44324 0.0709675 0.00710062
0.444417 0.069611 0.00783165
0.316343 -0.256204 0.0145249
0.439314 0.0724856 0.00670883
0.250269 -0.186365 0.0138529
0.513833 0.0369461 0.0111212
0.438031 0.0718196 0.00709862
0.392266 -0.00123236 0.0347224
0.587312 -0.0520029 0.0110681
0.414492 0.095138 0.00676376
0.412011 0.0954193 0.00671664
0.500471 -0.18559 0.0367703
0.41776 0.0733557 0.00634347
0.416798 0.0722629 0.00690873
0.40371 -0.0244442 0.0411192
0.374226 -0.216306 0.0368218
0.495898 -0.182091 0.0381716
0.401235 -0.0222147 0.0402146
0.529939 -0.173894 0.0321193
0.387555 0.000132499 0.0339597
0.389282 -0.00054768 0.034304
0.347806 -0.282032 0.00943028
0.229035 -0.154217 0.00951471
0.343654 -0.280078 0.00947735
0.373969 -0.0329224 0.0402712
0.390484 -0.00241764 0.0349705
0.591811 -0.0552124 0.00987577
0.496536 -0.185768 0.0366062
0.227126 -0.0721377 0.0108661
0.498804 -0.188704 0.0352755
0.588007 -0.050424 0.0104052
0.310598 -0.0848329 0.0403123
0.581948 -0.0411796 0.0114183
0.199188 -0.12866 0.0079325
0.536957 0.0154226 0.012639
0.531892 0.0215485 0.0119724
0.4939 -0.18549 0.0366134
0.527871 0.0259028 0.0117502
0.563801 -0.160407 0.0235339
0.497223 -0.189921 0.0348852
0.366198 -0.0298427 0.038488
0.199463 -0.13191 0.00816955
0.378737 -0.244805 0.0283744
0.58462 -0.0431192 0.0104841
0.382178 -0.00428351 0.034685
0.588305 -0.0990533 0.0154596
0.288925 -0.234883 0.0143578
0.494471 -0.189775 0.0350707
0.495675 -0.191364 0.0344462
0.495674 -0.1928 0.0339689
0.268234 -0.124344 0.0283143
0.29253 -0.239572 0.01435
0.575711 -0.0303542 0.0125547
0.310494 -0.0877 0.04045
0.369342 -0.036716 0.0401367
0.433791 -0.288579 0.00947763
0.38529 0.0332686 0.0219494
0.491572 -0.189375 0.0355888
0.561091 -0.0115547 0.0125383
0.559611 -0.00995661 0.0128442
0.381571 -0.24491 0.0286536
0.362953 -0.0322045 0.0384244
0.269377 -0.122492 0.0288167
0.268328 -0.121048 0.0283665
0.325747 -0.275663 0.00884396
0.534405 0.020867 0.0113303
0.267258 -0.119716 0.0279227
0.374327 -0.0074811 0.0345847
0.388504 -0.249098 0.0273813
0.491229 -0.192261 0.0351359
0.419843 -0.206981 0.0399741
0.40953 0.0723972 0.00682445
0.360526 -0.0324224 0.0379602
0.410457 0.0710423 0.00754589
0.355911 -0.31127 0.00500125
0.23184 -0.175469 0.0082663
0.320452 -0.272375 0.00908971
0.287544 -0.236122 0.0136001
0.290363 -0.239262 0.013679
0.530757 0.0251927 0.0110662
0.406385 0.072041 0.00680686
0.516298 -0.18939 0.0331641
0.491222 -0.195196 0.0343853
0.359577 -0.033183 0.0379215
0.405158 -0.0238959 0.041058
0.321351 -0.273264 0.00894522
0.403821 -0.0222381 0.0404095
0.323868 -0.27597 0.00840481
0.269728 -0.11972 0.0289645
0.391387 -0.249131 0.0273062
0.390128 -0.247833 0.0277856
0.489475 -0.196347 0.0345031
0.358694 -0.0355431 0.0383322
0.32532 -0.277388 0.00813369
0.441414 -0.284983 0.0103204
0.36204 -0.0403946 0.039843
0.397684 0.0726736 0.0061755
0.400683 0.0706412 0.00724926
0.486804 -0.196163 0.0349131
0.455398 -0.282448 0.00982447
0.27191 -0.224107 0.0132274
0.357086 -0.0369227 0.0388368
0.358074 -0.0385333 0.0393457
0.391681 -0.246731 0.0281046
0.242093 -0.0412708 0.0130088
0.239785 -0.0385528 0.0119709
0.238711 -0.0370847 0.0114253
0.483943 -0.195742 0.0356988
0.424674 0.045939 0.0189
0.54464 0.0110434 0.0120715
0.487544 -0.200175 0.0338128
0.355236 -0.0379983 0.0394613
0.383978 -0.220998 0.0363524
0.361268 -0.0101498 0.033142
0.241007 -0.0374077 0.0122271
0.467371 -0.277815 0.0103504
0.481183 -0.195689 0.0361876
0.360695 -0.0160171 0.0341133
0.371254 0.0257166 0.0228994
0.48455 -0.200088 0.0344158
0.408708 -0.0188893 0.0398545
0.352577 -0.0381728 0.0395912
0.353642 -0.0391765 0.0398926
0.374793 0.0676616 0.00684105
0.356071 -0.0423089 0.0405019
0.370682 0.0686113 0.00601451
0.349124 -0.0239825 0.0344952
0.548728 -0.199173 0.0213549
0.513023 -0.0345025 0.0334511
0.255706 -0.0183013 0.0139464
0.481872 -0.199758 0.0349824
0.501949 -0.0233837 0.0333504
0.484389 -0.202701 0.0337101
0.351264 -0.0391022 0.0399013
0.514858 -0.0388367 0.033746
0.421059 -0.0213434 0.0412007
0.41975 -0.0196627 0.0408232
0.515089 -0.135566 0.040083
0.423895 -0.0217151 0.0413543
0.497764 -0.0215012 0.0337227
0.479062 -0.19942 0.0356593
0.47508 0.0377221 0.0182189
0.481502 -0.202472 0.0343206
0.516753 -0.0446962 0.0343394
0.362432 0.0242009 0.0224888
0.338419 0.0584306 0.00432346
0.351655 -0.04323 0.0408598
0.272436 0.00530407 0.0142513
0.434633 -0.0252048 0.0417846
0.271935 -0.106874 0.0293978
0.268718 -0.102386 0.0285747
0.277374 0.0086817 0.0126489
0.479987 -0.203862 0.0343762
0.308453 0.0281108 0.0106486
0.348663 -0.0425989 0.0404308
0.516629 -0.0476883 0.0348781
0.516508 -0.124594 0.0403706
0.331931 0.0536383 0.00500432
0.328923 0.0538883 0.00461207
0.477347 -0.20356 0.0351011
0.529158 -0.0630695 0.0346318
0.480008 -0.206647 0.0337791
0.273257 -0.105574 0.0299768
0.483925 -0.00942614 0.0336034
0.348416 -0.0458939 0.0411046
0.352349 0.0205955 0.0215924
0.543158 -0.217796 0.0189999
0.271833 -0.103963 0.0295017
0.477236 -0.206033 0.0344397
0.436841 -0.0215344 0.0407841
0.344697 -0.0438859 0.0400866
0.533829 -0.0719641 0.033708
0.316179 0.0311769 0.00966041
0.515901 -0.117406 0.0405527
