0.43681578752411299 0.26511240183215473 0.0012856292995411787 0.026177908538756175 0.049676581610670956 -0.99842223249686046
0.23363377052765494 0.17913467038525149 0.034014387286777539 0.022979647984809386 0.059328339636228064 -0.99797398958815686
0.2338720837125258 0.18101388701153606 0.033850521154399155 -0.02605416270607968 -0.11026626642175354 0.99356053217460882
0.23409231688043453 0.18295876004675071 0.034073437258976318 -0.025113478570053693 -0.10752600638358845 0.99388503919986038
0.433081195602048 0.15856526245437905 -0.0066044640114249435 -0.14625124404155093 0.061220590778233643 -0.98735131178373525
0.23458602007630189 0.18715068913960214 0.034506639152092802 0.0049988805177334939 0.037568841504240932 -0.99928153857739155
0.3330923051499281 0.17566386196040987 0.027243658082263488 0.22425830257692933 -0.090987654037446353 0.9702728794200508
0.43277884422740159 0.16559268246839526 -0.0060035763179946914 -0.13292706900624804 0.053119789960956704 -0.98970130960806146
0.29654939796940527 0.20362772759860512 0.034500677718769822 -0.12281999272497483 0.024197829353254173 -0.9921339196104666
0.43400259704335076 0.18549663940969927 -0.004955855239377872 -0.081575782676562056 0.03503619993017159 -0.99605113140599322
0.29640825205556554 0.20166462503763988 0.034470337470029852 -0.12336415325931319 0.027098653400585808 -0.9919914055446688
0.19243070796399137 0.23696616027712925 0.033766759536737995 -0.067888014778784034 0.0031499665622078026 0.99768797484987892
0.29619638250371055 0.19775640997872923 0.034383260176552799 -0.12255722942088484 0.034233907275797164 -0.9918708409411523
0.11460153899176834 0.22923877196544237 0.022620832894142344 -0.26080727831839762 -0.0029779763626290689 0.96538629326965975
0.19064706854378843 0.22299540002217033 0.033478558444242475 -0.069635850473649688 -0.019483169284700647 0.99738220078535356
0.19038549461130674 0.22105275423274892 0.033313682193547509 0.085705539120390056 0.017291784302403013 -0.99617044463270565
0.43384968634242904 0.14733680872067659 -0.0051554142289563674 0.059097405755647134 -0.048530060294185898 0.99707187799114827
0.31248046104197758 0.053237833409134371 -0.0004768218840035984 0.15892158966161724 -0.36414249332578119 0.91768413568825957
0.24343169094480815 0.25647564285924807 0.035604828841219814 -0.014196086519398445 -0.067749707932174677 -0.9976013473340134
0.19014479370603363 0.21910416732623078 0.033486590513546667 -0.069665953531349759 -0.02526150184838449 0.99725047577974713
0.24369076283820704 0.26050487025768349 0.035418323584847894 -0.017709833978002826 -0.078510008702136036 -0.99675600841633361
0.24402535483887935 0.26251439181926167 0.03537180259485892 0.006659751910336415 0.077044549890971536 0.99700540872985766
0.1168438270122545 0.24522670170441233 0.022837718795285174 0.27255510986695286 -0.043254142192505604 -0.96116741063594313
0.24464007929196779 0.26647078574668248 0.034987441532624675 -0.023647454969109704 -0.093009227440637721 -0.99538438880885594
0.43502566715507851 0.16289387475954525 -0.0045842500556335852 0.040426878899306885 -0.033863015970473538 0.99860851368884507
0.11212326187647713 0.34300290110750903 0.0029364798178914183 -0.27253310221456079 0.2715302003049907 0.92303686736751711
0.23112511015050657 0.14360067014829939 0.029926332731228009 -0.038130058114051506 -0.17374589078967284 0.98405206371508724
0.23128852445670692 0.14517912879331979 0.030140237619107044 -0.037616373836448273 -0.16852748278382831 0.98497893173709195
0.31094115795108851 0.053251403201911969 -0.00015731346167756702 0.15569485132356228 -0.36500819633084225 0.91789331072986868
0.23161650686368648 0.1492207987441059 0.030902262323551352 0.058690246738019113 0.133666673619382 -0.98928695296226354
0.11714665387357147 0.24713795982647976 0.022831841520868892 0.27375583489621802 -0.048362127854585872 -0.96058255629053102
0.23215968667924744 0.15304017652768886 0.031146314129090896 -0.035780725506420467 -0.15112082643403046 0.98786751920494376
0.14413645718381002 0.17475231855904319 0.026010758839863098 -0.16973132588641832 -0.12475799773178838 0.97756161903728278
0.29399870699064173 0.15967968256209863 0.032347427968114809 -0.11589246578053522 0.11368327199664442 -0.98673453879118089
0.43600982556157997 0.18529585167246895 -0.0050386243236502717 -0.070232472519146355 0.033286911263673578 -0.99697511570869801
0.11749642545661279 0.25089014330464487 0.022718523938555783 0.27331710494303246 -0.058229849330691662 -0.96015990584510691
0.11778852512428224 0.25288554087229193 0.022674330701715845 0.27312286339397374 -0.063075772328919866 -0.95990903133400463
0.23393820913285154 0.16742623127179707 0.032480509915412702 -0.030803344507386348 -0.12512148541482418 0.99166313224539471
0.067360559608581033 0.34580389604533757 -0.013372803635748901 -0.30561705174316167 0.25191492265607296 0.91822496667592435
0.23428045087536087 0.17117590545891323 0.032828643016943333 -0.029200507395231889 -0.12011225981051299 0.9923307792319418
0.18782068120452117 0.20109237149954506 0.032831750068561642 -0.080775630128033668 -0.080043530555452727 0.9935131256272548
0.23510287753551085 0.17498855842708277 0.033229761106500402 -0.027127421225849029 -0.11481529364095538 0.99301639027952426
0.11825089188419743 0.25694853092686371 0.022525618849686676 0.27344996678041039 -0.072460479312372858 -0.9591530610938036
0.44092917699094769 0.26271394601177744 0.0013954078604065823 0.033685081752863846 0.054684691134197307 -0.99793531845649219
0.44051938598482027 0.26685351240989108 0.0015928982046874702 0.030815640371760128 0.051685721462906162 -0.99818784930760263
0.18734819326595734 0.19719779373955801 0.032379609930379909 -0.083634247436322251 -0.089434942221469124 0.99247503936653358
0.11905854186994495 0.26298994904038903 0.022249678648547263 0.27195376789063092 -0.086652710349867462 -0.95840098910587046
0.43683338316947162 0.16496512337320268 -0.004623305350476458 0.031644667438528076 -0.030441674886304046 0.99903549459106888
0.23683789982452744 0.18890515862834389 0.03464638671027101 -0.019390866819199569 -0.093578502107758185 0.99542305490041183
0.23717024353326557 0.19072491467455735 0.034802929575972391 -0.018321140072794413 -0.089775480765079574 0.99579350212774131
0.23809668758696301 0.19907479363718872 0.035319650380643483 -0.013686129694253915 -0.06711968563396245 0.99765106006779247
0.18486582052137843 0.15928574928217493 0.028154255423647415 -0.096731412504066111 -0.13641686958955362 0.98591757846503325
0.11022071057819598 0.1772968048315792 0.018192291393430961 0.28578131575769755 0.12620079778699467 -0.94994862924356349
0.11072816850907112 0.18132201876986553 0.018892767876368167 0.28433384192998462 0.11500596720872643 -0.95180244475401499
0.35766195515182114 0.18250653810178769 0.020830647133250179 -0.29651354344710362 0.065295553769299686 -0.9527938965014433
0.3579080876967024 0.18452086315897884 0.020872004282687963 -0.29787466555730308 0.05971503347584993 -0.95273542938011013
0.098532337914841672 0.36891799368844919 -0.0097575177477317726 0.27687441554623948 -0.26681056103694484 -0.923121163518137
0.096608703429987397 0.36860092713979886 -0.01021586134947864 0.27973461587515736 -0.26446967914202496 -0.92293246421159791
0.24629584013739278 0.26425501189009648 0.035159223504158746 -0.024843718990827313 -0.089780867109374718 -0.99565163864064099
0.24662966383649898 0.26627617031635947 0.035135320974164649 0.014517580375303464 0.095429077014063737 0.99533036280437592
0.35810958150106714 0.18654739190245576 0.020920555363831448 -0.29837067452800653 0.054940225495028534 -0.95286752080457526
0.24630974399890174 0.26952544033127757 0.034837148264913749 0.016942442762739485 0.10759846758645551 0.99405006081498615
0.11164493465868136 0.18931444955904622 0.020064560076912499 0.28363104039757936 0.093497609260373316 -0.95436451630683605
0.092659683395785453 0.10181593029575466 -0.0062381517055278704 -0.30663238651377056 -0.29835679594725378 0.90385828637732712
0.31306946850271389 0.17459138211006359 0.031526529227337424 0.17557730890517023 -0.092748668329438455 0.9800868803941486
0.32044791964004299 0.3315866864201098 0.011072795379683639 -0.19560177527206127 -0.25855862964173171 -0.94598487331891723
0.23379109396174994 0.15093766275554144 0.03095063252709742 -0.034705995240979004 -0.15336317609049407 0.98756024125810637
0.2340790696534317 0.15276745593702232 0.031437710515612491 0.051950692543498149 0.12390959043126422 -0.99093266115483714
0.23434109096537248 0.15478165233773827 0.031428298117368893 -0.033510481187893577 -0.14651540164430504 0.98864062466174418
0.16177226747315088 0.25111861070317704 0.031574531589414916 0.14879546361127424 -0.032341522102963254 -0.98833897826442607
0.23499233175085701 0.15880224532747894 0.032144292786567739 0.047177341027511643 0.10911591042851301 -0.99290886620320329
0.29562851328647827 0.22184205699222059 0.034946025203023881 0.099076367724983808 0.018876284787231044 0.99490077858601311
0.23560664342522292 0.16265667801111464 0.032170804275804987 -0.030457553363671619 -0.1304548913224037 0.99098630604724247
0.35885987981792733 0.20245813314556607 0.021209930648127429 -0.30285289784063507 0.017392398676912182 -0.95287860020980275
0.31322008723589917 0.17857665309061566 0.031276405196617396 -0.15664960111451035 0.069928887043160262 -0.98517554437144328
0.19386554191371846 0.26307984923951599 0.034198225307606148 -0.065725929984552359 0.068995973081339132 0.99544947527547811
0.19124645665109166 0.24305050796947364 0.033855448445978716 0.074161934383594696 -0.011061000266064561 -0.99718486839782994
0.23678107173160501 0.17283635964093474 0.033491546312179189 0.029274416407224446 0.077962851226203389 -0.99652636812715467
0.23702014359747731 0.17476711363893324 0.033645571622190923 0.026863219687384685 0.074148085862113702 -0.9968853639165397
0.11968268405914249 0.25077844496402191 0.023335479458100217 0.26796610465952492 -0.057076017383540102 -0.96173618783595438
0.23758318776931897 0.17860212135988185 0.03394312611668477 0.019265963089861546 0.06243160077828467 -0.99786327615083681
0.23779037342101095 0.18055375025051348 0.034069714130472356 0.015547752791189506 0.057362223941957245 -0.99823235904651819
0.093035716520038697 0.3631363251065951 -0.0096114299079537013 0.29048548208949504 -0.25901596045175984 -0.92115629343042871
0.23831974331255915 0.1848682411160448 0.034285479013194439 0.0063381399438991893 0.045142597242683623 -0.9989604466124955
0.11979537153092205 0.25271715486684365 0.02324841593354237 0.26889506089107362 -0.061568321428288199 -0.96119966085350284
0.092708243385704728 0.36905461220312752 -0.011489460337349825 0.2843090773146249 -0.26010532482092902 -0.92277492843938147
0.12025727280439533 0.2566401817149499 0.023109308892798285 0.26872068374745123 -0.07100955015980305 -0.96059712570484246
0.036848685136451932 0.19791503287506457 -0.010657937917430513 0.43150842658640753 0.06046988219433945 -0.90007992485796817
0.19026339327793654 0.23528984093240704 0.033577990141497559 -0.070698280057671342 -0.00059344789990018799 0.99749756942885692
0.44301683249743018 0.23461885250719727 -0.002809866054856623 -0.0091844280420576123 -0.064227680116448291 0.99789300598230446
0.18870769038942289 0.22324879360383132 0.033200591455007492 0.087276764584204691 0.016017133824408333 -0.99605532867796276
0.44378754558270522 0.2488442535083793 -0.0015923568460985123 0.013537722419113482 -0.057266902601667988 0.99826711452301886
0.24634576380362014 0.24685366304409451 0.035879076366112171 -0.013948899030847376 -0.04894005180760138 -0.99870431036663521
0.44386913848670273 0.25481114390729792 0.0009030116741034019 0.04002449511871934 0.059877498304806008 -0.99740299026383994
0.31337794866705021 0.18053437451878912 0.031365605724559639 -0.1565212832671817 0.065552080692134349 -0.98549683540908772
0.32083569607313572 0.13436012257766988 0.023933415444533677 -0.19872396482223709 0.19387787545554233 -0.96068733478389079
0.32063816843700804 0.13242097603729847 0.023313737170468016 0.19443181063843545 -0.2063146151322631 0.95897369650824404
0.24730796779875194 0.25597350503143768 0.035669073112037722 0.0064612947928661957 0.057782199974087026 0.9983083035995215
0.24762556797428911 0.25795415795005422 0.035593326677548241 0.0084054812761545413 0.06274948799997869 0.997993912626854
0.24790211235509058 0.25990890416819512 0.035472585990116441 -0.025415127034186084 -0.08172156232930089 -0.99633109836454192
0.31355386715853623 0.18449728975476032 0.031521290160271338 -0.15723537541235055 0.056831944938572354 -0.98592452386246898
0.44106730982016279 0.16492373398068849 -0.0047197047334910681 0.021389542855194118 -0.028186851088741648 0.99937379837683704
0.067547134954388327 0.16587802901870574 -0.00014401927500272329 0.39807198694176216 0.14868360757666904 -0.90522476659127293
0.23462434976040819 0.14310615183637865 0.030165444248469942 0.052401347624621286 0.14992717674116682 -0.98730741941988187
0.26700586163359435 0.03941008001018631 -0.0023169070807447754 0.0058686172337933801 0.36188632234386542 -0.93220375939608568
0.2353351707526882 0.14667632406116565 0.030710820218057235 0.050609098363514959 0.14170761355076222 -0.98861401538951488
0.44149918872373289 0.17472711937319044 -0.0047427066974657294 -0.00088537540038239606 -0.023319331502666435 0.99972767536398088
0.089804189360776318 0.36871251004145733 -0.014805066854368167 0.42311808596668377 -0.67383753240701239 0.60573431902734265
0.11199692419349601 0.17505641045382736 0.018387127517391522 0.2798895892622309 0.13050358859891886 -0.9511207237703444
0.083693145306126537 0.29859936121991654 0.0047610079945703317 0.36202552306313801 -0.17046636043083505 -0.91644898418424026
0.23676374603736813 0.15655779282940988 0.031979513010871298 0.044752808770561744 0.11425928025953697 -0.99244244315815011
0.23693840964243923 0.1585578770243882 0.032198529502622857 0.043392369541004373 0.1100027133349107 -0.99298363799439038
0.35863744932214819 0.16248137862690668 0.018763896238237529 0.28859544261838971 -0.13230468350213342 0.94826585999038049
0.23745653351973475 0.16246603815278071 0.032247313173075907 -0.028910940006383785 -0.12926562640074235 0.99118845603607142
0.23772989085610369 0.16441165485543557 0.032416220313955815 -0.028142159549729127 -0.12540271193569519 0.99170669993453742
0.14979948198155008 0.25079995902439634 0.029830650153421585 0.18043991438989504 -0.036281045929563494 -0.98291664092191677
0.23823099648886012 0.16872326733760287 0.033191490428296458 0.032839763561408122 0.087503530941547572 -0.99562276088988266
0.44498929764844669 0.23275913687827551 -0.0028864528020153542 -0.018506081278324611 -0.065691137947418293 0.99766838145292214
0.086816398566487429 0.35795416262233326 -0.01045935526734941 -0.29127702519497595 0.26321832694912867 0.91971398105697344
0.10170066437832496 0.090880501555708565 -0.006994470979174966 0.30964772714924482 0.30385493400142605 -0.90099415322980636
0.32578644685433295 0.28671736868133485 0.022508499650677971 0.20460007700777125 0.1966809281527957 0.95888238120708469
0.37400187052698108 0.25606946526647556 0.013099147630733251 0.30378963045164198 0.10152505932883389 0.94731437377373917
0.3254682305518542 0.24855553733709121 0.028583918373190385 -0.21250452241540274 -0.087402246565086911 -0.97324337924713222
0.203853811482273 0.34277470642672342 0.019103437315241174 -0.01422929684544424 0.29136382475977651 0.95650648128104099
0.15467730329044568 0.25823062089864796 0.030376807620407658 0.16879005035673336 -0.053117206266039212 -0.98421973222398984
0.24052225212951162 0.18623958923825795 0.034375686071120383 -0.016201754439332312 -0.090664660330097804 0.99574967864434449
0.42665000005257059 0.20376369085099022 -0.0036863187034182707 -0.095041281831495267 0.037562594490872597 -0.99476439735393651
0.24099588003729985 0.19037977592263522 0.034703887079645224 -0.013712670469075596 -0.081935935404596788 0.99654325804652366
0.36039980525500592 0.19049456543398158 0.020468981358753611 0.28737523623638406 -0.059229747357207665 0.95598499497956757
0.3185030553364952 0.13233566243176487 0.02374801627700061 0.18928372569900798 -0.20594767068616313 0.96008188615578327
0.44356663655855405 0.17443258682494445 -0.0047461216979649053 -0.0053030422595617029 -0.0232922518141629 0.99971463365713464
0.085108558749231483 0.35833926850718456 -0.011123321233434028 -0.29175845841698472 0.26275427474618895 0.91969407579082996
0.31365963143616787 0.18646971076672733 0.031594321419678328 -0.15816624729784906 0.052753409761314533 -0.98600229004514517
0.31404597679059543 0.087216083379353826 0.012021491312677813 -0.19209008331962826 0.29279305549581808 -0.93668224417017809
0.38801955623739076 0.27126056234639362 0.0050318126633975713 0.25040773317695969 0.092448147719897872 0.96371640390123925
0.24962770642814938 0.25774852380923707 0.0356040323018273 0.010653942659705642 0.063246989994521399 0.99794103621528496
0.24993312666376774 0.25972380976694404 0.03546835420267485 -0.029143689560700056 -0.082607928388940072 -0.99615589920758751
0.11351189327974072 0.18914189005613957 0.020323760216183664 -0.27016428057232555 -0.085805758918504643 0.95898312458523338
0.25032283708143988 0.26378094040067673 0.035150135758690373 -0.032171638456564566 -0.092486998178040361 -0.99519402170985494
0.25053456301195726 0.26577534644938283 0.035152265214205655 0.020392502161893349 0.095442833549456346 0.99522601020051127
0.23721521367944393 0.14474313369842609 0.030331951617435737 -0.032171177612552788 -0.16843036568621719 0.98518842220451863
0.23736886966516635 0.14637302783056494 0.030544197779205133 -0.03211850073534437 -0.1632860369049127 0.98605581589603797
0.23751147718238946 0.14841169621301276 0.030793425241325927 -0.031875908822882278 -0.15737439882965543 0.98702442980390304
0.32398028001771911 0.28908906298064885 0.022600849399587866 -0.21268369146991795 -0.1874097015027299 -0.95898031844526732
0.23799135669545532 0.15234286609361219 0.031300560919796952 -0.030549238323162069 -0.14813561185526042 0.98849511103401133
0.44707622889773713 0.23090688942904083 -0.0029137596065363894 -0.027820018485123273 -0.066905369775977996 0.99737140427557225
0.44732256617108251 0.23434943665595376 -0.0026208924125475262 -0.023312972283940442 -0.066981509903761449 0.99748182071369129
0.25563962286129044 0.047186224344699053 0.00045992737805432911 0.019924786372999333 -0.40369079136957936 0.91467849425434355
0.32383580191614098 0.28695076431189148 0.022885592207080759 0.20041206138128997 0.19721133403665145 0.95965759278004281
0.23945516636342082 0.16215612685940894 0.03265123549471962 0.036642758277727373 0.10231388543845565 -0.99407704787520701
0.083049373189582998 0.35869417834343442 -0.011407440756678374 0.31447029881211674 -0.24716676846689908 -0.91652442396842226
0.24002660543795287 0.16649386947592379 0.032702279164785492 -0.024534030962371136 -0.11833679081456286 0.99267038097469584
0.24024397665655833 0.16842877794244132 0.033231476646584754 0.03123190598525135 0.089072383798740259 -0.99553537279844473
0.24047179694327733 0.17037899252616653 0.03306596113428651 -0.022647124695082312 -0.11267620972519385 0.99337363539858925
0.44799808223694343 0.24629541268794017 1.5274108312340938e-05 0.047095135263664441 0.061003852312543641 -0.99702586638337853
0.24092510674054265 0.17426169893789939 0.033385055530938762 -0.020381779345030847 -0.10570270136877738 0.99418887641839648
0.062030687442732678 0.17637216787680512 -0.00095618619372926791 0.40891700809247039 0.1201002162158166 -0.90463407992271472
0.24148560354766047 0.17808764712833663 0.033917479719184948 0.016666038301046602 0.065330790011824097 -0.99772447651833163
0.24167148450066048 0.18000733242375946 0.033872325336413905 -0.017520138738193053 -0.097040601336174759 0.99512620628285542
0.45907828180897248 0.20576169057526053 -0.0028739775864570429 0.075925323425280758 0.029190069657200023 -0.99668615175298514
0.11373030760825199 0.19273110430643581 0.02097708829839335 0.27769033022159978 0.083938359891096256 -0.95699656856240167
0.45944069682802219 0.20402833211754753 -0.0035568259676250508 -0.073928204219177826 -0.049339120628205974 0.99604230422033935
0.44539622951960062 0.17278256852769189 -0.0056633317789825865 -0.047992926224085436 0.031515120952738597 -0.99835037746463728
0.44553970619190475 0.17441158108696231 -0.0047393636205189001 -0.010502356362786618 -0.022770499850241391 0.99968555298523709
0.31197871649861508 0.087442473329836581 0.012570557463820424 0.16711879075544198 -0.31030611250039691 0.93583194341790343
0.12130863360291116 0.25437599956582413 0.023555412915185637 0.26495240579216611 -0.065281462756102457 -0.96204914286400522
0.32196247343878537 0.28918158379352887 0.023034955924468206 -0.2087874343147014 -0.18776051819997153 -0.95976757346639008
0.25564000598687109 0.050940036868577274 0.0012137071103757962 0.046252056732151818 0.35722241131582733 -0.93287346199886712
0.25028395710410717 0.24777483477007659 0.035898700876004483 0.0059355592288131533 0.040035165148734092 0.99918064167004095
0.25051385175072288 0.24970474650573449 0.03585826150035358 0.0073490846787662599 0.043519787725539862 0.99902553472406719
0.12252911119242545 0.25834086145782553 0.023603809116759376 0.26410423762877888 -0.074508690848806791 -0.96161187942668347
0.25103883957808004 0.25360204825800409 0.035769403672831657 0.010395382625732816 0.053818031830913264 0.99849664770088808
0.25135607754877615 0.2555835969960274 0.035695970951600965 0.011771594676464381 0.058690811138391238 0.99820680134263307
0.12280712334999462 0.26034435626047853 0.023519263872494173 0.26416515474774377 -0.079782118513086378 -0.96117198491355571
0.12314466528427043 0.26230542066473311 0.023443731101379782 0.26355286114029097 -0.08381097093760477 -0.96099719590395394
0.12517359453785326 0.06813597688132908 -0.0092333801757617257 -0.22640558820257642 -0.36169528236361415 0.90438765601181825
0.36089661631791248 0.34882051228715028 0.0074889191067954173 0.76398200173294306 0.64292714705783627 -0.054554418741258152
0.081157417883918351 0.35872029938329358 -0.012050099091989499 0.31663931644515159 -0.24613283930305338 -0.91605576724223747
0.44952130353783554 0.24446370721488234 -0.00019737638408955701 0.049873336277877239 0.060472005754720733 -0.9969231599519166
0.44985660480664602 0.24846276220803928 -0.0014474325233942843 -0.0038101749804971782 -0.063173696744138197 0.9979952738396598
0.26923754389210874 0.040829507928674187 -0.0013705876776675 0.05015474528490306 -0.39893642427728254 0.91560593647609256
0.23994058579595878 0.15014969707176329 0.0311205825519505 -0.02929214604237251 -0.15192388618561195 0.98795804717937974
0.23999762938464964 0.15200297863733223 0.031603047503704532 0.040056829094341724 0.12909141200078456 -0.99082332319669908
0.42711376878668761 0.20151958851281521 -0.0038285892614649004 -0.098227791961091618 0.036976371335104737 -0.99447677139757118
0.24085061605729649 0.15592521482864652 0.032080160965549581 0.037675417045633666 0.11825888634544073 -0.99226780596307451
0.24102024431372127 0.15791670627991738 0.032305419976272384 0.036658523005604481 0.11335886332778267 -0.99287759607923498
0.44743114369098674 0.17264279911856648 -0.0055984243146465539 -0.0381109772487691 0.029845762540839416 -0.9988277047977292
0.24159310718095237 0.16210595984918375 0.032442086769500611 -0.024809534042332503 -0.12628777023616899 0.99168335980260303
0.12363474899867993 0.26636756685506896 0.023191538636707372 0.26182103138398816 -0.093320539025641844 -0.96059409977419086
0.12725451128936671 0.06751752836130516 -0.0089769230113405808 -0.22352143289040655 -0.36311988557231473 0.9045341993206053
0.080175480834250912 0.35255048802011185 -0.010622611657969676 0.32825863778652126 -0.24339095801682162 -0.91269223086108886
0.457289526651524 0.20416264103281936 -0.0037502297965862951 -0.071120111948312983 -0.048905868173389246 0.99626810936347177
0.12858969836608825 0.065677057236218195 -0.0085054866970428866 0.23659582439569601 0.35433348047917679 -0.90469342900787886
0.30816750064008097 0.16072833383056012 0.030565895117869106 -0.14545305706696862 0.11173664022344258 -0.98303526458690693
0.12397548747885553 0.27055772447859994 0.023193847945693291 -0.2367985285034665 0.10353243174601293 0.96602665205228688
0.13087573113904916 0.065378072200245149 -0.0089890966943426305 -0.21821824059912392 -0.36585720397240645 0.90472609433536066
0.45110068079705484 0.24032672157132368 -0.0019466933699033048 -0.022789195442350044 -0.068319904194114808 0.99740314981555844
0.31659602422826355 0.13241130258707767 0.024172292553668508 0.18463801300462721 -0.20650018383274943 0.96086756539636808
0.45751941088073927 0.23796889067871199 -0.0017216622300567199 -0.038860728617140183 -0.070393440546321948 0.99676206152692048
0.45736019308472858 0.2358600723380547 -0.0018733223557154031 -0.041675163593454155 -0.070172131908898649 0.99666396174579275
0.0606685142583204 0.20472899833887181 0.0012143821650948223 0.4158453098128887 0.051900049381372625 -0.90795322741914064
0.44899474775420006 0.17293901851608642 -0.005514727126647764 -0.030822440626032288 0.028414313391639259 -0.99912091557945892
0.45032609138753565 0.17888692917665869 -0.0049870411448268226 -0.0060587713996074115 0.024279835349553806 -0.99968684140811104
0.25267868456131171 0.25138468424543664 0.035822962065069353 0.010736204064166817 0.047843748624790093 0.99879713137344395
0.25298900777125938 0.25335847272076062 0.035771120514497046 0.012679367917934075 0.053511408146408902 0.99848673643037955
0.25332593593767011 0.25535046107037179 0.035696906302646873 0.014232379996705439 0.058446394631418451 0.99818908945861451
0.25366344751335856 0.25734655478506063 0.035617992850159028 0.016601403472886214 0.064255566454617469 0.99779537761122472
0.25400930287170037 0.25935216962878332 0.035436356180918109 -0.037441770988522277 -0.085433729069555042 -0.99564009146001797
0.3740868402343262 0.25423897196866074 0.013141022685050501 -0.30742203306164823 -0.095257806900722414 -0.9467933479977072
0.25418453964297399 0.26332257308126616 0.03510260879590954 -0.038927088670024937 -0.094470807236828991 -0.99476627825218211
0.31625555343983125 0.12849920496207426 0.023379386856254885 0.18308489162086303 -0.21535117869168577 0.95922040861122138
0.24135128497066549 0.14571871497350231 0.030804270020858747 0.039313359723649986 0.1441947391329268 -0.98876809058222859
0.25758497472609138 0.045793278932845814 6.5562976034135479e-07 0.02342071888588251 -0.40356271762138768 0.9146521758968863
0.30685018162726363 0.33680644726507636 0.012204044121426939 -0.18092676463918184 -0.270961091135756 -0.94543407645785582
0.28947710314876107 0.040804643085333749 -0.0020661989317887646 0.10556847138539377 -0.3896271789346592 0.91490215831244515
0.11361379829126318 0.1708725726220251 0.018204361200491848 0.27496563686365749 0.13928909188174182 -0.95131090996946044
0.1140618488320042 0.17485009569013366 0.018940656128737059 0.27327861201262937 0.1307265334913279 -0.95301068916239939
0.45559958864771605 0.20597160947064888 -0.0031873755597780955 0.067724750885236981 0.029781399050561111 -0.9972594579085845
0.24327992999652293 0.1595980541090172 0.032324370182224164 -0.023131447104092324 -0.12977173329815681 0.99127404555534626
0.24351774618479061 0.16199050422981837 0.032531637213712432 -0.022535721336098199 -0.12433035719693727 0.99198493110689123
0.24371070451987506 0.16396493020159492 0.032693359116579182 -0.021340348552659372 -0.11883953510258181 0.99268411613173968
0.24388110619869757 0.16593992720078449 0.033169134712523092 0.028717520977068135 0.097012203823636775 -0.99486880356065688
0.24410270314220453 0.16791529890361656 0.033326990082331517 0.026919152461397301 0.092062921905936165 -0.99538925935580669
0.13891639059332789 0.065273304442944685 -0.0071590802782025625 -0.20746504927442891 -0.36949098356734533 0.90577848638173919
0.24449284334827023 0.17186452076479952 0.033613577354181315 0.02211802290974723 0.082150225672420155 -0.99637449459755556
0.30477525172958764 0.33733046711649567 0.012451454421868029 0.15292540277144484 0.27649862895682753 0.94876884928426375
0.28740124508853315 0.040769907690031255 -0.0018532699325026181 0.10108256593597809 -0.38999742254000086 0.91525096300192699
0.18459912400177131 0.14540569184539157 0.026693883490278205 -0.10347867568591175 -0.17214065148377095 0.97962225361872668
0.1260252925673325 0.27021867956896123 0.023427327765164107 0.25610865283569401 -0.10151581862496648 -0.96130270805381013
0.28088038428526108 0.17637085010422823 0.034724741784007959 0.038040974083116783 -0.078952656075113231 0.99615227871520362
0.18043396535119827 0.37725072933269926 0.0059543335584095703 0.094507804946055957 -0.3262769963972883 -0.94053792928634317
0.12625633238972545 0.27227824681156282 0.02325537183667329 0.2556752594424278 -0.10571540102088517 -0.96096535613727552
0.078597478990480932 0.35275051033769056 -0.011620320331019051 -0.29793694068578641 0.25885066249145128 0.9188198484482859
0.15104782918468707 0.26073002627950809 0.029677715986009889 0.18127540035227099 -0.062678101619951035 -0.98143297519720785
0.076767958205906137 0.35475186586954094 -0.012804621018914083 -0.29754580939497538 0.25881988692034386 0.91895525323381733
0.062072798068182077 0.23094690415749064 0.0023723446263029858 0.41273017076674717 -0.0074355164540866091 -0.91082299006662815
0.035315150807506933 0.25078114807046048 -0.011042632087482577 0.42494837201273128 -0.053395121801340296 -0.90364143447030443
0.37871345103705467 0.06042860104807489 -0.0047884790039183682 0.72054317920325561 -0.55902940705335158 -0.41024827720935436
0.076502979680171945 0.35297885695665376 -0.012381864341904761 -0.29846549317901822 0.2582428348702378 0.9188193443869086
0.1285453297237921 0.27396946467860589 0.023643728003169877 0.24961055877276972 -0.10973740466214753 -0.96210824285376628
0.12883089550723706 0.27597886485614542 0.023471274773067277 0.24839326936155903 -0.1134195669654402 -0.96199625028648017
0.075630215719609137 0.34934686253523856 -0.011614268729362082 -0.30051702977009803 0.25684662313211226 0.9185419571275929
0.1290947736652398 0.27801483886094397 0.023283895714056972 0.24733991438531688 -0.11784467914490761 -0.96173572167674937
0.25591959350269111 0.26116638734442976 0.035417971078473283 0.026085082949830283 0.08189083911925886 0.99629988402882197
0.25605873755133313 0.26300864743608809 0.035076339318881197 -0.042105992165664123 -0.094763771179517967 -0.99460892470135265
0.075140798803161102 0.34789159839076284 -0.011358652423181312 -0.30175078171420511 0.25598948898876805 0.91837674581956585
0.25941943094748404 0.045637853284245883 5.6474839130682137e-05 0.026631326190895265 -0.40250187760218331 0.91503169944654439
0.24355250181595864 0.14749322839123907 0.03096818674546584 -0.025521648236325759 -0.15755250578119473 0.9871807602427064
0.24376882962480539 0.14949220985483658 0.03123244735818715 -0.025112379074307419 -0.15198678398217316 0.98806345237134674
0.24401134964909008 0.15145455886344497 0.031483646563601191 -0.02434066345917394 -0.14593896774559792 0.9889941100915195
0.035326951608139291 0.25302764676264855 -0.011173760326006116 0.42412572669824261 -0.059109782015668223 -0.90367217597021765
0.24462059551678042 0.15526247625049239 0.032162689558227472 0.032474625015258808 0.12184499276877964 -0.99201773999626353
0.035383258825148624 0.25526150320997965 -0.011292410354465564 0.42331569226001348 -0.064730761680090038 -0.90366683748975818
0.074015566510436004 0.35150077180142925 -0.012531383246370683 0.33842792162850144 -0.23913062786588057 -0.91010059041772007
0.28064577005455621 0.17244541726232215 0.03449072218299442 0.039013650323390797 -0.089024088416288505 0.99526511381143723
0.07353350470013692 0.34754626192436067 -0.011793326088992615 -0.30266731419898191 0.25508777788533676 0.91832604367353965
0.11697051995579565 0.16627285374442261 0.018415482971360416 0.26648012846834318 0.14613115139861008 -0.95269828787628874
0.30961655554307072 0.21914546960528614 0.032986382615119075 -0.16296801126396623 -0.0093824558426944503 -0.98658674065032304
0.2465237056716211 0.1697298577824877 0.033308307701506251 -0.016002450435907967 -0.10559272123164136 0.99428069417189391
0.19700256844530037 0.37852426923487897 0.0061446507087219351 -0.03956600954411655 0.3216439282809207 0.94603367502894564
0.060589185611244246 0.21494670904595428 0.0017589934620966315 -0.39650671108778224 -0.029655805053171374 0.91755270218609142
0.060386575238042743 0.2128565161741926 0.0014162101431966527 0.41557656800884396 0.033067295694614383 -0.90895691321285166
0.072090273856315723 0.34945307449682733 -0.01283113176586104 -0.30173935246074529 0.25549972946251021 0.91851687595882214
0.071642407389541141 0.34727038542332467 -0.012244016154309884 0.3473496219109633 -0.23576447098194009 -0.9076140999240353
0.1308872454203254 0.27559411522625415 0.024034329467817767 0.24382606807268115 -0.11264934905908602 -0.9632543655155581
0.19891977268023733 0.38003040884557965 0.0053765180005262408 -0.034933574718167756 0.31730530990081585 0.94767979068151353
0.45833075214150742 0.21593015785829958 -0.0030419342727455792 -0.069887232856997619 -0.061061812994777177 0.99568430221500559
0.13139703560126464 0.27968436042125455 0.023641232144621563 0.24130145646979831 -0.12161724688596329 -0.96279948710280927
0.45344269984589469 0.20610422756725361 -0.0033508185499750826 0.061698356477253934 0.030654249727671629 -0.99762399218424935
0.45340303847020769 0.20436865171944296 -0.0034245018312812885 0.061324759402793395 0.028809117318404041 -0.99770201395182312
0.25662787391593156 0.25092216600358924 0.035851764247616255 0.01742805933951241 0.049879235010803651 0.99860318678762261
0.25696110940973432 0.25290850642161128 0.035780826924491707 0.019032890048148135 0.054858506580694751 0.99831272322461706
0.27257982322531837 0.05897363889748123 0.0066795000401384027 0.063701618473887722 -0.37340633544846125 0.9254781534162535
0.25770444925507924 0.25693925826030833 0.035532070848393355 -0.043441882793330881 -0.082438246798978182 -0.99564890312001109
0.081511748289375005 0.25001845321180927 0.010229488437968979 -0.36032357186824276 0.043952652474300684 0.93179133280825521
0.27193647827510581 0.057736356153580651 0.0061218174421868513 0.061075026615964298 -0.37632865562314366 0.92447097525056821
0.20586638010823682 0.34255847421630697 0.019078444276625434 -0.010379433386332409 0.29095168216839856 0.95668144437213676
0.06683549463258362 0.34953177819759257 -0.016806807987289101 0.52057985311634358 -0.65706469524525568 0.54521794063624263
0.1687686749774634 0.049851756930670073 -0.0076978970981447939 -0.15651223139550785 -0.38046072353680654 0.91145683346467299
0.24644148337218988 0.15317073624037564 0.032009465579889831 0.030695589632538926 0.12900042455376828 -0.99116934539061397
0.24676967212875014 0.1551078858064836 0.032037490877145795 -0.020275812304703784 -0.13625270350705043 0.99046660328473679
0.45911920007750651 0.1957282154805555 -0.0039188093165483688 -0.068301407864968855 -0.040410194238604855 0.99684599306275057
0.24717950351315079 0.15905896155651006 0.032480055081943425 -0.018771738666689453 -0.12773124491069032 0.99163115668125057
0.24745097816225403 0.16141438368170541 0.032715730358461273 -0.017528312724277836 -0.12182094531395089 0.9923973072997806
0.30894308118230657 0.21273496185643206 0.033042031578064693 -0.15794420925978409 0.0046539007155215108 -0.98743707038445327
0.24778521801780345 0.16541361140456276 0.033288289686518861 0.02388578776130626 0.099139014599321257 -0.99478687412294375
0.17119820643240649 0.049544445923697292 -0.0073427731788735379 -0.15275677774621402 -0.3802283591082703 0.91219063894693964
0.30914524723492759 0.21085063862825612 0.032982821005095427 -0.15768203655251778 0.008069610164694728 -0.98745696450044862
0.035570834037845077 0.25702009659880454 -0.011331110346932807 0.42254047724069582 -0.069620832269429195 -0.90366613569797827
0.45313340127981355 0.23961106442813787 -0.0018759463351286181 -0.028642865422601031 -0.069205628067475863 0.99719113880146815
0.1336070863290067 0.28146608543330681 0.02394181938344352 0.23659380042668959 -0.12543329674623441 -0.96347800268974848
0.249543289420666 0.17710611561366013 0.033925382363174092 -0.010346068767313928 -0.089704998510938869 0.995914640972415
0.33781588261653611 0.022825393037847294 -0.0085679894693418083 0.49266480110862387 -0.71443053038453042 -0.49686055488746411
0.24979581979205584 0.18109600691716232 0.034281538796894037 0.0028336445487230936 0.059661754641947548 -0.99821462897095214
0.1752463096550789 0.049918377405116739 -0.006377391349222274 -0.14628299334072739 -0.37962563910917363 0.91350186644047326
0.066961597609845103 0.35346307183028741 -0.012448582309426496 0.51668185547085066 -0.66181404417575074 0.54317771599996312
0.13433007749222908 0.28721893734895404 0.023311109658294808 0.23426453767143496 -0.13740681449779374 -0.96241336946197797
0.17518462732509424 0.084998503658732058 0.0083507976313269699 -0.14745325985704091 -0.3476475018542689 0.92595828772791811
0.17335857880637698 0.2939790219636978 0.029918535989625933 0.13151571510357871 -0.14837664990073623 -0.98014692084657828
0.076330493053604134 0.21236661062438308 0.0087491857608849276 -0.36324499638599339 -0.039371302465199549 0.9308614145740135
0.46166321745504596 0.24542150363197132 0.00016756384344264496 0.063500680864763959 0.058387812137427039 -0.99627231564643803
0.17368547588632122 0.29602574057481762 0.029427903258184663 -0.1079058271927021 0.1625363183642525 0.9807845215287877
0.25868247142625944 0.25073984962484885 0.035857849867392787 -0.041371398831998682 -0.068670823753708768 -0.99678118226803958
0.25899487114067998 0.25270691411170471 0.035769142021112296 0.022449810893234001 0.054855180715345349 0.99824191213329894
0.13503970423890985 0.28903568047320172 0.023433956360710693 -0.22005396448025355 0.15661524772210203 0.96283327575311184
0.25968496778701455 0.25670709880301334 0.035603000643806781 0.028598204221691261 0.069692346989496987 0.99715852274670447
0.1358611629897257 0.28319404911795482 0.0242417049511451 0.2309923763439212 -0.12937044193630121 -0.96431624005001304
0.24696078408843009 0.14901169696912345 0.031356738384100726 -0.02051067217142356 -0.15140880076495494 0.98825841123564162
0.28318109599620661 0.074232347034890622 0.012321163998136894 0.092692931184100325 -0.33513165008606688 0.93760055333766179
0.075931105730389387 0.21046902359657954 0.0083876154631509266 0.3875333397964944 0.038102241304151442 -0.92106792895734635
0.13610411335378014 0.28526927077810726 0.024016968583471125 0.23043423668625726 -0.13351342787998283 -0.96388496571870996
0.38290868655847776 0.11731262826533737 -0.00050089576093787121 -0.30145657844592211 0.19993111841522829 -0.93228293945610397
0.063385359115637807 0.33302757088830831 -0.011732090729602185 0.37234978787933837 -0.21855292873099794 -0.90199237957386047
0.24941714890307978 0.1611425785019466 0.032793558244229894 -0.015003129810661795 -0.12039915903909226 0.9926121843895348
0.057350298950460718 0.20343483132725243 -0.00043465191170553727 0.42010304452373615 0.055064235812489849 -0.90580426247411439
0.24971390898856732 0.16519697455236543 0.033123179266201168 -0.013705102099584187 -0.11041333463536442 0.99379125862081275
0.28001994805456654 0.162232156348322 0.033713776627008439 0.044673274781874495 -0.11400699750405435 0.99247503900116985
0.25049261988274518 0.16912570427602905 0.033466718393747145 -0.011706119774727974 -0.10266987119913668 0.99464660272268179
0.25071992281321481 0.17106321368435232 0.033621681924145518 -0.010495413918028506 -0.098719798033233427 0.99505992169465196
0.15937041651619863 0.15249315604653274 0.02507655252433668 -0.14589265760872228 -0.16294661513469152 0.9757887748237376
0.25122665415858375 0.17493172553580716 0.033873437122352794 -0.0085426689327384054 -0.090312738068931739 0.99587681575082276
0.06434175971620841 0.35072851195715504 -0.012963844140014514 0.52204232382852145 -0.65770312638243089 0.54304549503563082
0.15424678266690373 0.17529354572013436 0.027276506178390419 0.16392295495872458 0.11070191569422513 -0.98024198578678956
0.12119678549804003 0.15024557284332909 0.016842929582299097 0.26208855633039713 0.17552656207021067 -0.94894679231686152
0.036201932123268117 0.20211070509226464 -0.010712701587829096 0.43231074321971541 0.05183330906094448 -0.90023370819393889
0.27929185637280812 0.074491700601850772 0.012710685482359537 0.080782644226323239 -0.33454394133070559 0.93891134603365023
0.1756412248284662 0.29581006785268743 0.029686499144039417 -0.1029118361941976 0.16146792792985507 0.98149745910072417
0.4517344713736352 0.21017612287725884 -0.0039633506371507116 -0.062523824786911333 -0.053758779606278659 0.99659458404571877
0.26836762516373147 0.031643786299455801 -0.0051570862734762971 -0.013230446161129767 0.3643476561064119 -0.93116901837643917
0.2595788258149016 0.24064027179240477 0.03604803856634712 0.016279451624041007 0.028380457028655347 0.99946462124162516
0.28110708355276126 0.22053273308689381 0.036047218399104464 -0.087281461248655781 -0.010615061010886807 -0.99612713395531716
0.17591880938809751 0.29799267252087758 0.02936608995724832 -0.10287513286228589 0.16941712808035017 0.98016046836810011
0.26035629700684049 0.24683900003441012 0.035953361471200408 0.021941872103892038 0.042629694156229053 0.99884997042835366
0.46416701741311461 0.18364891565715 -0.0033928824880526259 0.055881105741565851 0.018792506737233712 -0.99826055902836863
0.26067205694887835 0.25050563098432904 0.035843330057348598 0.024741725761053705 0.052010153777917401 0.99834001768453728
0.27001600551499771 0.058058250740704684 0.0062327562697124224 0.055627995119009364 -0.37728550878829048 0.92442477845274151
0.25461299238093321 0.063604646972760706 0.0017469408011571085 0.65595844226683908 -0.27421103891758841 0.70322601498707282
0.26667677781196758 0.03158166584976399 -0.0053651464691932037 0.045073828779423113 -0.40514507111177084 0.91314063610870011
0.17751906327603248 0.29566112326779936 0.029910624340098949 -0.098840127008836973 0.16109760464305198 0.98197667542113642
0.26175481878907952 0.25968079271682365 0.035188625178134564 -0.053176009896032397 -0.090837673123678131 -0.99444498546325466
0.25065031048906306 0.15365276512751014 0.032256232550676819 0.024148526658587549 0.12985147159371566 -0.99123934747626208
0.25072642727580213 0.15489308494021511 0.032415416152863578 0.023252318349184006 0.12630453737068389 -0.99171895894500561
0.45019865739295695 0.21420412069070024 -0.0038756913608463499 -0.057276330790488605 -0.058215080631925882 0.99665963413704928
0.25117441101618404 0.15886251609277652 0.032873735301878926 0.021197489160949785 0.11697371658869647 -0.99290876523510396
0.1233621480464178 0.15167450797543813 0.017643689854909796 -0.24453756529741424 -0.19874714313996503 0.94905266042096692
0.45014099091444754 0.21246322687114699 -0.003976733750073555 -0.058483608651895204 -0.056240173613493892 0.99670291982665327
0.18022524487012703 0.26685474401087755 0.033036650442350275 -0.089801492483403078 0.074883399156560906 0.99314055826882452
0.26458360658672569 0.031573929657984508 -0.0054814330119264927 0.039548124266862016 -0.40609851627705273 0.91297313265207813
0.14059597583265612 0.2887630053743398 0.024785993351534995 -0.20069885648260005 0.15337422252137281 0.96757238327297312
0.25263236861981847 0.17080932399988447 0.03369934917468996 -0.0079180719457654751 -0.097239215370564999 0.99522954092549853
0.44939572862537719 0.20028812549027308 -0.0045191718810561774 -0.058813283241473509 -0.04176568207088948 0.99739491953564297
0.25314267715967531 0.17467104151279833 0.034164752891284032 0.0089311607540070708 0.079223996805766181 -0.99681683006343047
0.25318400579146572 0.17672625983475548 0.03408806870403671 -0.0058361295415323804 -0.086235809778899039 0.99625765979677761
0.17788636740273805 0.29768602967235247 0.029626370084746514 -0.098037462339280887 0.1670645176686347 0.9810596836656883
0.25375438674255485 0.18038356989929327 0.034428862240814331 -0.0008981009321684442 0.062288462054092067 -0.99805778435401804
0.30468489756684664 0.11293704653580564 0.021894248332776613 0.14629685344266347 -0.25316109999043346 0.95629843047262697
0.25439418273351744 0.18476183065057389 0.034581937328040407 -0.0018603579325134703 -0.070330186811415757 0.99752203178247356
0.12498189845807928 0.15125548849559955 0.018041641528418452 0.25006562200977012 0.17120854757156806 -0.95297157246546493
0.44859642025620983 0.22033953800765479 -0.002712351082174613 0.049008972983134967 0.04778366245260194 -0.99765467080034975
0.14242447441321948 0.29010660110170466 0.024974815712298294 -0.19741083076498289 0.15691718220558307 0.96768071274844525
0.18840098416947182 0.07668148343919616 0.0069644410773571893 0.15125266107081903 0.34583202909929783 -0.92602529132203426
0.46818339161492661 0.22138737967234418 -0.0012892913362696472 0.084340091893710598 0.041852144209182721 -0.995557706476352
0.17985018601213146 0.29734664894255536 0.029888746903971697 -0.093854409881906339 0.16697926135317673 0.98148320210977968
0.26239212765015202 0.24631407184380844 0.035946917720730415 0.025049691869339669 0.042939683876006628 0.99876358388052966
0.2624386066454501 0.24831706548177748 0.035885710664353233 0.026536787587413228 0.047201448890217865 0.99853283477670607
0.2626167295393535 0.25025514313519304 0.035826205260346036 0.028628122075693211 0.052958543584950474 0.99818626682988387
0.14459178600210662 0.29210764085586582 0.025114502664092101 -0.19295655602400436 0.16026606668693616 0.96803024506264979
0.26335832110201052 0.2542734858911076 0.035527381415809897 -0.05360569835429816 -0.080307540927753968 -0.99532764855302047
0.26366765126039848 0.25624990987228063 0.035381528615569341 -0.055819568004458926 -0.084540911848308226 -0.99485527090710635
0.44655014607147747 0.22264180361207608 -0.0026188858933798246 0.041753918947463525 0.049635404235019338 -0.99789425136081178
0.26331342976413208 0.25947817976703691 0.03514498026689522 -0.056388781761192781 -0.09146377857510507 -0.99421058257305461
0.44462269376495567 0.19448660108876231 -0.0045531160108583154 -0.0012288660023504006 0.026853622555525428 -0.99963862112465096
0.25264872199252958 0.15467620883661123 0.032332056367361688 -0.011532665968169971 -0.13315979185825877 0.99102748067242397
0.46952082733056955 0.20338604040863223 -0.0026213279979047763 -0.08259686813717608 -0.05158959205550015 0.99524683941496495
0.25302725592208242 0.15868601789763448 0.032736215874338025 -0.010590818283656307 -0.12256921596166265 0.99240345720207246
0.3805032547033424 0.062881258825754516 -0.0047801510926585213 0.72658422797267541 -0.55147122455989217 -0.40982294731232932
0.25340207067080645 0.16261133043982806 0.033352636710320641 0.016262646036530659 0.10904684807112154 -0.99390357242020422
0.25361605934913517 0.16458278692766021 0.033531362314592708 0.015478843794757086 0.10520169263477006 -0.99433043263371812
0.14672575090056122 0.29194220425385775 0.025362216771415019 0.20369721573570124 -0.14808185714668828 -0.96777022473597063
0.25437657989228563 0.16853224093158956 0.03385359129362419 0.011797755826938929 0.093982793865218156 -0.99550391632315327
0.29583672168135677 0.10238940719092464 0.020362036980535323 0.12145879175446232 -0.27876228011631815 0.95264859895446108
0.27961749032455718 0.19441360999387969 0.035576396309580628 -0.07325771541423344 0.038481330623856592 -0.99657036596805582
0.2795070059755379 0.19246714705028392 0.035535320873898157 -0.073429735923737999 0.041673737498417927 -0.99642931183555772
0.44449796086025162 0.22285378062702524 -0.0037228241857180655 -0.031170715977668621 -0.062882952825190991 0.99753401982560186
0.26065380219779621 0.030049937337156853 -0.0063179720354982006 0.031569890103694404 -0.40783778293194312 0.91250845741395625
0.25582147545025541 0.18024376092269923 0.034501665464009401 -0.0027362886513890529 0.063550129281936443 -0.99797489637398473
0.26034801881018715 0.02854360242641537 -0.0069543036673909544 0.030622449099620468 -0.40808689164068768 0.91242936958549448
