0.193312 0.32168 0.0250062
0.179385 0.132051 0.0224549
0.243614 0.0549145 0.0027598
0.181333 0.13029 0.0220798
0.181352 0.131825 0.0224962
0.201078 0.288518 0.0316591
0.20246 0.298212 0.0306077
0.202858 0.300064 0.0302836
0.184182 0.139634 0.0242911
0.166218 0.10999 0.0149816
0.166088 0.108104 0.0145966
0.165975 0.106281 0.0141483
0.191956 0.321663 0.0249144
0.184707 0.140757 0.0245309
0.202789 0.2885 0.0317793
0.20331 0.29023 0.0315586
0.2044 0.29791 0.0306088
0.204675 0.299906 0.0302562
0.165609 0.118281 0.0167723
0.251853 0.0549378 0.00321892
0.252418 0.0578642 0.00349853
0.253246 0.0559294 0.00318783
0.164561 0.110376 0.0147182
0.164893 0.108204 0.0144015
0.164772 0.107059 0.0141422
0.254375 0.0577821 0.00402719
0.254778 0.0602149 0.00488316
0.25472 0.0617071 0.00519898
0.186141 0.139361 0.0243545
0.187768 0.312291 0.0263581
0.187193 0.311127 0.0265033
0.186271 0.140546 0.0246054
0.163625 0.118444 0.0164122
0.205045 0.288693 0.0315694
0.205234 0.289929 0.0314039
0.258348 0.0592662 0.00643729
0.258102 0.0603189 0.00676778
0.206358 0.297664 0.0302517
0.206189 0.299311 0.0300201
0.260302 0.0591664 0.00727117
0.185961 0.310969 0.0262998
0.185385 0.309754 0.0264791
0.260028 0.060347 0.00768559
0.187874 0.13714 0.0240973
0.188094 0.139112 0.0244654
0.161281 0.115473 0.0150784
0.185226 0.318751 0.0247423
0.262278 0.0586387 0.0069598
0.262308 0.0604125 0.00788746
0.262632 0.0618874 0.00863731
0.183946 0.310876 0.0259673
0.183703 0.309139 0.0263067
0.187833 0.140334 0.0246946
0.20696 0.288393 0.0312515
0.207143 0.289628 0.0310722
0.207406 0.291628 0.0307418
0.159293 0.11575 0.014956
0.183035 0.318728 0.0245536
0.182789 0.317087 0.0248851
0.263909 0.0587237 0.00678097
0.264231 0.0601709 0.00750172
0.264227 0.061633 0.00827872
0.181571 0.309138 0.0260215
0.157862 0.124545 0.0171891
0.158095 0.122937 0.0168634
0.207651 0.293607 0.0304528
0.207939 0.29529 0.0301602
0.157471 0.117439 0.0152918
0.157259 0.115661 0.0148063
0.181449 0.318901 0.0243876
0.208235 0.297 0.0298479
0.189194 0.129233 0.0224195
0.266077 0.0599652 0.00714619
0.266263 0.0617555 0.00807265
0.17971 0.309301 0.0257831
0.178962 0.307868 0.026001
0.189818 0.136906 0.0242943
0.156301 0.125045 0.0169597
0.15613 0.123448 0.0165789
0.189604 0.138537 0.0245461
0.209308 0.29129 0.0302479
0.155465 0.117653 0.0151776
0.155263 0.115927 0.0146938
0.209477 0.293225 0.0299866
0.209773 0.294885 0.0296821
0.285452 0.317309 0.0210803
0.190995 0.128979 0.0226104
0.272799 0.0639512 0.00852787
0.287446 0.317034 0.0208124
0.287423 0.318911 0.0203277
0.287617 0.320619 0.0199313
0.274633 0.0638754 0.00830951
0.274906 0.0655756 0.00888017
0.289449 0.316511 0.0206202
0.289537 0.318534 0.0200457
0.153481 0.1179 0.0149295
0.153427 0.116315 0.0145234
0.289207 0.320062 0.019722
0.276338 0.0619168 0.00738963
0.276248 0.0637092 0.00804779
0.276394 0.0655539 0.0086637
0.291161 0.314892 0.020787
0.291075 0.316547 0.0203236
0.175002 0.306041 0.0258682
0.278144 0.0619651 0.00718393
0.278268 0.0635182 0.00771115
0.293054 0.314758 0.0205117
0.293104 0.316568 0.0199236
0.279787 0.0620066 0.00704035
0.151695 0.119781 0.0149436
0.151655 0.118152 0.0146126
0.152143 0.116778 0.0144109
0.280298 0.06328 0.00742315
0.28088 0.0693998 0.00915049
0.295075 0.314717 0.0201258
0.295148 0.316625 0.0195186
0.28278 0.069351 0.0089107
0.1732 0.306138 0.0255761
0.172631 0.304879 0.0258292
0.282878 0.0706393 0.00928689
0.284938 0.0708352 0.00912361
0.285455 0.072062 0.00959466
0.286259 0.0630807 0.00707578
0.28692 0.0709593 0.00892285
0.149951 0.120505 0.0146954
0.287385 0.0727094 0.00965712
0.300981 0.308841 0.0209355
0.301016 0.31014 0.0204674
0.171235 0.306436 0.0251973
0.170847 0.30484 0.0255969
0.17002 0.303618 0.025821
0.289088 0.070827 0.00847541
0.289211 0.0719685 0.00898052
0.303042 0.310035 0.0201881
0.290926 0.0708816 0.00815555
0.290831 0.0717706 0.00857303
0.304679 0.310039 0.0199169
0.210329 0.266969 0.0329538
0.210198 0.265022 0.0331081
0.210092 0.263115 0.0331812
0.304764 0.311557 0.0193854
0.293159 0.0710621 0.00791414
0.29286 0.0724058 0.00856626
0.169025 0.305066 0.0252297
0.168673 0.303525 0.0256291
0.293528 0.0741333 0.00941919
0.306632 0.307783 0.0202849
0.306581 0.310052 0.0195656
0.32691 0.185713 0.0276601
0.327128 0.183951 0.0275994
0.294779 0.0710389 0.00775162
0.294883 0.0723455 0.00830361
0.295027 0.07414 0.00922092
0.326241 0.168419 0.0269764
0.325809 0.166703 0.0268211
0.308676 0.307424 0.0199362
0.325675 0.198114 0.0283579
0.325489 0.196296 0.0282689
0.325049 0.194175 0.0281716
0.324932 0.192193 0.0280674
0.324823 0.19021 0.0280136
0.324907 0.188017 0.0279812
0.325377 0.186201 0.0279012
0.325241 0.184224 0.0279069
0.308768 0.309265 0.0194034
0.296773 0.0722162 0.00809456
0.297064 0.0739354 0.00891388
0.29715 0.0755227 0.00972802
0.310558 0.303859 0.0204696
0.310671 0.30574 0.0199399
0.310745 0.307502 0.0194744
0.324424 0.16816 0.0273197
0.324092 0.16624 0.0270926
0.323774 0.164276 0.026868
0.298918 0.0729778 0.0082722
0.324668 0.215264 0.0290278
0.324627 0.214079 0.0291042
0.324542 0.212099 0.0291691
0.299133 0.0742668 0.00887183
0.299175 0.0754078 0.00945923
0.312336 0.301832 0.0206005
0.312674 0.30361 0.02005
0.30071 0.0731137 0.00810514
0.30118 0.0747025 0.00886808
0.32413 0.198196 0.0286732
0.324009 0.196215 0.0285578
0.32388 0.194238 0.0284009
0.323723 0.192266 0.028288
0.323596 0.190285 0.0282318
0.323523 0.1883 0.0282179
0.301489 0.0763389 0.00966809
0.315216 0.299695 0.020571
0.314632 0.301126 0.0202944
0.314613 0.303384 0.0196693
0.30322 0.0749985 0.0086098
0.303321 0.0763415 0.00927527
0.303807 0.0777088 0.00981919
0.316797 0.298009 0.0207178
0.316455 0.299341 0.0204133
0.316555 0.301159 0.0198551
0.30448 0.0746098 0.00807968
0.304966 0.0759817 0.00863088
0.305065 0.0778858 0.00948916
0.305599 0.0795549 0.00998712
0.318096 0.29736 0.0206272
0.318129 0.299437 0.0200104
0.31823 0.301254 0.019437
0.322552 0.219373 0.0293219
0.32287 0.218155 0.0293042
0.323132 0.216135 0.0293399
0.323029 0.21415 0.0294521
0.306682 0.0765038 0.00831957
0.306911 0.0781858 0.00896751
0.30729 0.0801182 0.00958262
0.307566 0.0817362 0.0100586
0.319932 0.297005 0.0203716
0.320293 0.299229 0.019635
0.319716 0.301049 0.0191968
0.309259 0.0797506 0.00878811
0.309496 0.0813586 0.00932677
0.32194 0.29518 0.0204766
0.322023 0.29653 0.0201
0.324694 0.292967 0.0204512
0.324114 0.294744 0.0201662
0.32408 0.296508 0.019704
0.325847 0.290891 0.0206022
0.325906 0.29253 0.0202897
0.325984 0.294609 0.0197918
0.326164 0.296165 0.0193518
0.315628 0.0834825 0.00912555
0.315878 0.0851731 0.00968192
0.31704 0.0911503 0.0112218
0.327886 0.290445 0.0202801
0.327975 0.292539 0.0198221
0.327924 0.294626 0.0193307
0.317447 0.0836908 0.00894257
0.317951 0.0848958 0.00925802
0.318057 0.0871333 0.00996989
0.31816 0.0893564 0.0105912
0.318262 0.0910469 0.0109866
0.318492 0.0925749 0.0113057
0.330193 0.287422 0.020351
0.318898 0.150416 0.0260184
0.318369 0.148476 0.0257768
0.321397 0.22739 0.0295148
0.321338 0.226203 0.0295072
0.321241 0.224223 0.0295026
0.321149 0.222244 0.0295294
0.321401 0.22022 0.0295363
0.321259 0.218214 0.0296452
0.329867 0.28874 0.0201527
0.329968 0.290469 0.0197956
0.329959 0.292389 0.0193825
0.330147 0.29391 0.0189849
0.319528 0.0854165 0.00915666
0.31988 0.0909577 0.0107404
0.320077 0.0928907 0.0111578
0.331449 0.28617 0.0203049
0.331519 0.288339 0.0198405
0.331647 0.29051 0.019363
0.331698 0.292155 0.0190166
0.331353 0.293449 0.0188161
0.322023 0.0929811 0.0109774
0.322704 0.094843 0.0113065
0.333419 0.28436 0.0201509
0.333384 0.286055 0.0197939
0.333505 0.288266 0.0193242
0.319157 0.182229 0.0290685
0.333153 0.290349 0.0190465
0.318972 0.178132 0.0290198
0.318804 0.176317 0.0289596
0.318724 0.174324 0.0288673
0.318577 0.172367 0.0287287
0.33292 0.291721 0.01884
0.324533 0.0967153 0.0114566
0.335281 0.284237 0.0196104
0.326688 0.0987172 0.0114987
0.327169 0.100303 0.0117759
0.337515 0.279934 0.0198896
0.337066 0.281801 0.0195975
0.337252 0.283905 0.0190645
0.328022 0.0911715 0.009573
0.328649 0.10035 0.011447
0.329112 0.101611 0.0116617
0.317185 0.148558 0.0259909
0.316971 0.147091 0.0257403
0.319376 0.23386 0.0296839
0.339099 0.277856 0.0198947
0.31999 0.23025 0.0297823
0.319903 0.228276 0.0298088
0.319813 0.226302 0.029791
0.319686 0.224307 0.0297911
0.319544 0.222305 0.0298235
0.339183 0.279946 0.0193881
0.339204 0.281621 0.0189798
0.329602 0.0928443 0.00977516
0.330385 0.0946532 0.0100512
0.330793 0.100442 0.0109629
0.331081 0.102441 0.0114067
0.33168 0.10396 0.0116937
0.341672 0.272693 0.0201609
0.341366 0.27401 0.0200102
0.31834 0.202478 0.029909
0.318585 0.200485 0.0298091
0.318253 0.198443 0.0297871
0.318013 0.196554 0.0297031
0.317903 0.19458 0.0295525
0.341019 0.275674 0.0197918
0.34116 0.277828 0.0193085
0.317551 0.188662 0.0293912
0.341135 0.279918 0.0188394
0.332338 0.0950275 0.00954442
0.317962 0.182306 0.0292665
0.31764 0.176384 0.029121
0.317136 0.17443 0.0290681
0.317152 0.172583 0.0289381
0.332537 0.096598 0.00979735
0.332819 0.0983822 0.010057
0.332525 0.100127 0.0104336
0.333136 0.102079 0.0107645
0.333092 0.103996 0.0113272
0.333322 0.106018 0.0118814
0.343192 0.270149 0.0201734
0.342789 0.271682 0.0200429
0.343104 0.273748 0.0196182
0.343107 0.27567 0.0192335
0.343129 0.277619 0.0188263
0.315105 0.146674 0.0259755
0.314458 0.144848 0.0256172
0.317904 0.235545 0.029841
0.318223 0.234316 0.0298807
0.318209 0.232481 0.030007
0.343332 0.279119 0.0184608
0.333747 0.0964859 0.0093602
0.334742 0.104274 0.0109279
0.33479 0.106511 0.0116177
0.334992 0.108085 0.0120469
0.3358 0.10981 0.0123186
0.344738 0.269731 0.0198834
0.317214 0.216418 0.0305347
0.317102 0.214431 0.0306435
0.317171 0.212632 0.0306291
0.344479 0.271357 0.0196937
0.34465 0.273529 0.0192663
0.344744 0.277235 0.0185305
0.316789 0.202957 0.0301645
0.316115 0.196501 0.0299762
0.316063 0.194818 0.0298569
0.316192 0.192702 0.0296953
0.315705 0.190749 0.0297324
0.336817 0.106331 0.0109346
0.336963 0.107951 0.0113806
0.337287 0.109954 0.0118897
0.337924 0.111788 0.0122972
0.347018 0.265786 0.0199214
0.346764 0.267606 0.0197387
0.346534 0.269612 0.0194953
0.338743 0.108034 0.0108139
0.33928 0.110099 0.0112698
0.313001 0.144827 0.0258655
0.339278 0.111934 0.011889
0.316202 0.236643 0.030055
0.316274 0.234803 0.0301929
0.339447 0.113557 0.0124603
0.348536 0.264035 0.0197696
0.348252 0.265354 0.0196881
0.348356 0.267433 0.0193846
0.348449 0.269505 0.019042
0.340575 0.11034 0.0108805
0.315474 0.220493 0.0306259
0.315351 0.218498 0.0307489
0.315463 0.21661 0.03083
0.315927 0.21488 0.0308318
0.312113 0.158617 0.0281884
0.311737 0.156928 0.0279272
0.341264 0.111698 0.0111159
0.34152 0.113648 0.0117949
0.350794 0.261405 0.0194962
0.350251 0.263267 0.0193943
0.350367 0.265354 0.0190938
0.350449 0.267021 0.0188401
0.310792 0.14311 0.025758
0.314407 0.238428 0.0301806
0.314444 0.236931 0.0303154
0.343415 0.113859 0.0112225
0.344027 0.117573 0.0125613
0.352043 0.259412 0.0194203
0.352059 0.261001 0.0191977
0.352325 0.263224 0.0187693
0.313765 0.224676 0.0307937
0.313532 0.222798 0.030913
0.313581 0.220731 0.0309809
0.313797 0.218968 0.0310175
0.309909 0.156897 0.0281619
0.309651 0.15508 0.0278962
0.309507 0.153137 0.0276591
0.309393 0.151154 0.0274966
0.309314 0.149113 0.0273354
0.309175 0.14716 0.027104
0.308996 0.145274 0.0267035
0.308885 0.143227 0.0261252
0.308481 0.141417 0.0256805
0.311955 0.242273 0.0301618
0.312301 0.241071 0.0302364
0.312589 0.239044 0.0304018
0.345215 0.115667 0.0113084
0.345881 0.117581 0.0118373
0.345957 0.119449 0.0125435
0.346577 0.12126 0.0129215
0.312004 0.229023 0.0309584
0.31197 0.227104 0.0310255
0.312522 0.22497 0.0310249
0.312439 0.223005 0.0311228
0.312375 0.221434 0.031202
0.308176 0.154986 0.0281273
0.30836 0.153178 0.0278672
0.308033 0.151022 0.02774
0.307752 0.149223 0.0276416
0.307608 0.147279 0.0274207
0.307522 0.145017 0.0269381
0.307012 0.143161 0.0264599
0.30685 0.141202 0.0258428
0.306324 0.139212 0.0253585
0.30579 0.137276 0.0250719
0.310494 0.244736 0.03015
0.310728 0.242971 0.0302979
0.310706 0.241108 0.0305157
0.346875 0.122695 0.0132511
0.354405 0.251363 0.0194014
0.354191 0.253201 0.0193662
0.354162 0.255076 0.0192415
0.353832 0.257006 0.0191693
0.310024 0.229108 0.0312024
0.310069 0.227633 0.0312939
0.305049 0.143007 0.0267421
0.304892 0.141337 0.0262223
0.304746 0.139337 0.0255988
0.304609 0.137358 0.0252186
0.354117 0.258973 0.0188323
0.3085 0.24672 0.0302851
0.308941 0.245208 0.0303621
0.308819 0.243161 0.0306149
0.35385 0.261079 0.0186135
0.347268 0.117436 0.0112822
0.348076 0.119476 0.0116913
0.348137 0.121199 0.0122324
0.348236 0.123224 0.0128203
0.308166 0.231198 0.0312947
0.308468 0.229576 0.0313658
0.348636 0.125503 0.0132791
0.348763 0.126696 0.0135073
0.355817 0.247172 0.0192848
0.355711 0.249041 0.0191593
0.35566 0.250942 0.0190469
0.3558 0.253031 0.0188638
0.355832 0.255053 0.0186899
0.355964 0.256749 0.0184587
0.355972 0.258715 0.0181879
0.30677 0.248942 0.0303291
0.307084 0.247319 0.0304447
0.349338 0.119782 0.0113376
0.349858 0.121406 0.0116253
0.349798 0.123348 0.012209
0.349964 0.125291 0.0126955
0.350144 0.127213 0.0131276
0.350524 0.129201 0.0134009
0.306309 0.233285 0.0314079
0.306296 0.231463 0.0314951
0.351113 0.130996 0.0134673
0.351566 0.133128 0.0137447
0.351741 0.134697 0.0140962
0.358052 0.243739 0.0190573
0.357516 0.245118 0.0190473
0.357064 0.246737 0.0189919
0.357225 0.248842 0.01872
0.357394 0.250951 0.0185073
0.357389 0.252847 0.0183534
0.304766 0.25092 0.030399
0.305214 0.249416 0.0304777
0.357571 0.25478 0.0180892
0.351491 0.123516 0.0116874
0.351973 0.125101 0.0120029
0.352153 0.127181 0.0124618
0.352566 0.129322 0.0127984
0.352621 0.131014 0.012993
0.304447 0.235356 0.0315438
0.304742 0.233369 0.0315825
0.305076 0.232166 0.0315961
0.352824 0.133008 0.0133476
0.353031 0.134986 0.0138147
0.359307 0.242822 0.0188259
0.359442 0.244699 0.0185592
0.359148 0.246683 0.0183907
0.359339 0.24881 0.0180942
0.359325 0.250836 0.0179135
0.359146 0.252575 0.0177872
0.358962 0.254407 0.0176118
0.30304 0.253145 0.030476
0.354395 0.13109 0.0124502
0.354428 0.133021 0.0128501
0.35475 0.134795 0.0132144
0.36072 0.240713 0.0185985
0.36085 0.242386 0.0184308
0.361036 0.244499 0.0181222
0.302315 0.239461 0.0316404
0.302369 0.237544 0.0316955
0.30293 0.236247 0.0316797
0.361248 0.248196 0.0176248
0.356006 0.131201 0.0118865
0.356278 0.133033 0.0121682
0.356768 0.134999 0.0125454
0.356943 0.136706 0.0131017
0.357728 0.140594 0.0141216
0.357894 0.142185 0.0144052
0.362806 0.232422 0.0180484
0.362693 0.23855 0.0179419
0.35893 0.138797 0.0131538
0.300967 0.258826 0.0305695
0.301302 0.257617 0.030573
0.301194 0.255616 0.0306369
0.359094 0.140826 0.01369
0.359223 0.142881 0.0140136
0.359284 0.144551 0.0141601
0.359484 0.14643 0.0142914
0.360045 0.148561 0.0144268
0.300543 0.243503 0.0315758
0.300839 0.241505 0.0316909
0.300767 0.239939 0.031786
0.360076 0.150671 0.0148451
0.36421 0.226674 0.0182329
0.364161 0.228198 0.0180129
0.364465 0.23035 0.0175226
0.364481 0.232309 0.0172643
0.360825 0.140636 0.0129412
0.360936 0.142707 0.0132998
0.293362 0.122109 0.0241147
0.292885 0.120963 0.0239619
0.299521 0.261295 0.0306539
0.299841 0.259697 0.0307024
0.299723 0.257666 0.0307871
0.361076 0.144755 0.0134531
0.361233 0.146791 0.0136582
0.361322 0.148442 0.0138903
0.361773 0.150521 0.0141506
0.366118 0.212427 0.0178614
0.365847 0.214098 0.0178928
0.365933 0.216148 0.0178714
0.366038 0.224402 0.0178149
0.366029 0.226412 0.017529
0.365975 0.228204 0.017215
0.36573 0.229912 0.0170461
0.362267 0.142546 0.0127346
0.291656 0.120227 0.023967
0.291151 0.118692 0.0237587
0.297635 0.262998 0.0307125
0.297976 0.261788 0.0308044
0.362434 0.144581 0.0129677
0.362901 0.146657 0.0130605
0.363438 0.148544 0.0131987
0.363844 0.150496 0.0134379
0.363926 0.152456 0.0138333
0.364018 0.154406 0.0142589
0.296848 0.247749 0.0316622
0.29675 0.246102 0.0318096
0.289895 0.129377 0.0261309
0.289816 0.128123 0.0258387
0.363958 0.156269 0.014693
0.364527 0.158269 0.0149167
0.364751 0.160265 0.0151606
0.36491 0.162305 0.0153742
0.289558 0.118412 0.0239273
0.288936 0.116953 0.0237021
0.29584 0.263408 0.0308361
0.364947 0.164393 0.0155765
0.365641 0.176273 0.0161401
0.365779 0.178318 0.0162934
0.365896 0.180368 0.016383
0.365966 0.181598 0.0164334
0.366713 0.198275 0.0171084
0.294967 0.249775 0.0317554
0.294984 0.247907 0.031888
0.288729 0.129412 0.0262751
0.28801 0.1282 0.026055
0.287717 0.126268 0.0256133
0.366986 0.200043 0.0171345
0.367119 0.202088 0.0172699
0.367252 0.204135 0.0174064
0.36737 0.206183 0.0175012
0.287218 0.116802 0.02385
0.293864 0.263868 0.03097
0.36747 0.208234 0.0175367
0.367322 0.210472 0.0175792
0.367409 0.212375 0.0175297
0.367527 0.214024 0.0174915
0.367655 0.216085 0.0174259
0.293148 0.249754 0.0320018
0.29336 0.248694 0.0320367
0.285845 0.125938 0.0256548
0.368186 0.224345 0.0170007
0.367946 0.226456 0.0167648
0.367261 0.227765 0.0168198
0.365182 0.150653 0.0130643
0.365539 0.152436 0.0133287
0.284844 0.114788 0.0236266
0.36576 0.154367 0.0136944
0.36579 0.156479 0.0141723
0.366006 0.15835 0.0144495
0.365939 0.160342 0.0147736
0.366167 0.162214 0.0149363
0.291386 0.255961 0.0320725
0.366218 0.164296 0.0151215
0.283733 0.125808 0.0257272
0.283653 0.124602 0.0255291
0.367086 0.178228 0.0158286
0.367155 0.18029 0.0159519
0.36828 0.198336 0.0165538
0.368323 0.199979 0.0166606
0.283004 0.114751 0.023806
0.368375 0.202033 0.0168307
0.368513 0.204079 0.016981
0.368641 0.206128 0.0171001
0.368756 0.208178 0.0171818
0.368961 0.210238 0.0171841
0.289524 0.258024 0.0321726
0.289838 0.256415 0.032244
0.281745 0.126505 0.0259818
0.281698 0.124681 0.0256904
0.281573 0.122626 0.0254517
0.281443 0.120626 0.0252006
0.367139 0.155055 0.0134553
0.367211 0.15629 0.0136982
0.367999 0.158445 0.0138539
0.368164 0.16042 0.0141047
0.368198 0.16209 0.014297
0.368314 0.164144 0.0144472
0.369657 0.185899 0.0155717
0.369784 0.187953 0.015728
0.370257 0.18999 0.0156482
0.370328 0.192049 0.0156358
0.279996 0.126807 0.0262268
0.280138 0.124782 0.0258629
0.280009 0.122821 0.0256385
0.279882 0.12084 0.0254214
0.279575 0.118814 0.025114
0.279216 0.116886 0.0247315
0.37048 0.198226 0.0158348
0.279031 0.11286 0.0237183
0.278784 0.111103 0.0232421
0.370469 0.199877 0.0159728
0.370578 0.20193 0.0161194
0.36977 0.159067 0.0134402
0.370099 0.160431 0.0135569
0.370316 0.161932 0.0136711
0.370054 0.164004 0.0139095
0.370235 0.166042 0.0139441
0.371177 0.175906 0.0144625
0.277353 0.118281 0.0252052
0.277269 0.117092 0.0249413
0.371308 0.17796 0.0145937
0.371322 0.184144 0.0148959
0.276816 0.111263 0.0233478
0.276718 0.11003 0.0229991
0.371456 0.186201 0.0150309
0.371582 0.18826 0.015142
0.371599 0.189913 0.0151674
0.371667 0.191975 0.0151746
0.372082 0.198563 0.0153371
0.372164 0.199797 0.0154223
0.372297 0.201853 0.0155538
0.275388 0.11837 0.0253021
0.275286 0.117084 0.0249849
0.372428 0.203908 0.0156815
0.373007 0.215421 0.0159559
0.274832 0.111276 0.0233999
0.275534 0.110078 0.0230579
0.372387 0.176259 0.0141702
0.191537 0.134723 0.0241745
0.192755 0.126645 0.0222258
0.193263 0.132556 0.0239995
0.193042 0.134139 0.024305
0.195184 0.131936 0.0239871
0.196616 0.124322 0.0220705
0.273415 0.118483 0.0252874
0.27331 0.1172 0.0249527
0.19754 0.131629 0.0240539
0.198658 0.122692 0.022166
0.27285 0.111333 0.023461
0.272375 0.110208 0.0232291
0.198398 0.123955 0.0223309
0.198527 0.12556 0.0228532
0.199466 0.131335 0.0242883
0.200152 0.122386 0.0225784
0.280099 0.264808 0.0319776
0.280212 0.262771 0.0321761
0.200269 0.123637 0.0228653
0.271442 0.118602 0.0252439
0.271333 0.117323 0.0248921
0.20042 0.125267 0.0232704
0.200623 0.127368 0.0237603
0.270887 0.111511 0.0235888
0.270659 0.10964 0.0232466
0.270243 0.107983 0.022933
0.278029 0.274527 0.0309864
0.201203 0.129426 0.0243384
0.20133 0.13064 0.0245574
0.202514 0.127032 0.0241911
0.278114 0.266648 0.0320229
0.278452 0.265378 0.0321165
0.269468 0.118715 0.0252246
0.269359 0.117426 0.0249221
0.256534 0.132095 0.0275188
0.120096 0.214799 0.0225072
0.120287 0.216379 0.0226261
0.268783 0.109392 0.023401
0.268659 0.107755 0.0230569
0.268168 0.106513 0.0228286
0.276132 0.27622 0.0309532
0.276478 0.274974 0.0311016
0.276402 0.272878 0.0314109
0.276324 0.270795 0.0317041
0.276261 0.269154 0.0319311
0.276357 0.267586 0.0321266
0.267498 0.118805 0.0253066
0.267405 0.117578 0.0250543
0.120485 0.21796 0.0227144
0.121199 0.214244 0.0226619
0.121469 0.216222 0.0228361
0.121716 0.218199 0.0229537
0.266681 0.107536 0.0231828
0.266332 0.105655 0.0227511
0.122056 0.220034 0.0230076
0.122496 0.22132 0.0230381
0.274531 0.273081 0.0315723
0.274303 0.271104 0.031871
0.121715 0.20212 0.0222288
0.122078 0.203993 0.0223207
0.26557 0.117568 0.0252078
0.265308 0.115726 0.0248291
0.122565 0.20602 0.022405
0.122807 0.207998 0.0224885
0.123052 0.209975 0.0226187
0.12306 0.21206 0.0227901
0.264549 0.105581 0.0227527
0.123964 0.219914 0.0233271
0.1242 0.2219 0.0232617
0.124842 0.223834 0.0232195
0.125384 0.224975 0.0232299
0.12631 0.232109 0.0234825
0.264238 0.117395 0.0252977
0.263431 0.115746 0.0250828
0.126496 0.23369 0.0236308
0.126729 0.235666 0.0238098
0.126965 0.237644 0.0239758
0.126858 0.239666 0.0240498
0.262598 0.105738 0.0226201
0.262513 0.104517 0.022375
0.127439 0.24551 0.0242542
0.127977 0.247443 0.0242835
0.128418 0.248727 0.0243093
0.122833 0.194446 0.0218593
0.122927 0.195931 0.0220721
0.261343 0.115245 0.0248754
0.26092 0.114159 0.0244623
0.124443 0.2078 0.0227602
0.126444 0.22362 0.0234816
0.260815 0.107971 0.0228741
0.260656 0.106262 0.0222366
0.126721 0.225446 0.0234062
0.127367 0.230087 0.0235504
0.12746 0.231548 0.0236637
0.14311 0.136126 0.0174422
0.143357 0.134823 0.0170582
0.127735 0.233517 0.0238897
0.259128 0.114183 0.0242138
0.259215 0.112228 0.0237623
0.127961 0.23549 0.024099
0.258765 0.108314 0.0225557
0.259533 0.107149 0.022218
0.128207 0.237461 0.024269
0.128502 0.239422 0.0244228
0.129221 0.245366 0.0246078
0.129443 0.247371 0.0245593
0.129728 0.248831 0.0245477
0.131621 0.249115 0.0248599
0.257871 0.114081 0.0237571
0.257145 0.112503 0.0231063
0.257013 0.110664 0.0224764
0.256951 0.108525 0.0218358
0.25694 0.106758 0.0213703
0.256453 0.105068 0.0203236
0.162526 0.301737 0.0251964
0.161561 0.300615 0.0253503
0.141408 0.13666 0.017209
0.132252 0.251063 0.0249032
0.132386 0.253168 0.0248165
0.132435 0.255052 0.0247232
0.14074 0.129973 0.0150104
0.129189 0.213204 0.0241979
0.12942 0.215174 0.0243809
0.160539 0.302085 0.0248623
0.160209 0.300529 0.0251816
0.139682 0.137465 0.0171383
0.129671 0.217149 0.0244751
0.12994 0.219122 0.0244847
0.138952 0.131869 0.015131
0.139218 0.130616 0.0148576
0.23153 0.0571 0.00496546
0.15877 0.304196 0.0239849
0.158415 0.302134 0.0244987
0.158274 0.300129 0.0249588
0.157233 0.298322 0.0250706
0.137068 0.13938 0.017287
0.137737 0.138096 0.0169936
0.134624 0.256786 0.0251047
0.135276 0.25872 0.025142
0.137396 0.132449 0.0149971
0.135443 0.259903 0.0251242
0.126988 0.174082 0.0208933
0.126523 0.175437 0.0209751
0.130402 0.210917 0.0243236
0.156049 0.298533 0.0247724
0.155717 0.296673 0.0249576
0.155092 0.294574 0.0250654
0.135777 0.13981 0.0171608
0.13032 0.212265 0.024423
0.130644 0.215017 0.0246763
0.131208 0.217105 0.0248229
0.131509 0.218913 0.0248567
0.154584 0.302723 0.0235707
0.131956 0.220977 0.0248353
0.246182 0.0633654 0.00506872
0.246435 0.0646262 0.00584659
0.153517 0.294837 0.0246709
0.15316 0.292928 0.0248214
0.152241 0.291298 0.0248745
0.133575 0.142063 0.0171952
0.137138 0.260455 0.0254248
0.137545 0.262345 0.0253745
0.128281 0.171511 0.0207656
0.152331 0.300979 0.0234912
0.12815 0.173272 0.0210509
0.12832 0.175129 0.0213857
0.130371 0.191 0.0232648
0.151308 0.292995 0.0244452
0.150996 0.291095 0.0246458
0.150449 0.289904 0.0247415
0.130634 0.192979 0.0234532
0.130786 0.194856 0.0236073
0.131094 0.197098 0.0238099
0.131379 0.198895 0.023928
0.135125 0.228463 0.0253775
0.255297 0.0624436 0.00579767
0.150981 0.300883 0.02327
0.149998 0.299277 0.023384
0.254562 0.0639166 0.005745
0.254833 0.0658332 0.00674173
0.255128 0.0671848 0.00787356
0.258304 0.0618023 0.00746928
0.148673 0.289453 0.0244847
0.260001 0.0614505 0.00799853
0.129871 0.169172 0.0207102
0.130653 0.14659 0.0171833
0.129811 0.170922 0.0210432
0.130025 0.172883 0.0214523
0.129946 0.140852 0.0156008
0.266372 0.0628444 0.0086259
0.148079 0.299387 0.0230422
0.147766 0.297469 0.0232879
0.266519 0.0642188 0.00934902
0.131316 0.188515 0.023335
0.13185 0.190582 0.023573
0.132105 0.192631 0.0237586
0.146426 0.287696 0.0243589
0.268541 0.0641475 0.00904825
0.132554 0.198742 0.0241451
0.14005 0.25196 0.0265105
0.270837 0.0698164 0.0109764
0.284753 0.309233 0.0228294
0.12844 0.145123 0.016054
0.128158 0.143043 0.0155064
0.284805 0.310977 0.0224123
0.146513 0.299201 0.0227808
0.146184 0.297702 0.0229736
0.145902 0.29568 0.0232073
0.28487 0.31305 0.0219709
0.285344 0.314849 0.0215727
0.285407 0.316282 0.0213237
0.144535 0.287891 0.0240036
0.144066 0.285993 0.0241581
0.272258 0.0648171 0.00893359
0.127541 0.154999 0.0178276
0.272379 0.0662155 0.00948529
0.272529 0.0680399 0.0101154
0.272675 0.0698705 0.0107127
0.126869 0.14744 0.0160918
0.126885 0.145374 0.0156128
0.144975 0.297937 0.0226764
0.144349 0.295806 0.0228737
0.14323 0.294057 0.022893
0.273183 0.0710738 0.0110118
0.286887 0.308787 0.0226801
0.286819 0.310806 0.0222493
0.142274 0.286186 0.0238011
0.142032 0.284121 0.02398
0.141716 0.282637 0.024093
0.125825 0.157268 0.0177814
0.286885 0.312868 0.0218006
0.286951 0.314647 0.0214482
0.287013 0.316133 0.0211172
0.27386 0.0661323 0.00923283
0.125033 0.147473 0.0155856
0.125666 0.146142 0.0154456
0.141962 0.293879 0.0226631
0.141365 0.292267 0.0228098
0.274528 0.0678238 0.00972774
0.274669 0.0696729 0.0103196
0.275067 0.0716538 0.0108915
0.275823 0.073714 0.0113903
0.139793 0.282389 0.0237359
0.139131 0.280417 0.0238886
0.138572 0.279266 0.0239373
0.123853 0.162935 0.0180548
0.123951 0.161567 0.0178865
0.124129 0.159537 0.0176504
0.288609 0.308605 0.0226101
0.28898 0.314641 0.0211938
0.288216 0.316019 0.0209647
0.276411 0.0676758 0.00936145
0.27677 0.0695881 0.00990474
0.139482 0.292038 0.0224898
0.276778 0.07164 0.01054
0.277022 0.0734234 0.0110779
0.290809 0.309122 0.0223323
0.290873 0.31091 0.0219105
0.290959 0.312868 0.0214362
0.137515 0.280703 0.0235478
0.13721 0.278822 0.0237411
0.290598 0.314264 0.0210611
0.12295 0.165827 0.0182489
0.230175 0.102606 0.0191744
0.122708 0.163828 0.0178411
0.12245 0.161814 0.017473
0.278616 0.069685 0.00960604
0.278884 0.0714633 0.0101064
0.292815 0.308571 0.0222663
0.292995 0.310554 0.0217648
0.280388 0.0700548 0.0094327
0.280894 0.0712557 0.0097478
0.295184 0.306826 0.0223685
0.294831 0.308192 0.0220627
0.294919 0.310166 0.0215192
0.228426 0.104536 0.019857
0.228242 0.102675 0.01936
0.282946 0.0715327 0.00959352
0.283058 0.0729117 0.0101739
0.296806 0.306499 0.0222522
0.296895 0.308446 0.0216933
0.135376 0.278821 0.0234059
0.134914 0.276974 0.0235219
0.284965 0.0728299 0.0100255
0.121088 0.167977 0.0182174
0.285004 0.0747831 0.0109761
0.298854 0.306554 0.0220121
0.298932 0.308439 0.0213903
0.287239 0.0735846 0.0101796
0.120211 0.158135 0.0161808
0.28645 0.0746815 0.010831
0.300411 0.30506 0.0222783
0.300479 0.306503 0.0218119
0.30095 0.307929 0.0212647
0.288841 0.0736027 0.00992512
0.289394 0.0749111 0.0105574
0.289765 0.0760352 0.011062
0.302384 0.304158 0.0222535
0.302616 0.306236 0.021602
0.302961 0.30777 0.0210159
0.132529 0.273174 0.0233655
0.132211 0.271709 0.023436
0.11948 0.169973 0.0182736
0.291221 0.0738064 0.00956963
0.290829 0.0751683 0.0104531
0.291095 0.076979 0.011309
0.291369 0.0783498 0.0118424
0.291752 0.0796351 0.0122159
0.304715 0.301829 0.0223379
0.292446 0.0749578 0.0100136
0.293119 0.0765712 0.0107622
0.293391 0.0783888 0.0114751
0.293424 0.0803296 0.0121093
0.306997 0.298036 0.0225835
0.30651 0.299909 0.0223247
0.306373 0.301961 0.0219323
0.130667 0.271417 0.0230974
0.130304 0.269538 0.0232268
0.12911 0.268317 0.0230776
0.117999 0.178195 0.0190089
0.118597 0.176496 0.0189362
0.117739 0.174498 0.018525
0.117418 0.172686 0.0182436
0.117968 0.170594 0.0180551
0.295456 0.0806833 0.0119036
0.295551 0.0819264 0.0122647
0.308551 0.296327 0.0226281
0.308208 0.297641 0.0224038
0.308307 0.299426 0.022017
0.308401 0.301594 0.0215197
0.29775 0.0821721 0.0121626
0.310195 0.297496 0.0220533
0.310295 0.299292 0.0216287
0.310302 0.301323 0.0211585
0.299223 0.0764715 0.010002
0.299617 0.0821278 0.0120062
0.299711 0.0833487 0.0123124
0.127776 0.267731 0.0228223
0.127392 0.265874 0.0229394
0.126872 0.263753 0.0229699
0.126643 0.262167 0.0230021
0.116253 0.180068 0.0188748
0.116482 0.178807 0.0187255
0.116607 0.176743 0.0184739
0.3123 0.299184 0.0212724
0.312388 0.300574 0.020911
0.301329 0.0770824 0.0100618
0.301275 0.0783521 0.0106461
0.301764 0.0838127 0.0121591
0.314065 0.29331 0.0223369
0.314252 0.297391 0.0213552
0.314193 0.299124 0.0209362
0.313589 0.300502 0.0206735
0.303314 0.0783612 0.0102342
0.303557 0.0799542 0.010783
0.30375 0.0819723 0.0112852
0.303539 0.0841607 0.011865
0.125896 0.265981 0.0225584
0.125657 0.263951 0.0226592
0.12542 0.26193 0.0227045
0.125146 0.259938 0.0227405
0.303701 0.0858432 0.012289
0.114985 0.180513 0.0186466
0.114904 0.179014 0.0183801
0.304198 0.0873938 0.0126094
0.316143 0.29149 0.0222845
0.315836 0.292972 0.0220716
0.316108 0.295046 0.0216143
0.316338 0.297111 0.0210579
0.305068 0.0801587 0.0103888
0.305239 0.0820691 0.0109085
0.125579 0.275877 0.0213617
0.124998 0.274373 0.0213813
0.305461 0.0839763 0.0113691
0.319931 0.285315 0.0224826
0.319769 0.293027 0.0213439
0.319889 0.294825 0.0209483
0.309985 0.0913351 0.0127454
0.310514 0.0929199 0.0130275
0.321353 0.283351 0.0225816
0.321457 0.284713 0.0222403
0.321816 0.292994 0.0209906
0.32189 0.294299 0.0207071
0.312192 0.0935647 0.0127925
0.312445 0.0951656 0.0131149
0.323791 0.290922 0.0209477
0.323459 0.292976 0.0206924
0.323075 0.294178 0.0205067
0.314532 0.0966404 0.0130988
0.113079 0.183334 0.0185661
0.315785 0.0913745 0.0115135
0.316287 0.0930371 0.0117829
0.316394 0.0952094 0.0123055
0.316516 0.0973707 0.0130007
0.3184 0.0936165 0.0115568
0.318396 0.095088 0.0119311
0.318593 0.0970553 0.0125406
0.318618 0.0984908 0.0130374
0.329392 0.282492 0.0214941
0.329466 0.284155 0.0211559
0.329545 0.286219 0.0207272
0.319635 0.0939824 0.0114922
0.320134 0.0951737 0.0117276
0.320236 0.0968674 0.0121912
0.320523 0.0988145 0.0127726
0.331077 0.282541 0.0211474
0.331174 0.284253 0.0207734
0.330852 0.28557 0.0205898
0.321619 0.0952462 0.0115456
0.322264 0.0967245 0.0118331
0.322583 0.0987783 0.0123388
0.333461 0.274377 0.0221067
0.333177 0.276125 0.0218327
0.113011 0.199117 0.0196158
0.113015 0.19696 0.0193771
0.113003 0.19523 0.0191736
0.333092 0.282073 0.0207177
0.332398 0.283838 0.0205581
0.323909 0.097037 0.0116383
0.324351 0.0988468 0.0120084
0.324556 0.100764 0.0125037
0.334781 0.27404 0.0218183
0.334841 0.276134 0.0214067
0.33493 0.278223 0.0209567
0.32571 0.0993733 0.0118708
0.326087 0.100708 0.0121419
0.110124 0.173567 0.0163291
0.110252 0.171777 0.0160226
0.326695 0.102263 0.0124454
0.337246 0.270814 0.0216216
0.336709 0.272281 0.0215684
0.336656 0.273838 0.0213491
0.336758 0.275967 0.0209281
0.336823 0.277968 0.020502
0.328643 0.102745 0.0121012
0.33857 0.271687 0.0211483
0.338739 0.273852 0.0207549
0.330645 0.104712 0.0121841
0.331242 0.110361 0.0138063
0.210956 0.281121 0.0318811
0.210593 0.278885 0.0321858
0.33147 0.111984 0.0142016
0.33216 0.113319 0.0143782
0.340602 0.269671 0.0208777
0.340632 0.27169 0.0205773
0.34003 0.273906 0.0203829
0.332711 0.106774 0.0123144
0.333208 0.108435 0.0126735
0.333252 0.110202 0.0131789
0.333298 0.111964 0.0136847
0.333479 0.113905 0.0142224
0.342172 0.261739 0.0214008
0.342568 0.269554 0.0204005
0.33446 0.108733 0.0124108
0.335192 0.189595 0.0259394
0.335107 0.187599 0.0259632
0.335014 0.185606 0.0259557
0.334931 0.184011 0.0259176
0.334806 0.181619 0.0258652
0.334772 0.110174 0.0127479
0.335379 0.112166 0.0131788
0.33484 0.175627 0.0257343
0.33547 0.114325 0.013879
0.335744 0.115866 0.0143079
0.336501 0.117557 0.0146737
0.344484 0.257906 0.021406
0.333816 0.165718 0.0250243
0.333745 0.16452 0.0248098
0.344011 0.259436 0.0212846
0.334048 0.209654 0.0271567
0.333943 0.208062 0.0270323
0.333427 0.199699 0.0265326
0.333337 0.197702 0.0265439
0.333239 0.195708 0.0265218
0.333137 0.193714 0.0264851
0.333518 0.191426 0.0263627
0.333635 0.189687 0.0263531
0.333488 0.187698 0.0264116
0.333388 0.185708 0.0264154
0.33328 0.183718 0.0263543
0.333164 0.181729 0.0262567
0.344149 0.261531 0.0210055
0.344438 0.265351 0.0205303
0.344575 0.267459 0.0202324
0.344267 0.269154 0.0200689
0.337351 0.112499 0.0127308
0.337583 0.114022 0.0132205
0.337687 0.115691 0.0138008
0.332191 0.165846 0.0254274
0.332097 0.16383 0.0250602
0.337796 0.117795 0.014479
0.338275 0.119468 0.0149001
0.345985 0.25733 0.0211571
0.332747 0.214928 0.0273336
0.333059 0.213701 0.027364
0.332893 0.211692 0.0275239
0.332755 0.209702 0.0274991
0.332704 0.207719 0.0273224
0.332248 0.205751 0.027205
0.332153 0.20376 0.0270398
0.332255 0.201625 0.0268886
0.332228 0.199761 0.0268545
0.332075 0.197768 0.0268619
0.33203 0.195774 0.0268083
0.331969 0.193781 0.026743
0.346233 0.261496 0.0205919
0.346379 0.263605 0.0203144
0.34639 0.265196 0.0201427
0.346179 0.26658 0.0200154
0.338929 0.11418 0.0128836
0.339419 0.115851 0.0133918
0.339434 0.118113 0.0142339
0.340055 0.119714 0.0146142
0.340777 0.121 0.0148624
0.348403 0.249762 0.021298
0.348457 0.251389 0.021131
0.348176 0.253477 0.0210259
0.347804 0.259406 0.0205153
0.347887 0.261061 0.0202879
0.34793 0.262996 0.0200418
0.341509 0.11789 0.0135877
0.34191 0.119671 0.0141303
0.342079 0.121608 0.0147149
0.349859 0.24801 0.0209885
0.349526 0.249265 0.0209641
0.349718 0.250981 0.0207819
0.34987 0.253071 0.0206028
0.331105 0.21572 0.0275812
0.349613 0.255179 0.0205319
0.34985 0.259335 0.0200401
0.34978 0.260929 0.0198492
0.349198 0.262282 0.0198152
0.343132 0.117756 0.0129446
0.34362 0.119418 0.0134558
0.343626 0.121646 0.0142579
0.343851 0.123585 0.0147053
0.344198 0.124932 0.0148684
0.344429 0.127736 0.0152059
0.344318 0.129478 0.0153667
0.344307 0.131374 0.0154539
0.344517 0.133302 0.0155796
0.344932 0.135016 0.0158203
0.351125 0.239384 0.0210603
0.329243 0.183975 0.0272392
0.350932 0.240893 0.0210951
0.351245 0.243033 0.0209164
0.351289 0.245052 0.0207723
0.351059 0.247274 0.0206341
0.351173 0.249228 0.0204604
0.351396 0.250961 0.0202879
0.351562 0.253058 0.0201498
0.351643 0.255101 0.020002
0.351751 0.257169 0.0197805
0.351452 0.258858 0.0196731
0.345046 0.120397 0.0132886
0.345325 0.121855 0.0136645
0.345662 0.123574 0.0140181
0.345941 0.125536 0.0143534
0.346131 0.127523 0.0145941
0.346297 0.129528 0.0147356
0.346572 0.135324 0.0155078
0.34726 0.137167 0.0159313
0.353051 0.236923 0.0206125
0.352707 0.238909 0.0205828
0.352845 0.240973 0.0204677
0.352911 0.243001 0.0203848
0.352992 0.24504 0.0202398
0.352996 0.247003 0.0200793
0.353396 0.24903 0.0198095
0.353331 0.250854 0.0197666
0.353018 0.25283 0.0197467
0.352905 0.25509 0.0196337
0.352924 0.256299 0.0195216
0.347691 0.124388 0.0133702
0.347729 0.125663 0.0136482
0.32803 0.197988 0.0278451
0.327936 0.196002 0.0277399
0.327871 0.194012 0.0276089
0.327801 0.192023 0.0275232
0.327671 0.190038 0.0275133
0.327521 0.188058 0.0275508
0.327501 0.186205 0.0275459
0.327691 0.184867 0.0275061
0.348179 0.127365 0.0138553
0.348447 0.12926 0.0140683
0.354805 0.23383 0.0206083
0.354567 0.235191 0.0204927
0.354528 0.236713 0.0203314
0.35522 0.245074 0.0196443
0.326684 0.167418 0.0267508
0.326348 0.166105 0.0266078
0.326148 0.164224 0.0263681
0.355146 0.246584 0.0195044
0.354998 0.2484 0.0194271
0.349699 0.129997 0.0137767
0.350017 0.131375 0.0138445
0.350284 0.133272 0.0141105
0.350691 0.135359 0.0145314
0.351789 0.141189 0.016067
0.351941 0.142777 0.016338
0.352081 0.144381 0.0165642
0.327501 0.23182 0.0279529
0.327614 0.230013 0.028015
0.357054 0.231225 0.0203363
0.356357 0.232914 0.0203767
0.356657 0.234827 0.0201204
0.357003 0.242803 0.0194036
0.356447 0.244625 0.0193732
0.352961 0.141152 0.0157434
0.353222 0.142965 0.016035
0.327072 0.213987 0.028613
0.358503 0.228674 0.0201233
0.358226 0.230747 0.0200795
0.358399 0.232427 0.0198844
0.35898 0.240721 0.0191051
0.358702 0.24241 0.0190322
0.355583 0.148625 0.0161423
0.356111 0.150628 0.0163318
0.326869 0.19805 0.0281019
0.326547 0.19588 0.028012
0.326261 0.194104 0.0279305
0.326159 0.19212 0.0278324
0.326053 0.190135 0.0277927
0.326011 0.188308 0.027784
0.324942 0.164318 0.0266223
0.356491 0.152378 0.0165492
0.360123 0.213058 0.0196943
0.360252 0.214698 0.0196481
0.359958 0.216759 0.0197774
0.360032 0.218389 0.0197823
0.359961 0.220552 0.0198355
0.360201 0.228631 0.019602
0.360172 0.230622 0.019423
0.3575 0.146896 0.0151358
0.322893 0.144495 0.0239869
0.322084 0.142839 0.0235836
0.326146 0.233987 0.0281606
0.32614 0.232082 0.0282885
0.357556 0.148992 0.0154976
0.357712 0.150595 0.0157533
0.359361 0.171387 0.0178478
0.359438 0.172609 0.0179211
0.35958 0.174641 0.0180831
0.361418 0.212606 0.019297
0.325261 0.218053 0.0287466
0.325236 0.216214 0.0288462
0.325445 0.21405 0.0289472
0.325364 0.212065 0.0290295
0.361528 0.214507 0.0192238
0.361744 0.216455 0.0191855
0.361711 0.218328 0.0192513
0.35891 0.14754 0.0146798
0.358919 0.148813 0.0148978
0.32098 0.144568 0.024383
0.320751 0.142653 0.0237931
0.323738 0.238268 0.0283547
0.324224 0.23614 0.0284382
0.324347 0.234227 0.0285601
0.359159 0.150791 0.0152325
0.36044 0.164404 0.0171039
0.360571 0.166434 0.0172426
0.323735 0.226114 0.0290168
0.323634 0.22413 0.0290082
0.323548 0.222149 0.0290332
0.323539 0.220251 0.029077
0.324071 0.218107 0.0290162
0.360508 0.168598 0.0173602
0.319587 0.148338 0.0255362
0.318972 0.146602 0.0252993
0.319093 0.1446 0.0247659
0.318884 0.142674 0.0242141
0.318531 0.140901 0.0237376
0.322312 0.241932 0.0283022
0.322546 0.240156 0.0284271
0.322565 0.238337 0.0285906
0.360555 0.170488 0.0174264
0.360687 0.172524 0.0174999
0.360808 0.174563 0.0176582
0.361229 0.176603 0.0177486
0.321956 0.228341 0.0294192
0.322154 0.226182 0.0293481
0.322055 0.2242 0.0293363
0.321964 0.222219 0.0293646
0.317192 0.145961 0.0254367
0.31699 0.144456 0.0250645
0.361866 0.178419 0.0176946
0.362203 0.180647 0.0177241
0.316561 0.138862 0.0235846
0.316166 0.136747 0.0233673
0.361306 0.182459 0.0180985
0.36234 0.194529 0.018609
0.320692 0.242338 0.0286062
0.362449 0.19657 0.0186762
0.362559 0.19861 0.0187434
0.32041 0.236339 0.0292548
0.320416 0.234359 0.0294272
0.362657 0.20024 0.0188273
0.315509 0.144472 0.0253193
0.314885 0.143041 0.025013
0.314799 0.140939 0.024408
0.362464 0.202458 0.0190147
0.363167 0.212549 0.0187187
0.363301 0.214197 0.018649
0.363355 0.216237 0.0186472
0.363394 0.218267 0.0187235
0.362163 0.16259 0.0163372
0.31887 0.246418 0.0285967
0.362449 0.164498 0.0164417
0.36231 0.166497 0.0166625
0.363069 0.1764 0.0170425
0.318508 0.238397 0.0294707
0.318472 0.236529 0.029653
0.312866 0.142365 0.0251376
0.363433 0.178509 0.0171312
0.363635 0.180532 0.0172084
0.363333 0.182188 0.0173989
0.364259 0.196478 0.017975
0.364293 0.198527 0.0180735
0.364366 0.200163 0.0181419
0.312069 0.129117 0.023204
0.311625 0.127411 0.0228781
0.316593 0.254247 0.028539
0.317067 0.252491 0.0286004
0.316825 0.250639 0.0287397
0.316923 0.24856 0.0288294
0.364544 0.202203 0.0182192
0.365004 0.210391 0.0182245
0.364855 0.212482 0.0181915
0.316642 0.240497 0.029606
0.316541 0.238492 0.0298355
0.316855 0.237251 0.0298909
0.364567 0.214148 0.0182528
0.310866 0.14074 0.0250663
0.36462 0.216189 0.0182451
0.365082 0.218205 0.0181909
0.363522 0.157155 0.0150335
0.363633 0.15836 0.0152132
0.36381 0.160378 0.0154852
0.363966 0.162411 0.0156966
0.309885 0.127161 0.0230798
0.309098 0.125151 0.0227579
0.308926 0.123237 0.0223554
0.315437 0.254338 0.028733
0.315308 0.252659 0.0288817
0.315225 0.250681 0.0290025
0.36411 0.164454 0.0158648
0.3647 0.176354 0.016471
0.364841 0.178394 0.0166321
0.314756 0.242581 0.0296528
0.31466 0.240578 0.0299172
0.314981 0.238965 0.03003
0.308989 0.140798 0.0254017
0.308722 0.138965 0.0249981
0.308563 0.137045 0.0246896
0.36496 0.18044 0.0167291
0.365414 0.182631 0.0166863
0.366083 0.198853 0.0173815
0.366153 0.200081 0.017434
0.366282 0.202126 0.0175589
0.307886 0.125317 0.0230006
0.307745 0.123323 0.0225942
0.307515 0.121851 0.0222819
0.366413 0.204172 0.0176941
0.313491 0.254846 0.0289838
0.366526 0.206221 0.0177723
0.366619 0.20827 0.0177882
0.366671 0.209499 0.01778
0.142311 0.267716 0.0259281
0.313012 0.244812 0.0296854
0.312789 0.242928 0.0299248
0.313498 0.241038 0.0300371
0.307528 0.139077 0.0251938
0.306984 0.13716 0.0248926
0.306477 0.135179 0.0247581
0.142766 0.269801 0.025765
0.143363 0.271355 0.0257185
0.131714 0.167026 0.0207503
0.131556 0.16871 0.0210643
0.14222 0.253717 0.0267913
0.142571 0.255564 0.0267736
0.305566 0.121521 0.0226016
0.311345 0.260156 0.0287293
0.311309 0.258982 0.0288647
0.311628 0.25698 0.0290435
0.142818 0.257548 0.0267921
0.143105 0.259492 0.0268426
0.143368 0.261458 0.0268751
0.144611 0.271551 0.0259703
0.31104 0.24681 0.0298565
0.311074 0.245296 0.0299895
0.311272 0.243952 0.0300866
0.144973 0.273428 0.0258268
0.133846 0.165108 0.0209088
0.133403 0.166493 0.0210637
0.133387 0.168264 0.0214749
0.133907 0.170233 0.0219807
0.134254 0.174074 0.0225682
0.134499 0.176049 0.0227948
0.134728 0.177656 0.022963
0.30343 0.11965 0.0224124
0.30911 0.262702 0.0289092
0.309713 0.260952 0.0289518
0.309722 0.259035 0.0291231
0.144076 0.255511 0.0270583
0.144396 0.257311 0.0270907
0.144218 0.258934 0.0270737
0.144587 0.261687 0.0271129
0.309184 0.249292 0.0299575
0.309355 0.247534 0.0300851
0.145025 0.263428 0.0271258
0.145837 0.265145 0.0271101
0.134681 0.158243 0.0201637
0.13488 0.160189 0.0204798
0.13489 0.162355 0.0207434
0.134959 0.164199 0.0210273
0.307824 0.263046 0.0291288
0.307845 0.26112 0.0292971
0.135264 0.166261 0.0215147
0.13552 0.167921 0.0219143
0.135715 0.169812 0.0223097
0.135638 0.171962 0.0226063
0.307305 0.251376 0.0300279
0.307339 0.249487 0.0302036
0.136246 0.173857 0.0228952
0.136483 0.17582 0.023067
0.136674 0.177392 0.0232033
0.147666 0.265037 0.0274311
0.149687 0.276999 0.0262655
0.149921 0.278564 0.0261633
0.305377 0.266934 0.0291367
0.305862 0.265175 0.0292874
0.305983 0.263227 0.0294655
0.136217 0.156517 0.0202983
0.136289 0.158103 0.020561
0.136519 0.160082 0.0209036
0.305436 0.255294 0.0300166
0.305442 0.253481 0.0301293
0.30561 0.251719 0.0302305
0.137504 0.167707 0.0223238
0.137649 0.168897 0.0225434
0.137499 0.174476 0.023126
0.138032 0.175602 0.0232644
0.138082 0.177065 0.0233546
0.149926 0.266855 0.0274556
0.303867 0.268614 0.0291306
0.304201 0.267359 0.0292777
0.304105 0.265317 0.0295828
0.151536 0.278741 0.0264483
0.152292 0.280553 0.026455
0.303711 0.259443 0.0301278
0.303696 0.257602 0.0301867
0.303586 0.255589 0.0302798
0.303609 0.253691 0.0303673
0.295938 0.123699 0.0241797
0.139186 0.165441 0.0222691
0.13942 0.167416 0.0226368
0.139568 0.168609 0.0228459
0.152072 0.267147 0.0276521
0.295228 0.114037 0.022017
0.153753 0.280466 0.0267091
0.302151 0.269033 0.0293219
0.302223 0.267417 0.029586
0.154187 0.282242 0.0266299
0.154702 0.284376 0.0264481
0.301921 0.261654 0.0302964
0.301914 0.259728 0.0303925
0.302489 0.257594 0.0303759
0.302398 0.255622 0.0304571
0.140047 0.149902 0.0199648
0.293719 0.119922 0.0236618
0.139564 0.151683 0.0201546
0.140674 0.161253 0.0219838
0.140922 0.163241 0.0222741
0.141135 0.16518 0.0225823
0.292741 0.110343 0.0215136
0.300026 0.271249 0.0292085
0.300344 0.269573 0.0294551
0.141205 0.167095 0.0228703
0.140728 0.16844 0.0230071
0.156002 0.282134 0.0269051
0.300087 0.26185 0.0305415
0.291645 0.118065 0.0235727
0.156277 0.284135 0.0267119
0.156464 0.28556 0.0265386
0.141325 0.149474 0.0201064
0.291 0.110384 0.0218597
0.290891 0.108683 0.0214189
0.297732 0.272991 0.0292761
0.298299 0.271629 0.0293958
0.298364 0.26963 0.0297155
0.141439 0.151382 0.0204055
0.29818 0.265894 0.0302779
0.2982 0.264058 0.0305142
0.289671 0.116043 0.0234373
0.14239 0.159017 0.0219178
0.14256 0.160895 0.0222471
0.142495 0.163051 0.0225173
0.288898 0.108432 0.0216464
0.288023 0.107224 0.0214183
0.296433 0.273332 0.0294328
0.296482 0.271751 0.0296574
0.142717 0.164996 0.0227868
0.156576 0.272364 0.0277961
0.296217 0.266027 0.0304596
0.296147 0.264742 0.0306377
0.156994 0.274153 0.0277601
0.157178 0.275802 0.0276664
0.158221 0.2839 0.0269918
0.158369 0.285148 0.026858
0.143158 0.149136 0.0203497
0.28668 0.10706 0.0214491
0.293905 0.275647 0.0294706
0.294704 0.27396 0.0296187
0.144354 0.158771 0.0221442
0.144519 0.159997 0.0223732
0.158222 0.274361 0.0279826
0.294248 0.266156 0.0306261
0.294577 0.264856 0.0307762
0.159189 0.275716 0.028066
0.159307 0.277626 0.0279056
0.14506 0.145203 0.0200407
0.146073 0.156527 0.021978
0.284792 0.106692 0.0214514
0.283878 0.10512 0.0210347
0.292381 0.277306 0.0293516
0.292727 0.276035 0.0295815
0.146182 0.158429 0.0223208
0.160861 0.276437 0.0283016
0.161301 0.27773 0.0282437
0.161625 0.279191 0.0281372
0.292406 0.266338 0.0307767
0.146985 0.140999 0.0196145
0.146969 0.142752 0.0199378
0.146575 0.14459 0.0202004
0.282819 0.106903 0.0216687
0.282689 0.105163 0.021122
0.290727 0.278032 0.0294729
0.148038 0.156297 0.0222668
0.147461 0.158007 0.0224314
0.16319 0.279887 0.0283201
0.165316 0.290981 0.0273919
0.166157 0.292606 0.0274016
0.148388 0.139236 0.0194741
0.148108 0.140432 0.0196999
0.148328 0.142395 0.0200949
0.165736 0.281156 0.0286246
0.280815 0.106676 0.0217278
0.280529 0.104982 0.021219
0.166129 0.28298 0.0284901
0.254015 0.0684568 0.00749463
0.16739 0.292775 0.0276725
0.168054 0.294736 0.0275687
0.168228 0.295937 0.0274048
0.150114 0.138769 0.0196663
0.15008 0.140197 0.0199514
0.255281 0.0682732 0.00803828
0.255573 0.0698394 0.00905765
0.278709 0.10503 0.0213971
0.278219 0.103796 0.0210969
0.255321 0.0719033 0.00930564
0.255319 0.0732501 0.00986038
0.167843 0.283023 0.0287594
0.168347 0.284692 0.0286736
0.169631 0.294393 0.0279555
0.276848 0.108637 0.0226105
0.276875 0.106932 0.022125
0.16999 0.296335 0.027693
0.276369 0.103248 0.0211412
0.27565 0.101186 0.0207775
0.27556 0.100034 0.0205498
0.170914 0.297993 0.0275013
0.151841 0.138306 0.0198442
0.152035 0.139931 0.0201929
0.266981 0.0739895 0.0126968
0.267623 0.0758745 0.0131946
0.268091 0.0775788 0.0136692
0.274567 0.109112 0.0228432
0.170171 0.284598 0.0289453
0.269147 0.0757981 0.0129796
0.274624 0.103363 0.0213811
0.274477 0.101294 0.0209806
0.274263 0.0994597 0.0206449
0.283029 0.281838 0.02923
0.269445 0.0777642 0.0135485
0.282621 0.303885 0.0246398
0.270825 0.0717383 0.0115563
0.271052 0.0758409 0.0127586
0.272771 0.109168 0.0229579
0.272782 0.107229 0.0224898
0.271287 0.0774858 0.0132504
0.284559 0.303644 0.0241946
0.284609 0.305 0.0238929
0.272378 0.0994416 0.0209466
0.27207 0.0975586 0.0205374
0.271299 0.0959356 0.0201375
0.281055 0.281992 0.029378
0.284684 0.306925 0.0234229
0.284732 0.308349 0.023074
0.2727 0.0717231 0.0112993
0.272996 0.0737794 0.0118774
0.271466 0.108602 0.0229395
0.270778 0.107286 0.0227043
0.270441 0.105411 0.0223307
0.273172 0.0760668 0.0125504
0.273284 0.0774423 0.0129886
0.286668 0.303225 0.0239245
0.270268 0.0977187 0.0208164
0.270029 0.0958311 0.0202795
0.278947 0.282459 0.0295989
0.2866 0.304882 0.0235939
0.286683 0.306822 0.0231576
0.286333 0.30821 0.0229353
0.274049 0.0719714 0.0111618
0.268551 0.105409 0.0225342
0.274524 0.0737512 0.011625
0.275165 0.0757814 0.0121584
0.275317 0.0775929 0.0128092
0.275829 0.0787945 0.0132352
0.288539 0.302886 0.0237555
0.276828 0.284677 0.0296019
0.277158 0.283029 0.0297748
0.276839 0.280767 0.0301325
0.276628 0.279149 0.0304358
0.276673 0.277303 0.0307194
0.28863 0.304931 0.0233728
0.288703 0.306763 0.0229823
0.289553 0.30794 0.0226857
0.277209 0.0794291 0.0133712
0.278054 0.0810456 0.0139915
0.290233 0.300569 0.0240693
0.290724 0.306632 0.0228832
0.290765 0.307847 0.0226213
0.275313 0.28327 0.0299895
0.279255 0.081051 0.0138127
0.292032 0.299138 0.024177
0.11215 0.211379 0.0201088
0.292091 0.300483 0.0239501
0.292743 0.30647 0.0227502
0.292383 0.307717 0.0225231
0.281474 0.0811385 0.0135988
0.294622 0.306241 0.0225857
0.283559 0.0826356 0.0139891
0.285451 0.082589 0.0138491
0.112287 0.207203 0.0197763
0.285961 0.0838455 0.0142696
0.287284 0.0754624 0.0111771
0.287003 0.076736 0.0118208
