# .PCD v0.7 - Point Cloud Data file format
VERSION 0.7
FIELDS x y z rgb
SIZE 4 4 4 4
TYPE F F F U
COUNT 1 1 1 1
WIDTH 1085
HEIGHT 1
VIEWPOINT 0 0 0 1 0 0 0
POINTS 1085
DATA ascii
-0.092561655 -0.012626446 0.49100003 6383714
-0.091487847 -0.012626446 0.49100003 6711139
-0.090368003 -0.012620016 0.49075001 6645346
-0.089294739 -0.012620016 0.49075001 6580323
-0.088131584 -0.012607159 0.49025002 6449507
-0.086748652 -0.012562157 0.48850003 6515300
-0.085636459 -0.012555727 0.48825002 6383712
-0.084525362 -0.012549299 0.48800004 6384227
-0.083458111 -0.012549299 0.48800004 6384227
-0.08239086 -0.012549299 0.48800004 6449507
-0.081365272 -0.012555727 0.48825002 6646116
-0.080585279 -0.012600729 0.49000001 6646116
-0.079554223 -0.012607159 0.49025002 6449505
-0.078001797 -0.012530012 0.48725003 6515298
-0.076936185 -0.012530012 0.48725003 6646114
-0.075831652 -0.012523582 0.48700002 6777954
-0.074728213 -0.012517154 0.48675004 6646368
-0.073663689 -0.012517154 0.48675004 6580575
-0.072561882 -0.012510724 0.48650002 6580575
-0.071461171 -0.012504295 0.48625001 6646114
-0.07039775 -0.012504295 0.48625001 6646368
-0.069334328 -0.012504295 0.48625001 6777184
-0.068270907 -0.012504295 0.48625001 6776930
-0.067207485 -0.012504295 0.48625001 6515300
-0.066178069 -0.012510724 0.48650002 6515813
-0.065147556 -0.012517154 0.48675004 6449505
-0.064083047 -0.012517154 0.48675004 6515298
-0.063018531 -0.012517154 0.48675004 6515298
-0.061954014 -0.012517154 0.48675004 6581093
-0.060889494 -0.012517154 0.48675004 6515300
-0.059824977 -0.012517154 0.48675004 6515300
-0.058760464 -0.012517154 0.48675004 6581091
-0.057695948 -0.012517154 0.48675004 6646114
-0.056631431 -0.012517154 0.48675004 6646884
-0.055566914 -0.012517154 0.48675004 6581091
-0.054474406 -0.012510724 0.48650002 6581091
-0.053382985 -0.012504295 0.48625001 6646368
-0.052292667 -0.012497867 0.48600003 6646368
-0.051203437 -0.012491438 0.48575002 6646884
-0.050115302 -0.01248501 0.48550004 6581091
-0.049028259 -0.01247858 0.48525003 6581091
-0.047942311 -0.012472151 0.48500001 6450020
-0.04688162 -0.012472151 0.48500001 6515298
-0.045797314 -0.012465722 0.48475003 6515300
-0.044737171 -0.012465722 0.48475003 6581091
-0.043654505 -0.012459293 0.48450002 6712161
-0.04259491 -0.012459293 0.48450002 6777184
-0.041535314 -0.012459293 0.48450002 6711907
-0.040475719 -0.012459293 0.48450002 6909286
-0.039416123 -0.012459293 0.48450002 6646114
-0.038356528 -0.012459293 0.48450002 6581093
-0.037296932 -0.012459293 0.48450002 6713192
-0.036256038 -0.012465722 0.48475003 6515813
-0.035214044 -0.012472151 0.48500001 6450788
-0.034170963 -0.01247858 0.48525003 6515811
-0.033126783 -0.01248501 0.48550004 6777954
-0.032081511 -0.012491438 0.48575002 6908770
-0.031035148 -0.012497867 0.48600003 6777700
-0.02997227 -0.012497867 0.48600003 6777700
-0.028909395 -0.012497867 0.48600003 6777700
-0.027832193 -0.012491438 0.48575002 6646368
-0.026756089 -0.01248501 0.48550004 6646884
-0.025681077 -0.01247858 0.48525003 6646884
-0.024594473 -0.012465722 0.48475003 6713190
-0.023510054 -0.012452864 0.48425001 6581604
-0.022439415 -0.012446435 0.48400003 6581604
-0.021380914 -0.012446435 0.48400003 6778470
-0.020322412 -0.012446435 0.48400003 6646884
-0.01926391 -0.012446435 0.48400003 6646884
-0.018205408 -0.012446435 0.48400003 6581093
-0.017146906 -0.012446435 0.48400003 6646886
-0.016088404 -0.012446435 0.48400003 6778470
-0.015029902 -0.012446435 0.48400003 6778470
-0.013964183 -0.012440006 0.48375002 6581606
-0.012906227 -0.012440006 0.48375002 6515813
-0.011848272 -0.012440006 0.48375002 6450790
-0.010790316 -0.012440006 0.48375002 6713192
-0.009732361 -0.012440006 0.48375002 6909288
-0.0086744055 -0.012440006 0.48375002 6909288
-0.0076203872 -0.012446435 0.48400003 6778983
-0.0065618856 -0.012446435 0.48400003 6713190
-0.0055033835 -0.012446435 0.48400003 6778983
-0.0044448813 -0.012446435 0.48400003 6713192
-0.0033863795 -0.012446435 0.48400003 6581604
-0.0023278773 -0.012446435 0.48400003 6778470
-0.0012693754 -0.012446435 0.48400003 6975079
-0.00021098235 -0.012452864 0.48425001 6910310
0.00084894203 -0.012465722 0.48475003 6777954
0.0019110534 -0.01247858 0.48525003 6844265
0.0029738203 -0.01248501 0.48550004 6713192
0.004037681 -0.012491438 0.48575002 6910058
0.00510001 -0.012491438 0.48575002 6778472
0.0061623394 -0.012491438 0.48575002 6778472
0.0072246687 -0.012491438 0.48575002 6844012
0.0082869977 -0.012491438 0.48575002 7040874
0.0093493266 -0.012491438 0.48575002 6975849
0.010411656 -0.012491438 0.48575002 6778470
0.011468081 -0.01248501 0.48550004 6844263
0.012523411 -0.01247858 0.48525003 6844263
0.013577647 -0.012472151 0.48500001 6910056
0.014638335 -0.012472151 0.48500001 6975849
0.015699025 -0.012472151 0.48500001 6910058
0.016759714 -0.012472151 0.48500001 6910058
0.01782959 -0.01247858 0.48525003 6778985
0.01894922 -0.012517154 0.48675004 6844265
0.020034295 -0.012530012 0.48725003 7040874
0.021099905 -0.012530012 0.48725003 7172460
0.022165515 -0.012530012 0.48725003 6909805
0.023219204 -0.012523582 0.48700002 7041391
0.024284266 -0.012523582 0.48700002 6909805
0.025323303 -0.012510724 0.48650002 7106414
0.026373712 -0.012504295 0.48625001 6974828
0.027437136 -0.012504295 0.48625001 7040621
0.028485907 -0.012497867 0.48600003 7040621
0.029548783 -0.012497867 0.48600003 7237230
0.030611658 -0.012497867 0.48600003 7040623
0.03165824 -0.012491438 0.48575002 7172209
0.03272057 -0.012491438 0.48575002 7237230
0.033782896 -0.012491438 0.48575002 7237483
0.034845229 -0.012491438 0.48575002 7041644
0.035926037 -0.012497867 0.48600003 7041644
0.037179187 -0.012562157 0.48850003 7106667
0.038286675 -0.012575014 0.48900002 7172460
0.039376236 -0.012581443 0.48925003 7238251
0.040466882 -0.012587871 0.48950002 7238251
0.041537415 -0.012587871 0.48950002 7237481
0.042629708 -0.012594301 0.48975003 7369067
0.043700784 -0.012594301 0.48975003 7106667
0.044794712 -0.012600729 0.49000001 7238253
0.04586634 -0.012600729 0.49000001 7435632
0.046937961 -0.012600729 0.49000001 7238251
0.048009589 -0.012600729 0.49000001 7369069
0.049056169 -0.012594301 0.48975003 7369069
0.050127249 -0.012594301 0.48975003 7172460
0.051198326 -0.012594301 0.48975003 7238253
0.052509539 -0.012652162 0.49200001 7238253
0.053639993 -0.012665019 0.49250004 7238251
0.054744855 -0.012671448 0.49275002 7041644
0.055879138 -0.012684306 0.49325001 6975849
0.056986738 -0.012690735 0.49350002 7369837
0.058124848 -0.012703593 0.49400002 7303274
0.059235182 -0.012710022 0.49425003 7369837
0.060346611 -0.012716451 0.49450001 7041642
0.061459132 -0.01272288 0.49475002 7041642
0.062572747 -0.012729309 0.49500003 7238253
0.06362316 -0.01272288 0.49475002 7238253
0.06467247 -0.012716451 0.49450001 7238253
0.065687448 -0.012703593 0.49400002 7041644
0.066767819 -0.012703593 0.49400002 6975851
0.067848198 -0.012703593 0.49400002 7172460
0.06892857 -0.012703593 0.49400002 7500655
0.070044369 -0.012710022 0.49425003 7172460
0.071161263 -0.012716451 0.49450001 7041644
0.072279252 -0.01272288 0.49475002 7041642
0.073398337 -0.012729309 0.49500003 7106665
0.074556127 -0.012742166 0.49550003 7238251
0.075792432 -0.012767882 0.49650002 7238251
0.076955691 -0.01278074 0.49700001 7435630
0.078081883 -0.012787169 0.49725002 7369837
0.079209164 -0.012793599 0.49750003 7238251
0.080337539 -0.012800027 0.49775001 7238251
0.081426114 -0.012800027 0.49775001 7369837
0.082556136 -0.012806457 0.49800003 7369837
0.083687246 -0.012812885 0.49825004 7369837
0.084861979 -0.012825743 0.49875003 7369839
0.086038917 -0.012838601 0.49925002 7238253
0.087174401 -0.01284503 0.49950004 7435630
0.088355146 -0.012857887 0.5 7172458
0.08953809 -0.012870746 0.50050002 7632241
0.090677947 -0.012877174 0.50075001 7238253
0.091773085 -0.012877174 0.50075001 7303274
0.092868216 -0.012877174 0.50075001 7369837
0.093963347 -0.012877174 0.50075001 7369067
0.095105946 -0.012883604 0.50100005 7369067
0.096297637 -0.01289646 0.50150001 7435630
0.097588614 -0.012922176 0.5025 7238251
0.098736681 -0.012928606 0.50275004 7369837
0.099885821 -0.012935035 0.50300002 7238251
0.10103607 -0.012941463 0.50325 7107689
0.10218742 -0.012947894 0.50350004 7238505
0.10333985 -0.012954322 0.50375003 7041126
0.10449337 -0.012960751 0.50400001 7107689
0.105648 -0.01296718 0.50425005 6975849
0.10675079 -0.01296718 0.50425005 7172458
0.10790705 -0.012973608 0.50450003 7106665
0.10955057 -0.013037899 0.50700003 7041644
0.11076851 -0.013050756 0.50750005 7107435
0.11198863 -0.013063613 0.50800002 7172458
0.11337791 -0.013095759 0.50925004 7369837
0.11466026 -0.013115046 0.51000005 7106665
0.11588912 -0.013127903 0.51050001 6975849
0.11706287 -0.013134331 0.51075 6910058
0.11823773 -0.013140761 0.51100004 6975081
0.11941367 -0.01314719 0.51125002 7040874
0.12059071 -0.013153618 0.5115 6975079
0.12182833 -0.013166477 0.51200002 6646368
0.12312817 -0.013185764 0.51275003 6581345
0.12437071 -0.013198623 0.51325005 6317149
0.12555429 -0.01320505 0.51350003 6382172
0.12680066 -0.013217907 0.514 6316122
0.12792477 -0.013217907 0.514 6250329
0.12911166 -0.013224338 0.51425004 5855828
0.13023633 -0.013224338 0.51425004 5527633
0.13136098 -0.013224338 0.51425004 5593426
0.13248563 -0.013224338 0.51425004 5527887
0.13361029 -0.013224338 0.51425004 5395531
0.13466944 -0.013217907 0.514 4804164
0.13579355 -0.013217907 0.514 4738371
0.13685107 -0.013211479 0.51375002 4738117
0.13797465 -0.013211479 0.51375002 4606531
0.13909821 -0.013211479 0.51375002 4738371
0.14015354 -0.01320505 0.51350003 4803140
0.14058875 -0.013140761 0.51100004 4802883
0.14163695 -0.013134331 0.51075 5855830
0.14275396 -0.013134331 0.51075 6776930
-0.17723984 -0.011829943 0.50275004 15463659
-0.17614032 -0.011829943 0.50275004 7701368
-0.17504083 -0.011829943 0.50275004 6581606
-0.17275584 -0.011824059 0.5025 4869452
-0.17165688 -0.011824059 0.5025 4607050
-0.17072763 -0.011835825 0.50300002 4409152
-0.17080788 -0.011918182 0.50650001 4540740
-0.17020275 -0.011953478 0.50800002 4606533
-0.16925819 -0.011965243 0.50850004 4934469
-0.16847679 -0.011988773 0.50950003 5987157
-0.16752675 -0.012000539 0.51000005 7500653
-0.16649295 -0.012006422 0.51025003 7435630
-0.16545807 -0.012012304 0.51050001 6449505
-0.16442209 -0.012018186 0.51075 6251356
-0.16330509 -0.012018186 0.51075 6120024
-0.1621087 -0.012012304 0.51050001 5988438
-0.16075572 -0.011994655 0.50975001 6053979
-0.15948433 -0.011982891 0.50925004 5988184
-0.15829283 -0.011977008 0.509 6185565
-0.15710247 -0.011971125 0.50875002 6186333
-0.15591319 -0.011965243 0.50850004 6120540
-0.15480112 -0.011965243 0.50850004 6317149
-0.15368903 -0.011965243 0.50850004 6447965
-0.15250193 -0.01195936 0.50825 6579805
-0.15079467 -0.011912299 0.50625002 6711391
-0.14961359 -0.011906417 0.50600004 6776930
-0.14843358 -0.011900533 0.50575 6646368
-0.14725469 -0.011894652 0.50550002 6908770
-0.14607689 -0.011888769 0.50525004 6974306
-0.14475672 -0.011871121 0.50450003 6842723
-0.14329745 -0.011841707 0.50325 6842723
-0.14205557 -0.011829943 0.50275004 6842977
-0.14074579 -0.011812295 0.50200003 6842720
-0.13950883 -0.011800529 0.50150001 6908770
-0.13827407 -0.011788765 0.50100005 6712161
-0.13717838 -0.011788765 0.50100005 6777184
-0.13669384 -0.011841707 0.50325 6776930
-0.13559324 -0.011841707 0.50325 6514528
-0.13442583 -0.011835825 0.50300002 6777700
-0.13325952 -0.011829943 0.50275004 6645344
-0.13209428 -0.011824059 0.5025 6908259
-0.13093016 -0.011818177 0.50225002 6710880
-0.12879774 -0.011724056 0.49825004 6645344
-0.12764399 -0.011718173 0.49800003 6514528
-0.12655486 -0.011718173 0.49800003 6318173
-0.12540276 -0.01171229 0.49775001 6448989
-0.12431419 -0.01171229 0.49775001 6646114
-0.12322561 -0.01171229 0.49775001 6580321
-0.12207571 -0.011706408 0.49750003 6579805
-0.12092687 -0.011700525 0.49725002 6645598
-0.11977914 -0.011694642 0.49700001 6711391
-0.11815488 -0.011641699 0.49475002 6580321
-0.1170137 -0.011635816 0.49450001 6646114
-0.11581501 -0.011624051 0.49400002 6580575
-0.11467658 -0.011618169 0.49375004 6514528
-0.11353924 -0.011612286 0.49350002 6580321
-0.11245997 -0.011612286 0.49350002 6448989
-0.11132425 -0.011606403 0.49325001 6317919
-0.11024553 -0.011606403 0.49325001 6449505
-0.10916679 -0.011606403 0.49325001 6449505
-0.10808806 -0.011606403 0.49325001 6186335
-0.10700934 -0.011606403 0.49325001 6317919
-0.10598429 -0.011612286 0.49350002 6580321
-0.10490501 -0.011612286 0.49350002 6514528
-0.10377314 -0.011606403 0.49325001 6317919
-0.10269441 -0.011606403 0.49325001 6317919
-0.10156417 -0.01160052 0.49300003 6514782
-0.10043503 -0.011594638 0.49275002 6514782
-0.099256575 -0.011582873 0.49225003 6514782
-0.098080307 -0.011571107 0.49175003 6514782
-0.09695553 -0.011565225 0.49150002 6514782
-0.095831864 -0.011559343 0.49125004 6580321
-0.094709285 -0.01155346 0.49100003 6580323
-0.09363547 -0.01155346 0.49100003 6514528
-0.092561655 -0.01155346 0.49100003 6515298
-0.091487847 -0.01155346 0.49100003 6580321
-0.090368003 -0.011547577 0.49075001 6514528
-0.089294739 -0.011547577 0.49075001 6383712
-0.088176526 -0.011541694 0.49050003 6514530
-0.086881839 -0.011512281 0.48925003 6514530
-0.085592613 -0.011482868 0.48800004 6580323
-0.084525362 -0.011482868 0.48800004 6449254
-0.083415352 -0.011476985 0.48775002 6318434
-0.082348652 -0.011476985 0.48775002 6384227
-0.081281945 -0.011476985 0.48775002 6514530
-0.080174133 -0.011471103 0.48750001 6711137
-0.07910797 -0.011471103 0.48750001 6580321
-0.078001797 -0.011465221 0.48725003 6449507
-0.076896712 -0.011459338 0.48700002 6580323
-0.075792722 -0.011453455 0.48675004 6842723
-0.074689828 -0.011447572 0.48650002 6580321
-0.073588014 -0.01144169 0.48625001 6580323
-0.072524592 -0.01144169 0.48625001 6711139
-0.071424432 -0.011435808 0.48600003 6580323
-0.070361562 -0.011435808 0.48600003 6580321
-0.069298677 -0.011435808 0.48600003 6580321
-0.0682007 -0.011429925 0.48575002 6646368
-0.06717293 -0.011435808 0.48600003 6646884
-0.06611006 -0.011435808 0.48600003 6515813
-0.065080635 -0.01144169 0.48625001 6450018
-0.064017214 -0.01144169 0.48625001 6646884
-0.062986158 -0.011447572 0.48650002 6450018
-0.061922193 -0.011447572 0.48650002 6319204
-0.060858216 -0.011447572 0.48650002 6581093
-0.059794251 -0.011447572 0.48650002 6515813
-0.058730282 -0.011447572 0.48650002 6450018
-0.057666313 -0.011447572 0.48650002 6581091
-0.056602344 -0.011447572 0.48650002 6515298
-0.055509832 -0.01144169 0.48625001 6515298
-0.054418419 -0.011435808 0.48600003 6515298
-0.053328093 -0.011429925 0.48575002 6581091
-0.05223887 -0.011424042 0.48550004 6712161
-0.051177084 -0.011424042 0.48550004 6515298
-0.050089497 -0.011418159 0.48525003 6515298
-0.049002998 -0.011412277 0.48500001 6515298
-0.047917601 -0.011406395 0.48475003 6646884
-0.046857458 -0.011406395 0.48475003 6711907
-0.045773696 -0.011400511 0.48450002 6711907
-0.044714097 -0.011400511 0.48450002 6646884
-0.043631978 -0.011394628 0.48425001 6646884
-0.04257293 -0.011394628 0.48425001 6646884
-0.041513883 -0.011394628 0.48425001 6711907
-0.040454835 -0.011394628 0.48425001 6777700
-0.039395783 -0.011394628 0.48425001 6646884
-0.038336735 -0.011394628 0.48425001 6581091
-0.037277687 -0.011394628 0.48425001 6515811
-0.036237337 -0.011400511 0.48450002 6450018
-0.035177741 -0.011400511 0.48450002 6713192
-0.034153357 -0.011412277 0.48500001 6581091
-0.033126783 -0.011424042 0.48550004 6581091
-0.032081511 -0.011429925 0.48575002 6778470
-0.031019181 -0.011429925 0.48575002 6778470
-0.02997227 -0.011435808 0.48600003 6646884
-0.028894523 -0.011429925 0.48575002 6581091
-0.027832193 -0.011429925 0.48575002 6713190
-0.026756089 -0.011424042 0.48550004 6581858
-0.025667844 -0.011412277 0.48500001 6581604
-0.024569103 -0.011394628 0.48425001 6450020
-0.02348578 -0.011382864 0.48375002 6713192
-0.022427825 -0.011382864 0.48375002 6515813
-0.021358825 -0.011376982 0.48350003 6713192
-0.020301418 -0.011376982 0.48350003 6582374
-0.019253958 -0.011382864 0.48375002 6581604
-0.018196004 -0.011382864 0.48375002 6778470
-0.017146906 -0.011388746 0.48400003 6581604
-0.016088404 -0.011388746 0.48400003 6581606
-0.015022137 -0.011382864 0.48375002 6844265
-0.013964183 -0.011382864 0.48375002 6646886
-0.012899558 -0.011376982 0.48350003 6778472
-0.011842149 -0.011376982 0.48350003 6713192
-0.010784741 -0.011376982 0.48350003 6778472
-0.009732361 -0.011382864 0.48375002 6777702
-0.0086744055 -0.011382864 0.48375002 6778470
-0.0076203872 -0.011388746 0.48400003 6713192
-0.0065618856 -0.011388746 0.48400003 6581606
-0.0055033835 -0.011388746 0.48400003 6778219
-0.0044448813 -0.011388746 0.48400003 6844265
-0.0033863795 -0.011388746 0.48400003 6646886
-0.0023278773 -0.011388746 0.48400003 6646884
-0.0012693754 -0.011388746 0.48400003 6909286
-0.00021098235 -0.011394628 0.48425001 6975079
0.00084850419 -0.011400511 0.48450002 7105895
0.0019090843 -0.011406395 0.48475003 6778470
0.0029707577 -0.011412277 0.48500001 6778472
0.0040335245 -0.011418159 0.48525003 7040874
0.0050973855 -0.011424042 0.48550004 6975079
0.0061591682 -0.011424042 0.48550004 7237481
0.0072209504 -0.011424042 0.48550004 6975081
0.0082827331 -0.011424042 0.48550004 6910058
0.0093445154 -0.011424042 0.48550004 6778985
0.01040094 -0.011418159 0.48525003 6713192
0.01145627 -0.011412277 0.48500001 6910058
0.012510507 -0.011406395 0.48475003 7040874
0.013563649 -0.011400511 0.48450002 6844265
0.014623244 -0.011400511 0.48450002 6778985
0.015682841 -0.011400511 0.48450002 6910058
0.016751075 -0.011406395 0.48475003 6975081
0.017820403 -0.011412277 0.48500001 6910058
0.018890824 -0.011418159 0.48525003 6910058
0.019982899 -0.011435808 0.48600003 6844265
0.0210566 -0.01144169 0.48625001 7106414
0.022120023 -0.01144169 0.48625001 6909805
0.023171525 -0.011435808 0.48600003 6844012
0.024221936 -0.011429925 0.48575002 6844012
0.025284264 -0.011429925 0.48575002 7172460
0.026360154 -0.011435808 0.48600003 7040874
0.027408924 -0.011429925 0.48575002 7106667
0.028471252 -0.011429925 0.48575002 7172460
0.029533582 -0.011429925 0.48575002 7303276
0.030595912 -0.011429925 0.48575002 7172207
0.031641945 -0.011424042 0.48550004 7040623
0.032686889 -0.011418159 0.48525003 7172207
0.033748124 -0.011418159 0.48525003 6975851
0.034809362 -0.011418159 0.48525003 7106414
0.035870597 -0.011418159 0.48525003 7369586
0.03695086 -0.011424042 0.48550004 6909805
0.03807136 -0.01144169 0.48625001 7172207
0.039295752 -0.011488751 0.48825002 7172460
0.04042555 -0.011506398 0.48900002 7369839
0.041516203 -0.011512281 0.48925003 7369839
0.042607944 -0.011518164 0.48950002 7238253
0.043700784 -0.011524047 0.48975003 7172460
0.044771861 -0.011524047 0.48975003 7106667
0.045842942 -0.011524047 0.48975003 7172460
0.046914015 -0.011524047 0.48975003 7434605
0.047985096 -0.011524047 0.48975003 7434605
0.049031127 -0.011518164 0.48950002 7500655
0.050076075 -0.011512281 0.48925003 6975851
0.05111992 -0.011506398 0.48900002 7107437
0.052189358 -0.011506398 0.48900002 7238253
0.053558309 -0.011571107 0.49175003 7238251
0.054717083 -0.011588756 0.49250004 7369839
0.055850819 -0.01160052 0.49300003 7435630
0.056986738 -0.011612286 0.49350002 7239023
0.058095437 -0.011618169 0.49375004 7238253
0.059205219 -0.011624051 0.49400002 7238253
0.060316104 -0.011629933 0.49425003 7107435
0.061365962 -0.011624051 0.49400002 7107435
0.062446333 -0.011624051 0.49400002 7238253
0.063494563 -0.011618169 0.49375004 7238253
0.06454169 -0.011612286 0.49350002 7172460
0.065620966 -0.011612286 0.49350002 7107437
0.066700242 -0.011612286 0.49350002 7041644
0.067779526 -0.011612286 0.49350002 6975851
0.068893686 -0.011618169 0.49375004 7238000
0.070008941 -0.011624051 0.49400002 7106667
0.071125284 -0.011629933 0.49425003 7107435
0.072242729 -0.011635816 0.49450001 7435630
0.073361263 -0.011641699 0.49475002 7500653
0.074518509 -0.011653464 0.49525002 7041642
0.075677939 -0.011665229 0.49575001 7107435
0.076916985 -0.01168876 0.49675003 7239023
0.078042626 -0.011694642 0.49700001 7107437
0.079169363 -0.011700525 0.49725002 7239023
0.080256835 -0.011700525 0.49725002 7304814
0.081344321 -0.011700525 0.49725002 7107435
0.082431801 -0.011700525 0.49725002 7238251
0.083561271 -0.011706408 0.49750003 7369837
0.084649295 -0.011706408 0.49750003 7369839
0.085952744 -0.011735821 0.49875003 7369586
0.087130763 -0.011747586 0.49925002 7500655
0.088266797 -0.011753469 0.49950004 7369069
0.089448638 -0.011765233 0.5 7369839
0.090587407 -0.011771116 0.50025004 7369837
0.091681458 -0.011771116 0.50025004 7239021
0.092821851 -0.011776999 0.50050002 7500653
0.093916439 -0.011776999 0.50050002 7566189
0.095058478 -0.011782881 0.50075001 7369067
0.096249633 -0.011794647 0.50125003 7303528
0.09744297 -0.011806413 0.50175005 7500907
0.098638475 -0.011818177 0.50225002 7238505
0.099836186 -0.011829943 0.50275004 7238505
0.10098588 -0.011835825 0.50300002 7370091
0.10213667 -0.011841707 0.50325 7238251
0.10328857 -0.011847591 0.50350004 7040872
0.10438971 -0.011847591 0.50350004 7172458
0.10554324 -0.011853473 0.50375003 7040872
0.10669786 -0.011859355 0.50400001 7106667
0.10785358 -0.011865239 0.50425005 7172460
0.10955057 -0.011929947 0.50700003 7040874
0.11071394 -0.011935829 0.50725001 7040872
0.11187841 -0.011941713 0.50750005 7040872
0.11315527 -0.01195936 0.50825 7106665
0.11466026 -0.012000539 0.51000005 6909286
0.11588912 -0.012012304 0.51050001 6975849
0.11706287 -0.012018186 0.51075 6713192
0.11823773 -0.012024069 0.51100004 6910058
0.11941367 -0.012029951 0.51125002 6975081
0.12053178 -0.012029951 0.51125002 6778472
0.12176885 -0.012041717 0.51175004 6581604
0.12294807 -0.012047599 0.51200002 6516065
0.12424954 -0.012065248 0.51275003 6515552
0.12549318 -0.012077013 0.51325005 6448219
0.126739 -0.012088777 0.51375002 6447965
0.12792477 -0.01209466 0.514 6120024
0.12904888 -0.01209466 0.514 5856852
0.13023633 -0.012100543 0.51425004 5725014
0.13136098 -0.012100543 0.51425004 5593426
0.13248563 -0.012100543 0.51425004 5724496
0.13361029 -0.012100543 0.51425004 5527117
0.13473494 -0.012100543 0.51425004 5067082
0.13579355 -0.01209466 0.514 4803910
0.13691765 -0.01209466 0.514 4934980
0.13797465 -0.012088777 0.51375002 4869187
0.13909821 -0.012088777 0.51375002 4803394
0.14022177 -0.012088777 0.51375002 4737347
0.14127655 -0.012082895 0.51350003 4539968
0.14184494 -0.012035834 0.5115 4671303
0.14289372 -0.012029951 0.51125002 5987416
0.14401181 -0.012029951 0.51125002 6448735
-0.17622791 -0.010736615 0.50300002 6252639
-0.1739413 -0.01073128 0.50275004 5067854
-0.1728418 -0.01073128 0.50275004 4409924
-0.17191309 -0.010741951 0.50325 4475715
-0.17157617 -0.010789978 0.50550002 4606531
-0.1709765 -0.010821996 0.50700003 4803142
-0.17037028 -0.010854014 0.50850004 4934471
-0.16942461 -0.010864686 0.509 5790032
-0.16847679 -0.010875359 0.50950003 7632234
-0.16752675 -0.010886032 0.51000005 7699056
-0.16649295 -0.010891368 0.51025003 6450020
-0.16545807 -0.010896704 0.51050001 6186335
-0.16434161 -0.010896704 0.51050001 6119770
-0.16314523 -0.010891368 0.51025003 6053977
-0.16194995 -0.010886032 0.51000005 5790807
-0.16059805 -0.010870024 0.50925004 5987416
-0.15940602 -0.010864686 0.509 6250588
-0.15821509 -0.01085935 0.50875002 6317149
-0.15694806 -0.010848677 0.50825 6120540
-0.15583652 -0.010848677 0.50825 6251358
-0.15464889 -0.010843341 0.50800002 6382174
-0.15346235 -0.010838006 0.50775003 6645344
-0.15205185 -0.010816661 0.50675005 6646368
-0.15072021 -0.010800651 0.50600004 6711907
-0.14953965 -0.010795314 0.50575 6646114
-0.14836021 -0.010789978 0.50550002 6646114
-0.14718187 -0.010784643 0.50525004 6776930
-0.1460046 -0.010779305 0.505 6646114
-0.14439805 -0.010741951 0.50325 6711907
-0.1430127 -0.010720607 0.50225002 6908516
-0.14184366 -0.01071527 0.50200003 6908516
-0.14053552 -0.010699262 0.50125003 6908516
-0.1393002 -0.010688589 0.50075001 6908516
-0.13813606 -0.010683252 0.50050002 6580573
-0.13697302 -0.010677917 0.50025004 6776925
-0.13587898 -0.010677917 0.50025004 6842720
-0.13545853 -0.01073128 0.50275004 6776930
-0.13435902 -0.01073128 0.50275004 6580323
-0.13319324 -0.010725942 0.5025 6448735
-0.13202856 -0.010720607 0.50225002 6711391
-0.12995258 -0.010640563 0.49850002 6645598
-0.12873311 -0.01062989 0.49800003 6448219
-0.1275799 -0.010624553 0.49775001 6448735
-0.12649132 -0.010624553 0.49775001 6645344
-0.12533978 -0.010619218 0.49750003 6711137
-0.12425175 -0.010619218 0.49750003 6579551
-0.12316373 -0.010619218 0.49750003 6646368
-0.12201436 -0.010613881 0.49725002 6383966
-0.12086608 -0.010608545 0.49700001 6449505
-0.11965864 -0.010597872 0.49650002 6383712
-0.11815488 -0.010560518 0.49475002 6580321
-0.11695455 -0.010549845 0.49425003 6645598
-0.11581501 -0.010544509 0.49400002 6711391
-0.11467658 -0.010539173 0.49375004 6448989
-0.11348172 -0.0105285 0.49325001 6514528
-0.11234602 -0.010523164 0.49300003 6646114
-0.11126783 -0.010523164 0.49300003 6318173
-0.11013377 -0.010517827 0.49275002 6514528
-0.10905613 -0.010517827 0.49275002 6514528
-0.1079785 -0.010517827 0.49275002 6580321
-0.1069551 -0.010523164 0.49300003 6448735
-0.10587691 -0.010523164 0.49300003 6449505
-0.10485186 -0.0105285 0.49325001 6449505
-0.10377314 -0.0105285 0.49325001 6514528
-0.10264236 -0.010523164 0.49300003 6448735
-0.10151266 -0.010517827 0.49275002 6449505
-0.10038408 -0.010512492 0.49250004 6317919
-0.099206164 -0.010501819 0.49200001 6317921
-0.098030441 -0.010491146 0.49150002 6383712
-0.0968569 -0.010480474 0.49100003 6318432
-0.095783092 -0.010480474 0.49100003 6449505
-0.094661057 -0.010475137 0.49075001 6580321
-0.093587793 -0.010475137 0.49075001 6711137
-0.092514522 -0.010475137 0.49075001 6645344
-0.091441266 -0.010475137 0.49075001 6580321
-0.090368003 -0.010475137 0.49075001 6449759
-0.089294739 -0.010475137 0.49075001 6514528
-0.088221468 -0.010475137 0.49075001 6646116
-0.087103814 -0.010469801 0.49050003 6580323
-0.085592613 -0.010416439 0.48800004 6383714
-0.084482059 -0.010411101 0.48775002 6449507
-0.083415352 -0.010411101 0.48775002 6580323
-0.082306437 -0.010405765 0.48750001 6646116
-0.081240281 -0.010405765 0.48750001 6580070
-0.080174133 -0.010405765 0.48750001 6514530
-0.079067402 -0.010400429 0.48725003 6646114
-0.077961773 -0.010395093 0.48700002 6580321
-0.076857239 -0.010389757 0.48675004 6580323
-0.075753793 -0.010384421 0.48650002 6776932
-0.074651442 -0.010379083 0.48625001 6580323
-0.073550187 -0.010373748 0.48600003 6580323
-0.072450019 -0.010368411 0.48575002 6514528
-0.071387693 -0.010368411 0.48575002 6646114
-0.070289172 -0.010363076 0.48550004 6383714
-0.069227383 -0.010363076 0.48550004 6515298
-0.068165608 -0.010363076 0.48550004 6712161
-0.067103826 -0.010363076 0.48550004 6646114
-0.066042043 -0.010363076 0.48550004 6646114
-0.064980254 -0.010363076 0.48550004 6515298
-0.063951388 -0.010368411 0.48575002 6515298
-0.062921427 -0.010373748 0.48600003 6450018
-0.061890371 -0.010379083 0.48625001 6384225
-0.060826942 -0.010379083 0.48625001 6581091
-0.059763521 -0.010379083 0.48625001 6515298
-0.0587001 -0.010379083 0.48625001 6581093
-0.057636678 -0.010379083 0.48625001 6842725
-0.05654417 -0.010373748 0.48600003 6842725
-0.055452753 -0.010368411 0.48575002 6711909
-0.054362435 -0.010363076 0.48550004 6515300
-0.053300649 -0.010363076 0.48550004 6581091
-0.052211966 -0.010357739 0.48525003 6581345
-0.051150732 -0.010357739 0.48525003 6515552
-0.050063688 -0.010352402 0.48500001 6581345
-0.049002998 -0.010352402 0.48500001 6646884
-0.047917601 -0.010347066 0.48475003 6646886
-0.046833288 -0.01034173 0.48450002 6515300
-0.045750074 -0.010336393 0.48425001 6581091
-0.044691026 -0.010336393 0.48425001 6646884
-0.043631978 -0.010336393 0.48425001 6581091
-0.042550955 -0.010331058 0.48400003 6778472
-0.041492451 -0.010331058 0.48400003 6581091
-0.040433951 -0.010331058 0.48400003 6777700
-0.039375447 -0.010331058 0.48400003 6581093
-0.038316946 -0.010331058 0.48400003 6646886
-0.037258442 -0.010331058 0.48400003 6581091
-0.036218639 -0.010336393 0.48425001 6711909
-0.035159588 -0.010336393 0.48425001 6777702
-0.034118146 -0.01034173 0.48450002 6646886
-0.033109725 -0.010357739 0.48525003 6646884
-0.032081511 -0.010368411 0.48575002 6581604
-0.031019181 -0.010368411 0.48575002 6450272
-0.029956853 -0.010368411 0.48575002 6581604
-0.028894523 -0.010368411 0.48575002 6581091
-0.027817871 -0.010363076 0.48550004 6844263
-0.026742311 -0.010357739 0.48525003 6581091
-0.025628151 -0.010336393 0.48425001 6646884
-0.024531052 -0.010320385 0.48350003 6581093
-0.023461506 -0.010315049 0.48325002 6646886
-0.022404643 -0.010315049 0.48325002 6646633
-0.021347782 -0.010315049 0.48325002 6581606
-0.020290921 -0.010315049 0.48325002 6515813
-0.01924401 -0.010320385 0.48350003 6646886
-0.018186601 -0.010320385 0.48350003 6777700
-0.017138047 -0.010325721 0.48375002 6909540
-0.016080093 -0.010325721 0.48375002 6909540
-0.015022137 -0.010325721 0.48375002 6909286
-0.013956966 -0.010320385 0.48350003 6909286
-0.012892887 -0.010315049 0.48325002 6778470
-0.011836026 -0.010315049 0.48325002 6581091
-0.010779164 -0.010315049 0.48325002 6778472
-0.0097273318 -0.010320385 0.48350003 6646886
-0.0086744055 -0.010325721 0.48375002 6713192
-0.0076203872 -0.010331058 0.48400003 6910058
-0.0065618856 -0.010331058 0.48400003 6646886
-0.0055062259 -0.010336393 0.48425001 6646886
-0.0044448813 -0.010331058 0.48400003 6778472
-0.0033863795 -0.010331058 0.48400003 6646886
-0.0023278773 -0.010331058 0.48400003 6975081
-0.0012693754 -0.010331058 0.48400003 6975081
-0.00021087345 -0.010331058 0.48400003 6777700
0.00084806635 -0.010336393 0.48425001 6778472
0.0019080997 -0.01034173 0.48450002 6844263
0.0029692263 -0.010347066 0.48475003 6844263
0.0040314468 -0.010352402 0.48500001 6910310
0.0050921356 -0.010352402 0.48500001 6975333
0.0061559961 -0.010357739 0.48525003 7106665
0.0072172321 -0.010357739 0.48525003 6844263
0.0082784677 -0.010357739 0.48525003 6778985
0.0093348911 -0.010352402 0.48500001 6844265
0.010395581 -0.010352402 0.48500001 6910058
0.011444459 -0.01034173 0.48450002 6844265
0.012497602 -0.010336393 0.48425001 6910058
0.013549652 -0.010331058 0.48400003 6975851
0.014608154 -0.010331058 0.48400003 6910058
0.015666656 -0.010331058 0.48400003 6778472
0.016733795 -0.010336393 0.48425001 6975851
0.017802032 -0.01034173 0.48450002 7041644
0.01887136 -0.010347066 0.48475003 6975851
0.019941781 -0.010352402 0.48500001 6910318
0.021024123 -0.010363076 0.48550004 6975598
0.022074532 -0.010357739 0.48525003 6975598
0.023123847 -0.010352402 0.48500001 7107437
0.024172071 -0.010347066 0.48475003 7172460
0.025245225 -0.010352402 0.48500001 7106414
0.026333036 -0.010363076 0.48550004 6975851
0.027394818 -0.010363076 0.48550004 7041644
0.0284566 -0.010363076 0.48550004 6975598
0.029518383 -0.010363076 0.48550004 7106414
0.030564418 -0.010357739 0.48525003 7106414
0.031609356 -0.010352402 0.48500001 7172209
0.032653209 -0.010347066 0.48475003 7041393
0.033713348 -0.010347066 0.48475003 7041904
0.034773495 -0.010347066 0.48475003 7107437
0.035852112 -0.010352402 0.48500001 6976364
0.036931831 -0.010357739 0.48525003 6779502
0.038012642 -0.010363076 0.48550004 6976364
0.039114665 -0.010373748 0.48600003 7042155
0.040239543 -0.010389757 0.48675004 6910571
0.041367702 -0.010405765 0.48750001 7042157
0.042564422 -0.010437783 0.48900002 7106667
0.04365617 -0.010443119 0.48925003 7172460
0.044749007 -0.010448456 0.48950002 7238253
0.04581954 -0.010448456 0.48950002 7238253
0.046890065 -0.010448456 0.48950002 7238253
0.047960598 -0.010448456 0.48950002 7172460
0.04900609 -0.010443119 0.48925003 7041642
0.050050486 -0.010437783 0.48900002 7239021
0.051093783 -0.010432446 0.48875001 7172460
0.052135997 -0.010427111 0.48850003 7238253
0.053204335 -0.010427111 0.48850003 7369067
0.05449488 -0.010469801 0.49050003 7566446
0.055595919 -0.010475137 0.49075001 7632239
0.056611445 -0.010464464 0.49025002 7303274
0.057654202 -0.010459128 0.49000001 7238251
0.058725823 -0.010459128 0.49000001 7107435
0.059797447 -0.010459128 0.49000001 7238253
0.060931183 -0.010469801 0.49050003 7239023
0.062351525 -0.0105285 0.49325001 6976364
0.063430265 -0.0105285 0.49325001 7239023
0.064476296 -0.010523164 0.49300003 7107437
0.065554485 -0.010523164 0.49300003 7041644
0.066632666 -0.010523164 0.49300003 6976364
0.067745186 -0.0105285 0.49325001 6976111
0.068858802 -0.010533837 0.49350002 7107184
0.069973513 -0.010539173 0.49375004 7041644
0.071089305 -0.010544509 0.49400002 7041644
0.072206207 -0.010549845 0.49425003 7369837
0.073361263 -0.010560518 0.49475002 7566446
0.074480891 -0.010565855 0.49500003 7500653
0.075639777 -0.010576527 0.49550003 7107435
0.076839566 -0.010592536 0.49625003 7107435
0.078003369 -0.010603208 0.49675003 7172458
0.079129554 -0.010608545 0.49700001 7238253
0.080216482 -0.010608545 0.49700001 7238253
0.081303425 -0.010608545 0.49700001 7239021
0.082390353 -0.010608545 0.49700001 7107435
0.083477288 -0.010608545 0.49700001 7107435
0.084564216 -0.010608545 0.49700001 7239021
0.085737325 -0.010619218 0.49750003 7435632
0.087043509 -0.010645899 0.49875003 7500653
0.088178441 -0.010651235 0.49900001 7238251
0.089359194 -0.010661907 0.49950004 7369839
0.09049686 -0.010667244 0.49975002 7369837
0.09163563 -0.01067258 0.5 7435884
0.092775494 -0.010677917 0.50025004 7566700
0.093916439 -0.010683252 0.50050002 7369321
0.095058478 -0.010688589 0.50075001 7369837
0.096201636 -0.010693925 0.50100005 7238505
0.097394407 -0.010704597 0.50150001 7303528
0.098589383 -0.01071527 0.50200003 7369321
0.099786527 -0.010725942 0.5025 7237735
0.1009357 -0.01073128 0.50275004 7500907
0.1020352 -0.01073128 0.50275004 7369321
0.10318599 -0.010736615 0.50300002 7172458
0.10433787 -0.010741951 0.50325 6975079
0.10549086 -0.010747288 0.50350004 7303274
0.10664494 -0.010752625 0.50375003 7172460
0.1078001 -0.01075796 0.50400001 7172207
0.10949656 -0.010816661 0.50675005 7106414
0.11065938 -0.010821996 0.50700003 6844265
0.11182329 -0.010827332 0.50725001 7040874
0.1129883 -0.010832669 0.50750005 7237483
0.11443542 -0.010864686 0.509 7369067
0.11588912 -0.010896704 0.51050001 6910058
0.11706287 -0.01090204 0.51075 6910058
0.11817988 -0.01090204 0.51075 7106667
0.11935528 -0.010907377 0.51100004 7040874
0.12047284 -0.010907377 0.51100004 6975079
0.12164987 -0.010912713 0.51125002 6711907
0.12282799 -0.010918049 0.5115 6778470
0.12400723 -0.010923386 0.51175004 6646368
0.12518753 -0.010928722 0.51200002 6711391
0.12661566 -0.010955404 0.51325005 6185563
0.12786256 -0.010966076 0.51375002 6054999
0.12904888 -0.010971412 0.514 6120022
0.130173 -0.010971412 0.514 5988184
0.13129711 -0.010971412 0.514 5987414
0.13248563 -0.010976749 0.51425004 5855825
0.13361029 -0.010976749 0.51425004 5724237
0.13473494 -0.010976749 0.51425004 5526863
0.13585961 -0.010976749 0.51425004 4935498
0.13691765 -0.010971412 0.514 4803140
0.13804178 -0.010971412 0.514 4672324
0.13916589 -0.010971412 0.514 4672324
0.14022177 -0.010966076 0.51375002 4606533
0.14134534 -0.010966076 0.51375002 4278338
0.14233024 -0.010955404 0.51325005 4409152
0.14303347 -0.010923386 0.51175004 4737347
0.14408222 -0.010918049 0.5115 6119000
0.1451299 -0.010912713 0.51125002 6383712
-0.17723984 -0.0096326163 0.50275004 6382174
-0.17622791 -0.0096374061 0.50300002 6776930
-0.1752149 -0.009642195 0.50325 5067854
-0.17411429 -0.009642195 0.50325 4541257
-0.17318559 -0.0096517755 0.50375003 4475717
-0.1726817 -0.0096853049 0.50550002 4671808
-0.17191559 -0.009704465 0.50650001 4933701
-0.17122944 -0.0097284149 0.50775003 5196620
-0.17045404 -0.009747575 0.50875002 5920596
-0.16942461 -0.0097523648 0.509 7303271
-0.16847679 -0.0097619453 0.50950003 7501677
-0.16744462 -0.0097667342 0.50975001 6515298
-0.16641138 -0.0097715249 0.51000005 6251358
-0.16537705 -0.0097763147 0.51025003 6447962
-0.16418067 -0.0097715249 0.51000005 6119254
-0.1630653 -0.0097715249 0.51000005 5856600
-0.16179116 -0.0097619453 0.50950003 5987414
-0.16059805 -0.0097571556 0.50925004 6119002
-0.15932775 -0.009747575 0.50875002 6185563
-0.1580596 -0.0097379945 0.50825 6120540
-0.15687087 -0.0097332047 0.50800002 6448989
-0.15568323 -0.0097284149 0.50775003 6448219
-0.15449668 -0.0097236261 0.50750005 6645089
-0.15323566 -0.0097140456 0.50700003 6776673
-0.15190183 -0.0096996753 0.50625002 6580575
-0.15064572 -0.0096900947 0.50575 6711391
-0.14946574 -0.0096853049 0.50550002 6711907
-0.14828683 -0.0096805161 0.50525004 6646884
-0.14710903 -0.0096757254 0.505 6646114
-0.14528181 -0.0096278256 0.5025 6908516
-0.14396766 -0.0096134562 0.50175005 6908770
-0.14272797 -0.0096038766 0.50125003 7040356
-0.14156111 -0.0095990868 0.50100005 7040102
-0.14039533 -0.0095942961 0.50075001 6646116
-0.13916111 -0.0095847165 0.50025004 6646116
-0.13806707 -0.0095847165 0.50025004 6579551
-0.13690455 -0.0095799258 0.5 6842720
-0.13581106 -0.0095799258 0.5 6776927
-0.13471757 -0.0095799258 0.5 6711137
-0.13409178 -0.0096134562 0.50175005 6646116
-0.13306072 -0.009618246 0.50200003 6645346
-0.13110851 -0.0095559768 0.49875003 6514528
-0.12975706 -0.0095368167 0.49775001 6645598
-0.12860386 -0.0095320269 0.49750003 6711391
-0.12751582 -0.0095320269 0.49750003 6711391
-0.12636428 -0.0095272362 0.49725002 6711137
-0.12527679 -0.0095272362 0.49725002 6711139
-0.12418931 -0.0095272362 0.49725002 6646114
-0.12303994 -0.0095224464 0.49700001 6646114
-0.12189167 -0.0095176566 0.49675003 6383712
-0.12074447 -0.0095128668 0.49650002 6383712
-0.11953814 -0.0095032873 0.49600002 6514528
-0.11821458 -0.0094841272 0.49500003 6646368
-0.11695455 -0.0094697569 0.49425003 6646366
-0.11581501 -0.0094649671 0.49400002 6645598
-0.11461852 -0.0094553875 0.49350002 6777184
-0.11348172 -0.0094505968 0.49325001 6645598
-0.11228905 -0.0094410172 0.49275002 6645598
-0.1112114 -0.0094410172 0.49275002 6580575
-0.1100779 -0.0094362274 0.49250004 6317921
-0.10900081 -0.0094362274 0.49250004 6317921
-0.10792372 -0.0094362274 0.49250004 6514530
-0.10684663 -0.0094362274 0.49250004 6514528
-0.10582322 -0.0094410172 0.49275002 6448989
-0.10474558 -0.0094410172 0.49275002 6514528
-0.10366794 -0.0094410172 0.49275002 6514530
-0.10259031 -0.0094410172 0.49275002 6580323
-0.10151266 -0.0094410172 0.49275002 6383714
-0.10033312 -0.0094314376 0.49225003 6317921
-0.099105343 -0.0094170673 0.49150002 6646116
-0.097930714 -0.0094074877 0.49100003 6514528
-0.096807584 -0.0094026979 0.49075001 6383712
-0.095685557 -0.0093979081 0.49050003 6383712
-0.094612837 -0.0093979081 0.49050003 6711907
-0.093540125 -0.0093979081 0.49050003 6580321
-0.092514522 -0.0094026979 0.49075001 6842723
-0.091441266 -0.0094026979 0.49075001 6580321
-0.090368003 -0.0094026979 0.49075001 6449507
-0.089294739 -0.0094026979 0.49075001 6515300
-0.088176526 -0.0093979081 0.49050003 6449507
-0.087103814 -0.0093979081 0.49050003 6514530
-0.085592613 -0.0093500083 0.48800004 6580323
-0.084482059 -0.0093452176 0.48775002 6580323
-0.083372593 -0.0093404278 0.48750001 6580323
-0.082306437 -0.0093404278 0.48750001 6580323
-0.081198625 -0.009335638 0.48725003 6580321
-0.080133021 -0.009335638 0.48725003 6646114
-0.079026833 -0.0093308482 0.48700002 6514528
-0.077961773 -0.0093308482 0.48700002 6776930
-0.076857239 -0.0093260584 0.48675004 6711137
-0.075753793 -0.0093212686 0.48650002 6449507
-0.074613065 -0.0093116881 0.48600003 6449507
-0.073512346 -0.0093068983 0.48575002 6449507
-0.072412737 -0.0093021085 0.48550004 6580321
-0.071314208 -0.0092973188 0.48525003 6580321
-0.070252977 -0.0092973188 0.48525003 6646114
-0.069191739 -0.0092973188 0.48525003 6711137
-0.068130501 -0.0092973188 0.48525003 6646114
-0.06706927 -0.0092973188 0.48525003 6646114
-0.066008031 -0.0092973188 0.48525003 6711907
-0.064913332 -0.009292528 0.48500001 6776930
-0.063852645 -0.009292528 0.48500001 6908516
-0.062824324 -0.0092973188 0.48525003 6581091
-0.061794914 -0.0093021085 0.48550004 6581091
-0.060764398 -0.0093068983 0.48575002 6581091
-0.059702069 -0.0093068983 0.48575002 6581091
-0.058639742 -0.0093068983 0.48575002 6646116
-0.057577413 -0.0093068983 0.48575002 6711909
-0.056515083 -0.0093068983 0.48575002 6712161
-0.055424213 -0.0093021085 0.48550004 6646114
-0.054306444 -0.009292528 0.48500001 6646116
-0.053245753 -0.009292528 0.48500001 6581093
-0.052185066 -0.009292528 0.48500001 6515298
-0.051124375 -0.009292528 0.48500001 6712161
-0.050037887 -0.0092877382 0.48475003 6712161
-0.04897774 -0.0092877382 0.48475003 6515298
-0.047892887 -0.0092829484 0.48450002 6515811
-0.046809122 -0.0092781587 0.48425001 6581604
-0.045750074 -0.0092781587 0.48425001 6581091
-0.044667955 -0.0092733689 0.48400003 6909286
-0.043609455 -0.0092733689 0.48400003 6646884
-0.042550955 -0.0092733689 0.48400003 6778724
-0.041492451 -0.0092733689 0.48400003 6711907
-0.040433951 -0.0092733689 0.48400003 6711907
-0.039375447 -0.0092733689 0.48400003 6646884
-0.038316946 -0.0092733689 0.48400003 6581091
-0.037258442 -0.0092733689 0.48400003 6646884
-0.036199942 -0.0092733689 0.48400003 6778470
-0.035123285 -0.0092685781 0.48375002 6581093
-0.03404773 -0.0092637893 0.48350003 6646886
-0.03297326 -0.0092589986 0.48325002 6778470
-0.032065004 -0.0093021085 0.48550004 6581091
-0.031019181 -0.0093068983 0.48575002 6647138
-0.029956853 -0.0093068983 0.48575002 6777700
-0.028894523 -0.0093068983 0.48575002 6711909
-0.027817871 -0.0093021085 0.48550004 6646886
-0.026687201 -0.0092781587 0.48425001 6713190
-0.025561998 -0.0092542088 0.48300001 6713190
-0.024505682 -0.0092542088 0.48300001 6515813
-0.02343723 -0.009249419 0.48275003 6581606
-0.022381462 -0.009249419 0.48275003 6646884
-0.021325694 -0.009249419 0.48275003 6778472
-0.020280423 -0.0092542088 0.48300001 6581093
-0.019234058 -0.0092589986 0.48325002 6778470
-0.018177196 -0.0092589986 0.48325002 6777700
-0.017129192 -0.0092637893 0.48350003 6909286
-0.016071783 -0.0092637893 0.48350003 6777700
-0.015006611 -0.0092589986 0.48325002 6909286
-0.013942532 -0.0092542088 0.48300001 6778470
-0.012886217 -0.0092542088 0.48300001 6909288
-0.011829902 -0.0092542088 0.48300001 6778472
-0.010773587 -0.0092542088 0.48300001 6713192
-0.0097223017 -0.0092589986 0.48325002 6778985
-0.0086699231 -0.0092637893 0.48350003 6646884
-0.0076203872 -0.0092733689 0.48400003 6975079
-0.0065618856 -0.0092733689 0.48400003 6844263
-0.0055062259 -0.0092781587 0.48425001 6778983
-0.0044448813 -0.0092733689 0.48400003 6713190
-0.0033863795 -0.0092733689 0.48400003 6647138
-0.0023278773 -0.0092733689 0.48400003 6778724
-0.0012693754 -0.0092733689 0.48400003 6647138
-0.00021087345 -0.0092733689 0.48400003 6975851
0.00084762857 -0.0092733689 0.48400003 6713192
0.0019061306 -0.0092733689 0.48400003 6713192
0.0029661637 -0.0092781587 0.48425001 6844263
0.0040272903 -0.0092829484 0.48450002 6646886
0.0050895112 -0.0092877382 0.48475003 6844265
0.0061496533 -0.0092877382 0.48475003 6844265
0.0072097955 -0.0092877382 0.48475003 6778472
0.0082699377 -0.0092877382 0.48475003 6844778
0.0093300799 -0.0092877382 0.48475003 6582376
0.010384863 -0.0092829484 0.48450002 6778985
0.011438553 -0.0092781587 0.48425001 6910058
0.012484699 -0.0092685781 0.48375002 6910058
0.013535654 -0.0092637893 0.48350003 7040872
0.014585517 -0.0092589986 0.48325002 7172458
0.015642378 -0.0092589986 0.48325002 6910058
0.01670788 -0.0092637893 0.48350003 6910058
0.017765289 -0.0092637893 0.48350003 7172460
0.018774034 -0.0092398394 0.48225003 6910058
0.019828709 -0.0092398394 0.48225003 6975598
0.020883385 -0.0092398394 0.48225003 6909805
0.021983549 -0.0092589986 0.48325002 6778732
0.02306425 -0.0092685781 0.48375002 7107184
0.024134671 -0.0092733689 0.48400003 6910058
0.0252192 -0.0092829484 0.48450002 6976111
0.026292356 -0.0092877382 0.48475003 6976364
0.027366603 -0.009292528 0.48500001 6976364
0.028427292 -0.009292528 0.48500001 7107184
0.029487982 -0.009292528 0.48500001 7107437
0.030532924 -0.0092877382 0.48475003 7041391
0.031576771 -0.0092829484 0.48450002 7041393
0.032636367 -0.0092829484 0.48450002 6975598
0.033695962 -0.0092829484 0.48450002 7107437
0.034755558 -0.0092829484 0.48450002 7041642
0.035833634 -0.0092877382 0.48475003 7239023
0.036912803 -0.009292528 0.48500001 6976364
0.037993066 -0.0092973188 0.48525003 7042157
0.039094545 -0.0093068983 0.48575002 7042157
0.040198207 -0.0093164779 0.48625001 7042157
0.041304063 -0.0093260584 0.48675004 7107184
0.04247738 -0.0093500083 0.48800004 7238253
0.043611553 -0.0093643777 0.48875001 7239023
0.044726152 -0.0093739582 0.48925003 7239023
0.045796137 -0.0093739582 0.48925003 7369839
0.046866119 -0.0093739582 0.48925003 7238253
0.047936104 -0.0093739582 0.48925003 7239023
0.048981044 -0.0093691675 0.48900002 7239023
0.050024893 -0.0093643777 0.48875001 7239023
0.05106765 -0.0093595879 0.48850003 7172207
0.052109312 -0.0093547981 0.48825002 7435379
0.053177107 -0.0093547981 0.48825002 7501425
0.054244902 -0.0093547981 0.48825002 7239023
0.055397667 -0.0093691675 0.48900002 7369839
0.056524839 -0.009378748 0.48950002 7369839
0.057595372 -0.009378748 0.48950002 7239023
0.058665901 -0.009378748 0.48950002 7305329
0.059736431 -0.009378748 0.48950002 7107437
0.06080696 -0.009378748 0.48950002 7239023
0.061909094 -0.0093835378 0.48975003 7042157
0.063365966 -0.0094410172 0.49275002 6976364
0.064443603 -0.0094410172 0.49275002 7107437
0.06552124 -0.0094410172 0.49275002 7369069
0.06659887 -0.0094410172 0.49275002 7172460
0.067676514 -0.0094410172 0.49275002 7173743
0.068789035 -0.009445807 0.49300003 7107437
0.069938079 -0.0094553875 0.49350002 6975851
0.071089305 -0.0094649671 0.49400002 6976364
0.072206207 -0.0094697569 0.49425003 6975849
0.073324196 -0.0094745466 0.49450001 7369067
0.074443273 -0.0094793374 0.49475002 7369837
0.075601615 -0.009488917 0.49525002 7238251
0.076800853 -0.0095032873 0.49600002 7172458
0.077964112 -0.0095128668 0.49650002 7172458
0.079049945 -0.0095128668 0.49650002 7369837
0.080176137 -0.0095176566 0.49675003 7304814
0.081262529 -0.0095176566 0.49675003 7173741
0.082348913 -0.0095176566 0.49675003 7173741
0.083435297 -0.0095176566 0.49675003 7239536
0.084564216 -0.0095224464 0.49700001 7173743
0.085737325 -0.0095320269 0.49750003 7040872
0.086956248 -0.0095463963 0.49825004 7106919
0.088134266 -0.0095559768 0.49875003 7435630
0.089269742 -0.0095607666 0.49900001 7172458
0.090406321 -0.0095655564 0.49925002 7239021
0.091544002 -0.0095703462 0.49950004 7369837
0.092682764 -0.009575136 0.49975002 7500907
0.093822613 -0.0095799258 0.5 7238505
0.095011026 -0.0095895063 0.50050002 7239021
0.096201636 -0.0095990868 0.50100005 7500653
0.097345859 -0.0096038766 0.50125003 7500653
0.098540284 -0.0096134562 0.50175005 7238251
0.099687248 -0.009618246 0.50200003 7172458
0.10083531 -0.0096230358 0.50225002 7238251
0.10198446 -0.0096278256 0.5025 7369064
0.10313471 -0.0096326163 0.50275004 7566443
0.10428604 -0.0096374061 0.50300002 7041896
0.10543848 -0.009642195 0.50325 7106919
0.10659201 -0.0096469857 0.50350004 7040872
0.10774663 -0.0096517755 0.50375003 7237483
0.10906439 -0.0096709356 0.50475001 7106665
0.11060482 -0.0097092558 0.50675005 7172458
0.11176818 -0.0097140456 0.50700003 7237226
0.11287698 -0.0097140456 0.50700003 7237483
0.11404198 -0.0097188354 0.50725001 7106667
0.11560537 -0.0097571556 0.50925004 6975079
0.11700558 -0.0097811045 0.51050001 7105895
0.11817988 -0.0097858943 0.51075 6975079
0.11929688 -0.0097858943 0.51075 7040874
0.12047284 -0.009790685 0.51100004 6975081
0.12159038 -0.009790685 0.51100004 6908516
0.12270793 -0.009790685 0.51100004 7040104
0.12364374 -0.0097763147 0.51025003 6777700
0.12475965 -0.0097763147 0.51025003 6777702
0.12606059 -0.009790685 0.51100004 6580321
0.12773812 -0.009833795 0.51325005 6382426
0.12898612 -0.0098433737 0.51375002 6316379
0.13010968 -0.0098433737 0.51375002 6184793
0.13129711 -0.0098481635 0.514 6119254
0.13242121 -0.0098481635 0.514 5856082
0.13361029 -0.0098529542 0.51425004 5724494
0.13473494 -0.0098529542 0.51425004 5396047
0.13585961 -0.0098529542 0.51425004 5264463
0.13698426 -0.0098529542 0.51425004 5197900
0.13810894 -0.0098529542 0.51425004 4738117
0.13916589 -0.0098481635 0.514 4738119
0.14029001 -0.0098481635 0.514 4672073
0.14134534 -0.0098433737 0.51375002 4671303
0.14239958 -0.0098385848 0.51350003 4737347
0.14331296 -0.0098242145 0.51275003 4605504
