# .PCD v0.7 - Point Cloud Data file format
VERSION 0.7
FIELDS x y z rgb
SIZE 4 4 4 4
TYPE F F F U
COUNT 1 1 1 1
WIDTH 1090
HEIGHT 1
VIEWPOINT 0 0 0 1 0 0 0
POINTS 1090
DATA ascii
-0.20651497 0.0057372353 0.50175005 6382172
-0.20531528 0.0057343761 0.50150001 6316379
-0.2041167 0.0057315179 0.50125003 6316379
-0.20291923 0.0057286592 0.50100005 6381915
-0.20172283 0.0057258005 0.50075001 6316379
-0.20052752 0.0057229418 0.50050002 6250586
-0.19933333 0.0057200836 0.50025004 6316633
-0.19804114 0.0057143662 0.49975002 6381915
-0.19675115 0.0057086488 0.49925002 6184536
-0.19536537 0.0057000732 0.49850002 6316376
-0.19408029 0.0056943558 0.49800003 6250840
-0.19279742 0.0056886389 0.49750003 6185563
-0.19142038 0.0056800628 0.49675003 6382172
-0.19014241 0.0056743454 0.49625003 6185565
-0.1883904 0.005654335 0.49450001 6251358
-0.18702486 0.0056457594 0.49375004 6185565
-0.18575673 0.005640042 0.49325001 6186333
-0.18439721 0.0056314664 0.49250004 6186333
-0.18313399 0.005625749 0.49200001 6120540
-0.18187298 0.0056200321 0.49150002 6185563
-0.18061416 0.0056143147 0.49100003 6251356
-0.1793575 0.0056085978 0.49050003 6120024
-0.17810304 0.0056028799 0.49000001 6119770
-0.17694111 0.0056000217 0.48975003 6119770
-0.17578025 0.005597163 0.48950002 6185563
-0.17462049 0.0055943043 0.48925003 6317149
-0.17337315 0.0055885869 0.48875001 6185817
-0.17221613 0.0055857287 0.48850003 6316633
-0.17088503 0.0055771526 0.48775002 6316379
-0.16973127 0.0055742939 0.48750001 6382172
-0.16849211 0.005568577 0.48700002 6119772
-0.16725516 0.0055628596 0.48650002 6119770
-0.1658496 0.0055514253 0.48550004 6448219
-0.16436353 0.0055371318 0.48425001 6251356
-0.16305156 0.0055285566 0.48350003 6185563
-0.1619104 0.0055256975 0.48325002 6382172
-0.16077031 0.0055228388 0.48300001 6447965
-0.15963134 0.0055199806 0.48275003 6447965
-0.15857556 0.0055199806 0.48275003 6447965
-0.15743822 0.0055171219 0.48250002 6447965
-0.15638299 0.0055171219 0.48250002 6447965
-0.15532778 0.0055171219 0.48250002 6579551
-0.15419263 0.0055142632 0.48225003 6317149
-0.15305856 0.0055114045 0.48200002 6251358
-0.15192559 0.0055085458 0.48175001 6645344
-0.15087201 0.0055085458 0.48175001 6317149
-0.14974068 0.0055056876 0.48150003 6120540
-0.14861044 0.0055028289 0.48125002 6252639
-0.14709803 0.0054856772 0.47975004 6251356
-0.14582051 0.0054771015 0.47900003 6448735
-0.14469738 0.0054742428 0.47875002 6448737
-0.14350034 0.0054685255 0.47825003 6448737
-0.14237994 0.0054656668 0.47800002 6251356
-0.14126065 0.0054628085 0.47775003 6186335
-0.14014243 0.0054599494 0.47750002 6514530
-0.13895249 0.0054542325 0.47700003 6645344
-0.13790931 0.0054542325 0.47700003 6646114
-0.13679437 0.0054513738 0.47675002 6580321
-0.13568056 0.0054485151 0.47650003 6514528
-0.13463846 0.0054485151 0.47650003 6383714
-0.13352627 0.0054456564 0.47625002 6515300
-0.1324847 0.0054456564 0.47625002 6580323
-0.13144316 0.0054456564 0.47625002 6711907
-0.13033314 0.0054427977 0.47600001 6450018
-0.12929213 0.0054427977 0.47600001 6450018
-0.12818377 0.0054399394 0.47575003 6580321
-0.12707651 0.0054370807 0.47550002 6778472
-0.12590407 0.0054313634 0.47500002 6581093
-0.12473381 0.0054256464 0.47450003 6646884
-0.12356574 0.005419929 0.47400004 6910056
-0.12233523 0.0054113534 0.47325003 6581091
-0.12117207 0.0054056356 0.47275001 6910310
-0.12013818 0.0054056356 0.47275001 6778470
-0.11904129 0.0054027773 0.47250003 6909286
-0.11800794 0.0054027773 0.47250003 7237481
-0.1169127 0.0053999186 0.47225001 6975079
-0.1158799 0.0053999186 0.47225001 6844265
-0.1147863 0.0053970604 0.47200003 6975081
-0.11369379 0.0053942017 0.47175002 7171690
-0.11260237 0.0053913426 0.47150001 7106667
-0.11151205 0.0053884843 0.47125003 6975079
-0.11042281 0.0053856256 0.47100002 7107435
-0.10869598 0.0053513222 0.46800002 7304814
-0.10767247 0.0053513222 0.46800002 7172460
-0.10664896 0.0053513222 0.46800002 7303276
-0.10562544 0.0053513222 0.46800002 7369837
-0.10465782 0.0053541809 0.46825004 7107689
-0.10363376 0.0053541809 0.46825004 7370607
-0.10260971 0.0053541809 0.46825004 7369839
-0.10158565 0.0053541809 0.46825004 7567218
-0.10061528 0.0053570396 0.46850002 7304563
-0.099590674 0.0053570396 0.46850002 7699572
-0.098513477 0.0053541809 0.46825004 7634292
-0.097489424 0.0053541809 0.46825004 7765365
-0.096413858 0.0053513222 0.46800002 8027767
-0.09539035 0.0053513222 0.46800002 7763827
-0.09426602 0.0053456053 0.46750003 8159355
-0.09319374 0.0053427466 0.46725002 8028539
-0.092122547 0.0053398879 0.46700001 7831160
-0.091101229 0.0053398879 0.46700001 7831160
-0.090031683 0.0053370292 0.46675003 7896953
-0.089010909 0.0053370292 0.46675003 7831160
-0.087990128 0.0053370292 0.46675003 8028537
-0.086969353 0.0053370292 0.46675003 7962746
-0.085994609 0.0053398879 0.46700001 7962744
-0.084973291 0.0053398879 0.46700001 8290939
-0.083951965 0.0053398879 0.46700001 8093560
-0.082930639 0.0053398879 0.46700001 8159353
-0.081909321 0.0053398879 0.46700001 7961974
-0.080887996 0.0053398879 0.46700001 8160125
-0.07986667 0.0053398879 0.46700001 8159355
-0.078803144 0.0053370292 0.46675003 8488320
-0.077740707 0.0053341705 0.46650001 8027769
-0.076679364 0.0053313123 0.46625003 8225916
-0.075578533 0.0053255945 0.46575001 7962744
-0.074519932 0.0053227362 0.46550003 7963257
-0.073422939 0.0053170193 0.46500003 8094845
-0.072405994 0.0053170193 0.46500003 8160636
-0.071350664 0.0053141601 0.46475002 8093560
-0.070334256 0.0053141601 0.46475002 8093562
-0.069317855 0.0053141601 0.46475002 7765367
-0.068264708 0.0053113014 0.46450001 7831160
-0.067248859 0.0053113014 0.46450001 7831160
-0.066197351 0.0053084432 0.46425003 7699574
-0.065111838 0.0053027263 0.46375003 7700087
-0.064063072 0.0052998671 0.46350002 7502708
-0.063015394 0.0052970084 0.46325001 7831160
-0.062002268 0.0052970084 0.46325001 7698804
-0.060989149 0.0052970084 0.46325001 7700087
-0.05997603 0.0052970084 0.46325001 7765878
-0.058962908 0.0052970084 0.46325001 7371890
-0.057949781 0.0052970084 0.46325001 7371892
-0.056936663 0.0052970084 0.46325001 7567988
-0.055953722 0.0052998671 0.46350002 7698802
-0.054940052 0.0052998671 0.46350002 7765365
-0.053926386 0.0052998671 0.46350002 7567986
-0.052912716 0.0052998671 0.46350002 7567988
-0.051899046 0.0052998671 0.46350002 7305329
-0.050885376 0.0052998671 0.46350002 7502708
-0.049871709 0.0052998671 0.46350002 7370869
-0.048831686 0.0052970084 0.46325001 7436149
-0.047818564 0.0052970084 0.46325001 7370869
-0.046805441 0.0052970084 0.46325001 7370869
-0.045767609 0.0052941502 0.46300003 6911341
-0.044755034 0.0052941502 0.46300003 7436915
-0.043718841 0.0052912915 0.46275002 7370609
-0.04270681 0.0052912915 0.46275002 7370609
-0.04171731 0.0052941502 0.46300003 7239023
-0.040704735 0.0052941502 0.46300003 7173490
-0.039713588 0.0052970084 0.46325001 7041904
-0.038721357 0.0052998671 0.46350002 6845295
-0.037728023 0.0053027263 0.46375003 7042674
-0.036733601 0.0053055845 0.46400002 7239023
-0.035738081 0.0053084432 0.46425003 7107184
-0.034722775 0.0053084432 0.46425003 7041904
-0.033725616 0.0053113014 0.46450001 7042157
-0.032709759 0.0053113014 0.46450001 6845546
-0.031693902 0.0053113014 0.46450001 6713709
-0.030678049 0.0053113014 0.46450001 6778985
-0.029662192 0.0053113014 0.46450001 6975851
-0.02863092 0.0053084432 0.46425003 6844265
-0.027615611 0.0053084432 0.46425003 6844265
-0.026600301 0.0053084432 0.46425003 6844265
-0.025571216 0.0053055845 0.46400002 6778472
-0.024556452 0.0053055845 0.46400002 6778470
-0.023541691 0.0053055845 0.46400002 6581606
-0.022526929 0.0053055845 0.46400002 6844265
-0.021500576 0.0053027263 0.46375003 7040874
-0.02048636 0.0053027263 0.46375003 6778472
-0.019482642 0.0053055845 0.46400002 6844265
-0.018467879 0.0053055845 0.46400002 6844265
-0.017453117 0.0053055845 0.46400002 6844265
-0.016438356 0.0053055845 0.46400002 6910058
-0.015423593 0.0053055845 0.46400002 6910058
-0.014408831 0.0053055845 0.46400002 6778472
-0.013394068 0.0053055845 0.46400002 6646886
-0.012385977 0.0053084432 0.46425003 6646886
-0.011364544 0.0053055845 0.46400002 6844012
-0.010349781 0.0053055845 0.46400002 6777702
-0.0093350196 0.0053055845 0.46400002 6778470
-0.0083157746 0.0053027263 0.46375003 6581606
-0.0073015592 0.0053027263 0.46375003 6581606
-0.0062873438 0.0053027263 0.46375003 6778472
-0.0052731284 0.0053027263 0.46375003 6713192
-0.0042612087 0.0053055845 0.46400002 6713192
-0.0032481954 0.0053084432 0.46425003 6778985
-0.0022340887 0.0053113014 0.46450001 6844263
-0.0012188889 0.0053141601 0.46475002 6778472
-0.00020248644 0.0053141601 0.46475002 6713192
0.00081391603 0.0053141601 0.46475002 6778985
0.0018303186 0.0053141601 0.46475002 6581353
0.0028467209 0.0053141601 0.46475002 6778219
0.0038631232 0.0053141601 0.46475002 6778472
0.0048795259 0.0053141601 0.46475002 6581606
0.0058959285 0.0053141601 0.46475002 6712939
0.0069086123 0.0053113014 0.46450001 6778985
0.0079244683 0.0053113014 0.46450001 6778470
0.0089403242 0.0053113014 0.46450001 6844265
0.0099561792 0.0053113014 0.46450001 6844265
0.010977941 0.0053141601 0.46475002 6910058
0.011994343 0.0053141601 0.46475002 6778985
0.013010745 0.0053141601 0.46475002 6778985
0.014027148 0.0053141601 0.46475002 6910571
0.01504355 0.0053141601 0.46475002 6713192
0.016059952 0.0053141601 0.46475002 6713192
0.017076354 0.0053141601 0.46475002 6844265
0.018102491 0.0053170193 0.46500003 6713192
0.01911944 0.0053170193 0.46500003 6778985
0.020147214 0.0053198775 0.46525002 6910058
0.021176083 0.0053227362 0.46550003 6844265
0.022206046 0.0053255945 0.46575001 6778983
0.023237102 0.0053284536 0.46600002 6845030
0.024269251 0.0053313123 0.46625003 6582628
0.025288934 0.0053313123 0.46625003 6648167
0.026294511 0.0053284536 0.46600002 6713190
0.027225727 0.0053113014 0.46450001 6778472
0.028241582 0.0053113014 0.46450001 6778472
0.029257437 0.0053113014 0.46450001 6844265
0.030289587 0.0053141601 0.46475002 6844265
0.031322833 0.0053170193 0.46500003 6713190
0.032444101 0.0053341705 0.46650001 6910058
0.033482265 0.0053370292 0.46675003 6778472
0.034503039 0.0053370292 0.46675003 6778472
0.035523817 0.0053370292 0.46675003 6713192
0.036544595 0.0053370292 0.46675003 6844265
0.037565373 0.0053370292 0.46675003 6778472
0.038586147 0.0053370292 0.46675003 6581606
0.039606925 0.0053370292 0.46675003 6713192
0.040627699 0.0053370292 0.46675003 6713192
0.041648477 0.0053370292 0.46675003 6581606
0.042669252 0.0053370292 0.46675003 6778472
0.04369003 0.0053370292 0.46675003 6778472
0.044710804 0.0053370292 0.46675003 6581606
0.045731582 0.0053370292 0.46675003 6648169
0.046777397 0.0053398879 0.46700001 6713190
0.047798723 0.0053398879 0.46700001 6713190
0.048846181 0.0053427466 0.46725002 6646884
0.049894735 0.0053456053 0.46750003 6777700
0.050944377 0.0053484635 0.46775001 6777700
0.051995113 0.0053513222 0.46800002 6711909
0.053046949 0.0053541809 0.46825004 6713192
0.054099873 0.0053570396 0.46850002 6581604
0.055153895 0.0053598983 0.46875003 6581604
0.056209002 0.0053627566 0.46900001 6646886
0.057265211 0.0053656152 0.46925002 6580840
0.058322512 0.0053684739 0.46950004 6646633
0.059349298 0.0053684739 0.46950004 6581353
0.060408242 0.0053713326 0.46975002 6581606
0.061468277 0.0053741913 0.47000003 6646633
0.0625294 0.0053770496 0.47025001 6646886
0.063557826 0.0053770496 0.47025001 6646886
0.064620599 0.0053799083 0.47050002 6581093
0.065649576 0.0053799083 0.47050002 6646886
0.066678554 0.0053799083 0.47050002 6581093
0.067707531 0.0053799083 0.47050002 6449767
0.068773039 0.0053827674 0.47075003 6712939
0.069987908 0.0053970604 0.47200003 6515300
0.071057782 0.0053999186 0.47225001 6581093
0.07212875 0.0054027773 0.47250003 6646633
0.073200814 0.0054056356 0.47275001 6646633
0.074273966 0.0054084947 0.47300002 6581606
0.075348213 0.0054113534 0.47325003 6515298
0.076383203 0.0054113534 0.47325003 6646116
0.077418201 0.0054113534 0.47325003 6646886
0.078453191 0.0054113534 0.47325003 6580840
0.079530172 0.0054142117 0.47350001 6711656
0.080608249 0.0054170704 0.47375003 6778219
0.081902847 0.0054342221 0.47525004 6515813
0.082985833 0.0054370807 0.47550002 6581093
0.08406993 0.0054399394 0.47575003 6777702
0.085110381 0.0054399394 0.47575003 6646884
0.08619611 0.0054427977 0.47600001 6646886
0.087282941 0.0054456564 0.47625002 6645863
0.08837086 0.0054485151 0.47650003 6777449
0.089459866 0.0054513738 0.47675002 6711909
0.090549968 0.0054542325 0.47700003 5725531
0.091641173 0.0054570907 0.47725001 6054498
0.092733458 0.0054599494 0.47750002 6646116
0.093777746 0.0054599494 0.47750002 6777702
0.094871677 0.0054628085 0.47775003 6581093
0.095916517 0.0054628085 0.47775003 6515300
0.096961349 0.0054628085 0.47775003 6384227
0.098570317 0.0054942528 0.48050001 6317921
0.099672996 0.0054971115 0.48075002 6515813
0.10077678 0.0054999702 0.48100004 6581606
0.10188164 0.0055028289 0.48125002 6449254
0.10298759 0.0055056876 0.48150003 6777449
0.10409465 0.0055085458 0.48175001 6711656
0.1052028 0.0055114045 0.48200002 6711656
0.10631204 0.0055142632 0.48225003 6646886
0.10747803 0.0055199806 0.48275003 6646116
0.10859 0.0055228388 0.48300001 6711909
0.10975983 0.0055285566 0.48350003 6580840
0.11087453 0.0055314149 0.48375002 6450537
0.11199033 0.0055342736 0.48400003 6450537
0.11316562 0.0055399905 0.48450002 6515813
0.1143431 0.0055457079 0.48500001 6450020
0.11552276 0.0055514253 0.48550004 6581353
0.11670461 0.0055571427 0.48600003 6646633
0.11788864 0.0055628596 0.48650002 6580840
0.11907487 0.005568577 0.48700002 6515560
0.12026328 0.0055742939 0.48750001 6581353
0.12145387 0.0055800113 0.48800004 6581353
0.12264667 0.0055857287 0.48850003 6581353
0.12377831 0.0055885869 0.48875001 6581353
0.12491107 0.0055914456 0.48900002 6580840
0.1259805 0.0055914456 0.48900002 6778219
0.12704994 0.0055914456 0.48900002 6778221
0.12811938 0.0055914456 0.48900002 6778732
0.12918881 0.0055914456 0.48900002 6712939
0.13112397 0.0056286077 0.49225003 6778732
0.13220052 0.0056286077 0.49225003 6450539
0.13334475 0.0056314664 0.49250004 6581355
0.13449007 0.0056343251 0.49275002 6581355
0.13563649 0.0056371838 0.49300003 6712939
0.13685334 0.0056429007 0.49350002 6712939
0.13800249 0.0056457594 0.49375004 6515560
0.13915274 0.0056486181 0.49400002 6778732
0.14037503 0.005654335 0.49450001 6581353
0.14152803 0.0056571937 0.49475002 6712941
0.14275417 0.0056629111 0.49525002 6779504
0.14398248 0.005668628 0.49575001 6778736
0.14572509 0.0056943558 0.49800003 6384746
0.14725642 0.0057115075 0.49950004 6385257
0.14872004 0.0057258005 0.50075001 6582123
0.15011437 0.0057372353 0.50175005 6712939
0.15136236 0.0057429522 0.50225002 6384744
0.15253668 0.0057458105 0.5025 6384744
0.15371208 0.0057486696 0.50275004 6713709
0.15481159 0.0057486696 0.50275004 6582123
0.1559111 0.0057486696 0.50275004 6778732
0.15708867 0.0057515278 0.50300002 6581353
0.15818873 0.0057515278 0.50300002 6515560
0.15936795 0.0057543865 0.50325 6384744
0.16182373 0.0058029834 0.50750005 6645865
0.16293363 0.0058029834 0.50750005 6580844
0.16412434 0.0058058416 0.50775003 6712941
0.16531613 0.0058087003 0.50800002 6712939
0.16650902 0.0058115586 0.50825 6384744
0.16770302 0.0058144177 0.50850004 6384744
0.16898108 0.0058201347 0.509 6056808
0.17034489 0.0058287103 0.50975001 6187882
0.17179605 0.0058401446 0.51075 6317670
0.17325161 0.0058515798 0.51175004 6317670
0.174456 0.0058544381 0.51200002 5988703
0.17566146 0.0058572963 0.51225001 5593945
0.17686804 0.0058601554 0.51250005 5724763
0.17807569 0.0058630141 0.51275003 5724761
0.17989601 0.0058858828 0.51475 5855577
0.18181303 0.0059116101 0.51700002 5724244
0.18312064 0.0059173279 0.51750004 5790037
0.18416338 0.0059144688 0.51725 5921621
0.18475728 0.0058973175 0.51575005 5790805
0.1857951 0.0058944584 0.51550001 5856600
0.18683185 0.0058916002 0.51525003 5593426
0.18777628 0.0058858828 0.51475 5329484
0.18798459 0.0058572963 0.51225001 5000519
0.18864691 0.0058087003 0.50800002 4739141
-0.22811988 0.0068234988 0.50100005 6776932
-0.22713748 0.0068269032 0.50125003 5723987
-0.22615398 0.0068303081 0.50150001 5263440
-0.22539379 0.0068405229 0.50225002 4936268
-0.22530019 0.0068711676 0.50450003 5133394
-0.22575223 0.0069188364 0.50800002 5133394
-0.22475179 0.0069222413 0.50825 5659219
-0.22386028 0.0069290511 0.50875002 6185563
-0.22285707 0.006932456 0.509 6514528
-0.22185284 0.0069358614 0.50925004 6185563
-0.22073911 0.0069358614 0.50925004 6382169
-0.21951756 0.006932456 0.509 6446938
-0.21829712 0.0069290511 0.50875002 6513501
-0.2167576 0.0069154319 0.50775003 6447965
-0.21511625 0.0068984064 0.50650001 6316379
-0.2137973 0.0068915971 0.50600004 6250329
-0.21258557 0.0068881917 0.50575 6447962
-0.21127044 0.0068813823 0.50525004 6513501
-0.21006146 0.0068779769 0.505 6250586
-0.20761229 0.0068337135 0.50175005 6382426
-0.20641205 0.0068303081 0.50150001 6054747
-0.20531528 0.0068303081 0.50150001 5988956
-0.2041167 0.0068269032 0.50125003 6381917
-0.20291923 0.0068234988 0.50100005 6316122
-0.20172283 0.0068200929 0.50075001 6053977
-0.20062768 0.0068200929 0.50075001 6119772
-0.19943294 0.0068166885 0.50050002 6382174
-0.1981402 0.0068098782 0.5 6250586
-0.19684967 0.0068030688 0.49950004 6185565
-0.19526739 0.0067860442 0.49825004 6250331
-0.19398287 0.0067792339 0.49775001 6382169
-0.19279742 0.006775829 0.49750003 6316376
-0.19151671 0.0067690192 0.49700001 6250840
-0.19023819 0.0067622093 0.49650002 6251356
-0.18848565 0.0067383749 0.49475002 6251356
-0.18693016 0.0067213499 0.49350002 6119772
-0.1856626 0.0067145401 0.49300003 6185563
-0.1843036 0.0067043253 0.49225003 6251356
-0.18304095 0.0066975155 0.49175003 6251356
-0.18178049 0.0066907057 0.49125004 6119770
-0.18061416 0.0066873007 0.49100003 6185817
-0.1793575 0.0066804909 0.49050003 6119770
-0.17819391 0.006677086 0.49025002 6251610
-0.17703143 0.0066736806 0.49000001 6447965
-0.17587003 0.0066702762 0.48975003 6250586
-0.17470972 0.0066668708 0.48950002 6316379
-0.17355052 0.0066634663 0.48925003 6185563
-0.17230426 0.006656656 0.48875001 6251356
-0.17088503 0.0066430364 0.48775002 6317149
-0.16964424 0.0066362265 0.48725003 6054747
-0.16840562 0.0066294167 0.48675004 6054747
-0.16699731 0.0066157971 0.48575002 6186333
-0.16567878 0.0066055818 0.48500001 6382172
-0.16444838 0.006598772 0.48450002 6055001
-0.16313587 0.0065885573 0.48375002 6120540
-0.16199416 0.0065851528 0.48350003 6579805
-0.16077031 0.0065783425 0.48300001 6251610
-0.159714 0.0065783425 0.48300001 6054747
-0.15857556 0.0065749376 0.48275003 6317149
-0.15751979 0.0065749376 0.48275003 6251356
-0.15638299 0.0065715327 0.48250002 6317149
-0.15532778 0.0065715327 0.48250002 6448735
-0.15419263 0.0065681278 0.48225003 6447965
-0.15305856 0.0065647229 0.48200002 6513503
-0.15192559 0.0065613179 0.48175001 6513501
-0.15087201 0.0065613179 0.48175001 6251356
-0.14974068 0.006557913 0.48150003 6251358
-0.14861044 0.0065545081 0.48125002 6317151
-0.14686808 0.0065238639 0.47900003 6317149
-0.1457444 0.0065204585 0.47875002 6317149
-0.14462182 0.0065170536 0.47850001 6317149
-0.14350034 0.0065136487 0.47825003 6645344
-0.14237994 0.0065102438 0.47800002 6448737
-0.14126065 0.0065068388 0.47775003 6448737
-0.14006905 0.006500029 0.47725001 6186333
-0.13895249 0.0064966241 0.47700003 6580575
-0.13783702 0.0064932192 0.47675002 6711137
-0.13672265 0.0064898143 0.47650003 6514528
-0.13560936 0.0064864093 0.47625002 6449505
-0.13456781 0.0064864093 0.47625002 6383714
-0.13345617 0.006483004 0.47600001 6449254
-0.13241516 0.006483004 0.47600001 6448737
-0.13137415 0.006483004 0.47600001 6580321
-0.13033314 0.006483004 0.47600001 6449505
-0.12922423 0.0064795995 0.47575003 6450272
-0.12811641 0.0064761946 0.47550002 6646114
-0.12700969 0.0064727897 0.47525004 6777702
-0.12590407 0.0064693848 0.47500002 6580323
-0.12466808 0.0064591696 0.47425002 6384227
-0.12350057 0.0064523597 0.47375003 6713192
-0.12233523 0.0064455499 0.47325003 6844263
-0.12123615 0.006442145 0.47300002 6844263
-0.12013818 0.0064387401 0.47275001 6909288
-0.11904129 0.0064353351 0.47250003 6777702
-0.11800794 0.0064353351 0.47250003 6975081
-0.1169127 0.0064319302 0.47225001 6910056
-0.11581856 0.0064285253 0.47200003 6910056
-0.11472549 0.0064251204 0.47175002 6975851
-0.11363353 0.006421715 0.47150001 7107437
-0.11254267 0.0064183106 0.47125003 7237481
-0.11145289 0.0064149057 0.47100002 7237481
-0.11036421 0.0064115007 0.47075003 7369069
-0.10875405 0.0063774516 0.46825004 7172207
-0.10772999 0.0063774516 0.46825004 7172209
-0.10670593 0.0063774516 0.46825004 7435379
-0.10568187 0.0063774516 0.46825004 7304816
-0.10465782 0.0063774516 0.46825004 7042927
-0.10363376 0.0063774516 0.46825004 7175026
-0.10266449 0.006380856 0.46850002 7173743
-0.10163988 0.006380856 0.46850002 7896181
-0.10061528 0.006380856 0.46850002 7896183
-0.099590674 0.006380856 0.46850002 7501942
-0.09856607 0.006380856 0.46850002 7436913
-0.097489424 0.0063774516 0.46825004 7436913
-0.096413858 0.0063740462 0.46800002 7502195
-0.095339388 0.0063706413 0.46775001 8093562
-0.09426602 0.0063672364 0.46750003 7896183
-0.09319374 0.0063638315 0.46725002 7699321
-0.092122547 0.0063604261 0.46700001 7765114
-0.091101229 0.0063604261 0.46700001 7830907
-0.090031683 0.0063570216 0.46675003 7567735
-0.089010909 0.0063570216 0.46675003 7830907
-0.088037252 0.0063604261 0.46700001 8027516
-0.087015934 0.0063604261 0.46700001 7830137
-0.085994609 0.0063604261 0.46700001 8159102
-0.084973291 0.0063604261 0.46700001 8160123
-0.083951965 0.0063604261 0.46700001 8225916
-0.082930639 0.0063604261 0.46700001 8028539
-0.081909321 0.0063604261 0.46700001 7896953
-0.080887996 0.0063604261 0.46700001 7962746
-0.07986667 0.0063604261 0.46700001 7962746
-0.078803144 0.0063570216 0.46675003 8291711
-0.077740707 0.0063536167 0.46650001 8094845
-0.076679364 0.0063502118 0.46625003 8160638
-0.075578533 0.0063434015 0.46575001 8094843
-0.074479908 0.0063365917 0.46525002 7897464
-0.073422939 0.0063331872 0.46500003 8226429
-0.072367065 0.0063297818 0.46475002 7897466
-0.071350664 0.0063297818 0.46475002 7896700
-0.070334256 0.0063297818 0.46475002 7830907
-0.069280565 0.0063263769 0.46450001 7766650
-0.068264708 0.0063263769 0.46450001 8160636
-0.067212664 0.0063229725 0.46425003 7896951
-0.0661617 0.0063195671 0.46400002 7896953
-0.065111838 0.0063161626 0.46375003 7896951
-0.064063072 0.0063127573 0.46350002 7831158
-0.063015394 0.0063093523 0.46325001 7831160
-0.061968811 0.0063059474 0.46300003 7698804
-0.06095624 0.0063059474 0.46300003 7830390
-0.059943665 0.0063059474 0.46300003 7896953
-0.05893109 0.0063059474 0.46300003 7436915
-0.057949781 0.0063093523 0.46325001 7502455
-0.056936663 0.0063093523 0.46325001 7502708
-0.055953722 0.0063127573 0.46350002 7502708
-0.054940052 0.0063127573 0.46350002 7240306
-0.053926386 0.0063127573 0.46350002 7700087
-0.052912716 0.0063127573 0.46350002 7371122
-0.051899046 0.0063127573 0.46350002 7370869
-0.050885376 0.0063127573 0.46350002 7502455
-0.049871709 0.0063127573 0.46350002 7436402
-0.048858039 0.0063127573 0.46350002 7699574
-0.047844373 0.0063127573 0.46350002 7370609
-0.046805441 0.0063093523 0.46325001 7239536
-0.045767609 0.0063059474 0.46300003 7304816
-0.044755034 0.0063059474 0.46300003 7501425
-0.043718841 0.0063025425 0.46275002 7697781
-0.04270681 0.0063025425 0.46275002 7435379
-0.04171731 0.0063059474 0.46300003 7435632
-0.040726714 0.0063093523 0.46325001 7304563
-0.039735023 0.0063127573 0.46350002 7041904
-0.038721357 0.0063127573 0.46350002 7042927
-0.037728023 0.0063161626 0.46375003 7042157
-0.036733601 0.0063195671 0.46400002 7041391
-0.035738081 0.0063229725 0.46425003 7041904
-0.034722775 0.0063229725 0.46425003 7042157
-0.033707466 0.0063229725 0.46425003 7304816
-0.032692157 0.0063229725 0.46425003 6910571
-0.031676847 0.0063229725 0.46425003 7041644
-0.030661538 0.0063229725 0.46425003 6976364
-0.029646229 0.0063229725 0.46425003 6976364
-0.02863092 0.0063229725 0.46425003 6779755
-0.027615611 0.0063229725 0.46425003 6910571
-0.026585976 0.0063195671 0.46400002 6844265
-0.025571216 0.0063195671 0.46400002 6975081
-0.024556452 0.0063195671 0.46400002 6909805
-0.023541691 0.0063195671 0.46400002 6910571
-0.022514792 0.0063161626 0.46375003 6778985
-0.021500576 0.0063161626 0.46375003 6844265
-0.02048636 0.0063161626 0.46375003 6778985
-0.019472146 0.0063161626 0.46375003 6778985
-0.018457931 0.0063161626 0.46375003 6910058
-0.017453117 0.0063195671 0.46400002 6909288
-0.016438356 0.0063195671 0.46400002 6975081
-0.015423593 0.0063195671 0.46400002 6581606
-0.014408831 0.0063195671 0.46400002 6910058
-0.013394068 0.0063195671 0.46400002 6646886
-0.012379306 0.0063195671 0.46400002 6713192
-0.011364544 0.0063195671 0.46400002 6778219
-0.010349781 0.0063195671 0.46400002 6580840
-0.0093299905 0.0063161626 0.46375003 6844012
-0.0083157746 0.0063161626 0.46375003 6646633
-0.0073015592 0.0063161626 0.46375003 6581353
-0.0062873438 0.0063161626 0.46375003 6712939
-0.0052731284 0.0063161626 0.46375003 6778985
-0.0042612087 0.0063195671 0.46400002 6581353
-0.0032481954 0.0063229725 0.46425003 6778472
-0.0022340887 0.0063263769 0.46450001 6778472
-0.0012188889 0.0063297818 0.46475002 6581606
-0.00020248644 0.0063297818 0.46475002 6582376
0.00081391603 0.0063297818 0.46475002 6582376
0.0018303186 0.0063297818 0.46475002 6581606
0.0028467209 0.0063297818 0.46475002 6778219
0.0038610452 0.0063263769 0.46450001 6778219
0.0048769009 0.0063263769 0.46450001 6646886
0.0058927569 0.0063263769 0.46450001 6713192
0.0069086123 0.0063263769 0.46450001 6844263
0.0079244683 0.0063263769 0.46450001 6844265
0.0089403242 0.0063263769 0.46450001 6910058
0.0099561792 0.0063263769 0.46450001 6778472
0.010972035 0.0063263769 0.46450001 6910058
0.011994343 0.0063297818 0.46475002 6713192
0.013010745 0.0063297818 0.46475002 6582376
0.014027148 0.0063297818 0.46475002 6712939
0.01504355 0.0063297818 0.46475002 6844012
0.016059952 0.0063297818 0.46475002 6910058
0.017076354 0.0063297818 0.46475002 6778472
0.018102491 0.0063331872 0.46500003 6844778
0.019129718 0.0063365917 0.46525002 6713192
0.020158041 0.0063399971 0.46550003 6844776
0.021176083 0.0063399971 0.46550003 6778470
0.022206046 0.0063434015 0.46575001 6844265
0.023237102 0.0063468069 0.46600002 6581606
0.024256237 0.0063468069 0.46600002 6844776
0.025275374 0.0063468069 0.46600002 6778985
0.026223978 0.0063297818 0.46475002 6778472
0.027225727 0.0063263769 0.46450001 6844012
0.028226383 0.0063229725 0.46425003 6778219
0.029257437 0.0063263769 0.46450001 6646633
0.030273292 0.0063263769 0.46450001 6844012
0.031305991 0.0063297818 0.46475002 6646886
0.032444101 0.0063536167 0.46650001 6778472
0.033482265 0.0063570216 0.46675003 6581093
0.034503039 0.0063570216 0.46675003 6844265
0.035523817 0.0063570216 0.46675003 6581606
0.036544595 0.0063570216 0.46675003 6713192
0.037565373 0.0063570216 0.46675003 6713192
0.038586147 0.0063570216 0.46675003 6581606
0.039606925 0.0063570216 0.46675003 6581604
0.040627699 0.0063570216 0.46675003 6646886
0.041670784 0.0063604261 0.46700001 6646886
0.042692106 0.0063604261 0.46700001 6384997
0.043713428 0.0063604261 0.46700001 6582376
0.044710804 0.0063570216 0.46675003 6450790
0.045756076 0.0063604261 0.46700001 6515813
0.046777397 0.0063604261 0.46700001 6646886
0.047824312 0.0063638315 0.46725002 6646886
0.048872318 0.0063672364 0.46750003 6580840
0.049921416 0.0063706413 0.46775001 6646633
0.050971605 0.0063740462 0.46800002 6777449
0.051995113 0.0063740462 0.46800002 6580840
0.053046949 0.0063774516 0.46825004 6646886
0.05412874 0.006384261 0.46875003 6646884
0.055183306 0.0063876659 0.46900001 6778724
0.056238964 0.0063910708 0.46925002 6515813
0.057295721 0.0063944762 0.46950004 6646633
0.058322512 0.0063944762 0.46950004 6646633
0.0593809 0.0063978806 0.46975002 6646633
0.060408242 0.0063978806 0.46975002 6515813
0.061468277 0.006401286 0.47000003 6581606
0.062496159 0.006401286 0.47000003 6450020
0.063557826 0.0064046904 0.47025001 6580840
0.064586267 0.0064046904 0.47025001 6777702
0.065614693 0.0064046904 0.47025001 6711909
0.066643119 0.0064046904 0.47025001 6646886
0.067671552 0.0064046904 0.47025001 6515560
0.068699986 0.0064046904 0.47025001 6318951
0.069987908 0.0064285253 0.47200003 6449767
0.0710954 0.0064353351 0.47250003 6580840
0.072166905 0.0064387401 0.47275001 6580840
0.073239528 0.006442145 0.47300002 6581093
0.074273966 0.006442145 0.47300002 6515300
0.075348213 0.0064455499 0.47325003 6711907
0.076383203 0.0064455499 0.47325003 6711909
0.077418201 0.0064455499 0.47325003 6777449
0.078494638 0.0064489548 0.47350001 6645863
0.079530172 0.0064489548 0.47350001 6711656
0.080608249 0.0064523597 0.47375003 6515300
0.081902847 0.0064727897 0.47525004 6582374
0.082985833 0.0064761946 0.47550002 6515300
0.08406993 0.0064795995 0.47575003 6777702
0.085110381 0.0064795995 0.47575003 6777702
0.08619611 0.006483004 0.47600001 6645863
0.087282941 0.0064864093 0.47625002 6580840
0.088417217 0.0064932192 0.47675002 6646116
0.089506775 0.0064966241 0.47700003 6711907
0.090597421 0.006500029 0.47725001 6580323
0.091689177 0.0065034339 0.47750002 6581093
0.092733458 0.0065034339 0.47750002 6581093
0.093826845 0.0065068388 0.47775003 6646886
0.094871677 0.0065068388 0.47775003 6449507
0.095966704 0.0065102438 0.47800002 6646886
0.09701208 0.0065102438 0.47800002 6318432
0.098570317 0.0065442929 0.48050001 6450020
0.099672996 0.0065476983 0.48075002 6580840
0.10077678 0.0065511032 0.48100004 6515047
0.10188164 0.0065545081 0.48125002 6580840
0.10298759 0.006557913 0.48150003 6515813
0.10409465 0.0065613179 0.48175001 6515813
0.1052028 0.0065647229 0.48200002 6515813
0.10631204 0.0065681278 0.48225003 6581353
0.10742237 0.0065715327 0.48250002 6580840
0.10859 0.0065783425 0.48300001 6778219
0.10970308 0.0065817474 0.48325002 6778219
0.11081724 0.0065851528 0.48350003 6515300
0.11199033 0.0065919627 0.48400003 6975079
0.11310723 0.0065953671 0.48425001 6909286
0.1143431 0.0066055818 0.48500001 6581606
0.11552276 0.0066123921 0.48550004 6581353
0.11670461 0.006619202 0.48600003 6581353
0.11782806 0.0066226069 0.48625001 6646633
0.11901374 0.0066294167 0.48675004 6646633
0.12020161 0.0066362265 0.48725003 6646633
0.12151609 0.0066498462 0.48825002 6778219
0.12270943 0.006656656 0.48875001 6646635
0.12384164 0.006660061 0.48900002 6449769
0.12491107 0.006660061 0.48900002 6778219
0.1259805 0.006660061 0.48900002 6515560
0.12704994 0.006660061 0.48900002 6515560
0.12811938 0.006660061 0.48900002 6909807
0.12918881 0.006660061 0.48900002 6712941
0.13112397 0.0067043253 0.49225003 6778734
0.13220052 0.0067043253 0.49225003 6778734
0.13334475 0.0067077307 0.49250004 6844012
0.13455832 0.0067145401 0.49300003 6844265
0.13570528 0.006717945 0.49325001 6713192
0.13685334 0.0067213499 0.49350002 6713192
0.13800249 0.0067247553 0.49375004 6778732
0.13922316 0.0067315651 0.49425003 6778734
0.14044601 0.0067383749 0.49475002 6712941
0.14167106 0.0067451848 0.49525002 6449769
0.14550561 0.0067724241 0.49725002 6778732
0.1468879 0.0067860442 0.49825004 6450537
0.1482003 0.0067962585 0.49900001 6449767
0.15011437 0.0068337135 0.50175005 6778732
0.15136236 0.0068405229 0.50225002 6647916
0.15253668 0.0068439273 0.5025 6385257
0.15371208 0.0068473332 0.50275004 6385259
0.15481159 0.0068473332 0.50275004 6385259
0.15598862 0.0068507376 0.50300002 6253673
0.15716675 0.0068541425 0.50325 6516845
0.15826735 0.0068541425 0.50325 6384746
0.15936795 0.0068541425 0.50325 6384744
0.16182373 0.006912027 0.50750005 6318953
0.16293363 0.006912027 0.50750005 6449767
0.16412434 0.0069154319 0.50775003 6449767
0.16531613 0.0069188364 0.50800002 6318951
0.16650902 0.0069222413 0.50825 6318951
0.16770302 0.0069256467 0.50850004 6449769
0.16898108 0.006932456 0.509 6450539
0.17034489 0.0069426708 0.50975001 6516845
0.17171197 0.006952886 0.51050001 6252390
0.17308234 0.0069631007 0.51125002 6120804
0.17437083 0.006969911 0.51175004 5858400
0.17566146 0.0069767204 0.51225001 5791837
0.17686804 0.0069801258 0.51250005 5790807
0.17859663 0.0070039602 0.51425004 5790037
0.18068236 0.0070414143 0.51700002 5658968
0.18198887 0.0070482246 0.51750004 5593175
0.18312064 0.0070482246 0.51750004 5725014
0.1842524 0.0070482246 0.51750004 5790805
0.18520506 0.0070414143 0.51700002 5790805
0.18588521 0.0070243902 0.51575005 5856598
0.18683185 0.0070175799 0.51525003 5725014
0.1868643 0.0069767204 0.51225001 5329227
0.18789284 0.0069733155 0.51200002 5263688
-0.22811988 0.0079183374 0.50100005 6842215
-0.22713748 0.007922289 0.50125003 5723987
-0.2264922 0.0079380935 0.50225002 5066061
-0.22584255 0.007953898 0.50325 5329229
-0.22530019 0.0079736551 0.50450003 5459792
-0.22553004 0.0080210706 0.50750005 5460815
-0.22475179 0.0080329236 0.50825 5462612
-0.22386028 0.0080408268 0.50875002 6121055
-0.22285707 0.0080447774 0.509 6120542
-0.22185284 0.008048729 0.50925004 6251610
-0.22073911 0.008048729 0.50925004 6316633
-0.2196254 0.008048729 0.50925004 6381915
-0.21840438 0.0080447774 0.509 6316379
-0.2167576 0.0080250213 0.50775003 6382172
-0.21511625 0.0080052651 0.50650001 6382172
-0.2137973 0.0079973629 0.50600004 6447965
-0.21258557 0.0079934113 0.50575 6316633
-0.21137497 0.0079894597 0.50550002 6185563
-0.21016547 0.007985509 0.50525004 6382172
-0.20750882 0.0079262396 0.50150001 6316379
-0.20630915 0.007922289 0.50125003 6250840
-0.20521294 0.007922289 0.50125003 6250840
-0.2041167 0.007922289 0.50125003 6381915
-0.20291923 0.0079183374 0.50100005 6381915
-0.20182355 0.0079183374 0.50100005 6119770
-0.20062768 0.0079143858 0.50075001 6184793
-0.19943294 0.0079104351 0.50050002 6316379
-0.1982393 0.0079064835 0.50025004 5988186
-0.1969482 0.0078985812 0.49975002 6053979
-0.19526739 0.0078748735 0.49825004 6250840
-0.19398287 0.0078669703 0.49775001 6316633
-0.19270054 0.007859068 0.49725002 6316379
-0.19142038 0.0078511657 0.49675003 6316379
-0.19023819 0.0078472141 0.49650002 6382172
-0.18896186 0.0078393118 0.49600002 6250586
-0.18683547 0.007795848 0.49325001 6251356
-0.18547429 0.0077839945 0.49250004 6055001
-0.18420999 0.0077760918 0.49200001 6055001
-0.18294789 0.0077681891 0.49150002 6185817
-0.18178049 0.0077642384 0.49125004 6251356
-0.18052219 0.0077563352 0.49075001 6120542
-0.1793575 0.0077523845 0.49050003 5989469
-0.17819391 0.0077484329 0.49025002 5989467
-0.17703143 0.0077444813 0.49000001 6251608
-0.17587003 0.0077405302 0.48975003 6251610
-0.17479895 0.0077405302 0.48975003 6251610
-0.17363919 0.007736579 0.48950002 6251356
-0.17248054 0.0077326279 0.48925003 6185563
-0.17123537 0.0077247252 0.48875001 6251356
-0.16947016 0.0076931152 0.48675004 6185563
-0.16814613 0.0076812613 0.48600003 6185817
-0.16691138 0.007673359 0.48550004 6382426
-0.16567878 0.0076654563 0.48500001 6317403
-0.16453324 0.0076615051 0.48475003 6185817
-0.16330448 0.0076536024 0.48425001 6317401
-0.16207792 0.0076456997 0.48375002 6448219
-0.16093676 0.007641749 0.48350003 6251610
-0.15979667 0.0076377974 0.48325002 6055514
-0.15865767 0.0076338458 0.48300001 6120540
-0.15751979 0.0076298951 0.48275003 6251356
-0.15638299 0.0076259435 0.48250002 6251356
-0.15532778 0.0076259435 0.48250002 6317919
-0.15419263 0.0076219924 0.48225003 6317149
-0.15305856 0.0076180412 0.48200002 6382172
-0.15192559 0.0076140896 0.48175001 6579553
-0.15079373 0.0076101385 0.48150003 6448735
-0.14974068 0.0076101385 0.48150003 6317149
-0.14861044 0.0076061874 0.48125002 6251356
-0.14679143 0.0075666746 0.47875002 6579553
-0.1457444 0.0075666746 0.47875002 6447967
-0.14462182 0.007562723 0.47850001 6448735
-0.14350034 0.0075587723 0.47825003 6317149
-0.14237994 0.0075548207 0.47800002 6317149
-0.14118673 0.0075469185 0.47750002 6448735
-0.14006905 0.0075429669 0.47725001 6448735
-0.13887967 0.0075350646 0.47675002 6514782
-0.13776475 0.0075311135 0.47650003 6317919
-0.13665092 0.0075271619 0.47625002 6186335
-0.13560936 0.0075271619 0.47625002 5923674
-0.13449717 0.0075232107 0.47600001 5924444
-0.13345617 0.0075232107 0.47600001 6580323
-0.13241516 0.0075232107 0.47600001 6646114
-0.13130516 0.0075192596 0.47575003 6580321
-0.13026468 0.0075192596 0.47575003 6448735
-0.12922423 0.0075192596 0.47575003 6514528
-0.12811641 0.007515308 0.47550002 6842725
-0.12694287 0.0075074057 0.47500002 7040104
-0.12577154 0.0074995034 0.47450003 6711909
-0.12460238 0.0074916007 0.47400004 6646633
-0.12343539 0.007483698 0.47350001 6713192
-0.12233523 0.0074797468 0.47325003 6515298
-0.12123615 0.0074757957 0.47300002 6778472
-0.12013818 0.0074718441 0.47275001 6778219
-0.11904129 0.007467893 0.47250003 6646633
-0.11800794 0.007467893 0.47250003 6713192
-0.1169127 0.0074639418 0.47225001 6844776
-0.11581856 0.0074599907 0.47200003 7041126
-0.11472549 0.0074560391 0.47175002 7171690
-0.11363353 0.0074520879 0.47150001 7106667
-0.11254267 0.0074481368 0.47125003 6975079
-0.11145289 0.0074441852 0.47100002 7172458
-0.11030559 0.0074362829 0.47050002 6975851
-0.10881211 0.0074046724 0.46850002 7370356
-0.10772999 0.0074007218 0.46825004 7238000
-0.10670593 0.0074007218 0.46825004 7238770
-0.10568187 0.0074007218 0.46825004 6845295
-0.10465782 0.0074007218 0.46825004 7108467
-0.10368909 0.0074046724 0.46850002 7042157
-0.10266449 0.0074046724 0.46850002 7634292
-0.10163988 0.0074046724 0.46850002 7436913
-0.10061528 0.0074046724 0.46850002 7699572
-0.099590674 0.0074046724 0.46850002 7501942
-0.09856607 0.0074046724 0.46850002 7502708
-0.097489424 0.0074007218 0.46825004 7503476
-0.096413858 0.0073967702 0.46800002 7831671
-0.095288433 0.0073888679 0.46750003 7699572
-0.094215609 0.0073849163 0.46725002 7961974
-0.093143873 0.0073809647 0.46700001 8159355
-0.092122547 0.0073809647 0.46700001 8092792
-0.091052458 0.007377014 0.46675003 7961976
-0.090031683 0.007377014 0.46675003 8028539
-0.089010909 0.007377014 0.46675003 7567735
-0.088037252 0.0073809647 0.46700001 8093309
-0.087015934 0.0073809647 0.46700001 7830907
-0.085994609 0.0073809647 0.46700001 8028286
-0.084973291 0.0073809647 0.46700001 7963257
-0.083951965 0.0073809647 0.46700001 7766650
-0.082930639 0.0073809647 0.46700001 8094845
-0.081909321 0.0073809647 0.46700001 8159355
-0.080887996 0.0073809647 0.46700001 8356734
-0.079823919 0.007377014 0.46675003 8028539
-0.078803144 0.007377014 0.46675003 8094845
-0.077740707 0.0073730624 0.46650001 7963257
-0.076638244 0.0073651602 0.46600002 8028539
-0.075578533 0.0073612086 0.46575001 8291711
-0.074479908 0.0073533063 0.46525002 8160125
-0.073422939 0.0073493551 0.46500003 7831420
-0.072367065 0.0073454035 0.46475002 7963776
-0.071350664 0.0073454035 0.46475002 7700604
-0.070296414 0.0073414524 0.46450001 7569271
-0.069280565 0.0073414524 0.46450001 7832443
-0.068227969 0.0073375013 0.46425003 7765880
-0.067176469 0.0073335497 0.46400002 7896953
-0.066126056 0.007329599 0.46375003 7962744
-0.065076739 0.0073256474 0.46350002 7765878
-0.064028516 0.0073216958 0.46325001 7700085
-0.062981389 0.0073177451 0.46300003 7961974
-0.06193535 0.0073137935 0.46275002 7831160
-0.060923323 0.0073137935 0.46275002 7765367
-0.059911296 0.0073137935 0.46275002 7567988
-0.05893109 0.0073177451 0.46300003 7699574
-0.057918511 0.0073177451 0.46300003 7502455
-0.056936663 0.0073216958 0.46325001 7634041
-0.05592354 0.0073216958 0.46325001 7634041
-0.054940052 0.0073256474 0.46350002 7240306
-0.053926386 0.0073256474 0.46350002 7240053
-0.052912716 0.0073256474 0.46350002 7305076
-0.051899046 0.0073256474 0.46350002 7567988
-0.050885376 0.0073256474 0.46350002 7436400
-0.049871709 0.0073256474 0.46350002 7436913
-0.048858039 0.0073256474 0.46350002 7371122
-0.047844373 0.0073256474 0.46350002 7371122
-0.046830703 0.0073256474 0.46350002 7306099
-0.045792323 0.0073216958 0.46325001 7305329
-0.044755034 0.0073177451 0.46300003 7436149
-0.043742459 0.0073177451 0.46300003 7501172
-0.042729881 0.0073177451 0.46300003 7369839
-0.04171731 0.0073177451 0.46300003 7239023
-0.040726714 0.0073216958 0.46325001 7305329
-0.039735023 0.0073256474 0.46350002 7042157
-0.038742241 0.007329599 0.46375003 6976364
-0.037748359 0.0073335497 0.46400002 7107437
-0.036733601 0.0073335497 0.46400002 7042157
-0.035738081 0.0073375013 0.46425003 7173743
-0.034722775 0.0073375013 0.46425003 7042157
-0.033707466 0.0073375013 0.46425003 6976364
-0.032692157 0.0073375013 0.46425003 6910058
-0.031659786 0.0073335497 0.46400002 6844265
-0.030645026 0.0073335497 0.46400002 7042157
-0.029630262 0.0073335497 0.46400002 6844778
-0.028615501 0.0073335497 0.46400002 6910058
-0.027600739 0.0073335497 0.46400002 6975851
-0.026585976 0.0073335497 0.46400002 6844778
-0.025571216 0.0073335497 0.46400002 6910318
-0.024556452 0.0073335497 0.46400002 6910318
-0.023541691 0.0073335497 0.46400002 6910318
-0.022514792 0.007329599 0.46375003 6844265
-0.021500576 0.007329599 0.46375003 6844776
-0.02048636 0.007329599 0.46375003 6910058
-0.019472146 0.007329599 0.46375003 6712939
-0.018457931 0.007329599 0.46375003 6844525
-0.017443715 0.007329599 0.46375003 6844012
-0.016438356 0.0073335497 0.46400002 6844265
-0.015423593 0.0073335497 0.46400002 6844265
-0.014408831 0.0073335497 0.46400002 6778983
-0.013394068 0.0073335497 0.46400002 6909286
-0.012379306 0.0073335497 0.46400002 6844265
-0.011364544 0.0073335497 0.46400002 6713192
-0.010349781 0.0073335497 0.46400002 7040874
-0.0093299905 0.007329599 0.46375003 6777702
-0.0083157746 0.007329599 0.46375003 6975081
-0.0073015592 0.007329599 0.46375003 6778985
-0.0062873438 0.007329599 0.46375003 6581606
-0.0052731284 0.007329599 0.46375003 6844265
-0.0042612087 0.0073335497 0.46400002 6909288
-0.0032481954 0.0073375013 0.46425003 6975081
-0.0022340887 0.0073414524 0.46450001 6975081
-0.0012182331 0.0073414524 0.46450001 6778219
-0.00020248644 0.0073454035 0.46475002 6778219
0.00081391603 0.0073454035 0.46475002 6778472
0.0018303186 0.0073454035 0.46475002 6844265
0.0028451895 0.0073414524 0.46450001 6581606
0.0038610452 0.0073414524 0.46450001 6778985
0.0048769009 0.0073414524 0.46450001 6778985
0.0058895852 0.0073375013 0.46425003 6778472
0.0069048945 0.0073375013 0.46425003 6910058
0.0079202037 0.0073375013 0.46425003 6581606
0.008935512 0.0073375013 0.46425003 6778985
0.0099561792 0.0073414524 0.46450001 6713192
0.010972035 0.0073414524 0.46450001 6844778
0.011987891 0.0073414524 0.46450001 6778472
0.013003746 0.0073414524 0.46450001 6844263
0.014019602 0.0073414524 0.46450001 6844265
0.01504355 0.0073454035 0.46475002 6974828
0.016059952 0.0073454035 0.46475002 7040621
0.017076354 0.0073454035 0.46475002 6909288
0.018102491 0.0073493551 0.46500003 6844265
0.019129718 0.0073533063 0.46525002 6778472
0.020147214 0.0073533063 0.46525002 6844265
0.021176083 0.0073572574 0.46550003 6581606
0.022194127 0.0073572574 0.46550003 6778985
0.023212168 0.0073572574 0.46550003 6778985
0.024230212 0.0073572574 0.46550003 6910058
0.025221135 0.0073493551 0.46500003 6646886
0.02620987 0.0073414524 0.46450001 6778472
0.027211074 0.0073375013 0.46425003 6778472
0.028226383 0.0073375013 0.46425003 6844012
0.029241692 0.0073375013 0.46425003 6910058
0.030273292 0.0073414524 0.46450001 6974828
0.03135651 0.0073572574 0.46550003 6844012
0.032461487 0.007377014 0.46675003 6844265
0.033482265 0.007377014 0.46675003 6844265
0.034503039 0.007377014 0.46675003 6581606
0.035523817 0.007377014 0.46675003 6581606
0.036544595 0.007377014 0.46675003 6713192
0.037545249 0.0073730624 0.46650001 6713192
0.038586147 0.007377014 0.46675003 6713192
0.039606925 0.007377014 0.46675003 6778472
0.040627699 0.007377014 0.46675003 6778470
0.041670784 0.0073809647 0.46700001 6646884
0.042692106 0.0073809647 0.46700001 6712939
0.043713428 0.0073809647 0.46700001 6712939
0.04473475 0.0073809647 0.46700001 6580840
0.045756076 0.0073809647 0.46700001 6909035
0.046777397 0.0073809647 0.46700001 6777449
0.047824312 0.0073849163 0.46725002 6974828
0.048872318 0.0073888679 0.46750003 6909035
0.049948096 0.0073967702 0.46800002 6580842
0.050971605 0.0073967702 0.46800002 6580840
0.052022889 0.0074007218 0.46825004 6646633
0.053075269 0.0074046724 0.46850002 6778472
0.05412874 0.007408624 0.46875003 6581091
0.055183306 0.0074125752 0.46900001 6646886
0.056238964 0.0074165263 0.46925002 6581093
0.057295721 0.0074204779 0.46950004 6646633
0.058322512 0.0074204779 0.46950004 6581093
0.0593809 0.0074244291 0.46975002 6778472
0.060408242 0.0074244291 0.46975002 6646633
0.061468277 0.0074283802 0.47000003 6580840
0.062496159 0.0074283802 0.47000003 6581093
0.063524038 0.0074283802 0.47000003 6777700
0.064551927 0.0074283802 0.47000003 6909288
0.065579809 0.0074283802 0.47000003 6711909
0.066607699 0.0074283802 0.47000003 6515300
0.067635581 0.0074283802 0.47000003 6515813
0.068699986 0.0074323313 0.47025001 6778472
0.069987908 0.0074599907 0.47200003 6777702
0.0710954 0.007467893 0.47250003 6711909
0.072166905 0.0074718441 0.47275001 6908518
0.073239528 0.0074757957 0.47300002 6711907
0.074273966 0.0074757957 0.47300002 6646884
0.075348213 0.0074797468 0.47325003 6711907
0.076383203 0.0074797468 0.47325003 6711909
0.077418201 0.0074797468 0.47325003 6777449
0.078494638 0.007483698 0.47350001 6777449
0.079572164 0.0074876496 0.47375003 6711909
0.080693319 0.0074955518 0.47425002 6711909
0.08185976 0.0075074057 0.47500002 6581093
0.082985833 0.007515308 0.47550002 6253158
0.08406993 0.0075192596 0.47575003 6515813
0.085155107 0.0075232107 0.47600001 6515560
0.086241379 0.0075271619 0.47625002 6580840
0.087328762 0.0075311135 0.47650003 6711909
0.08846359 0.0075390157 0.47700003 6711909
0.089553684 0.0075429669 0.47725001 6711909
0.090644881 0.0075469185 0.47750002 6186082
0.091689177 0.0075469185 0.47750002 6449256
0.092782013 0.0075508696 0.47775003 6645863
0.093826845 0.0075508696 0.47775003 6710888
0.094921321 0.0075548207 0.47800002 6645863
0.095966704 0.0075548207 0.47800002 6711656
0.097062826 0.0075587723 0.47825003 6318181
0.098570317 0.0075943335 0.48050001 6449769
0.099672996 0.0075982846 0.48075002 6580840
0.10072439 0.0075982846 0.48075002 6580840
0.10182872 0.0076022362 0.48100004 6317668
0.10298759 0.0076101385 0.48150003 6580840
0.10409465 0.0076140896 0.48175001 6581093
0.1052028 0.0076180412 0.48200002 6646886
0.10631204 0.0076219924 0.48225003 6974828
0.10747803 0.0076298951 0.48275003 6842472
0.10859 0.0076338458 0.48300001 6908265
0.10970308 0.0076377974 0.48325002 6777449
0.11081724 0.007641749 0.48350003 6844012
0.11193249 0.0076456997 0.48375002 6580840
0.11310723 0.0076536024 0.48425001 6777449
0.1143431 0.0076654563 0.48500001 6515560
0.11552276 0.007673359 0.48550004 6384997
0.11664458 0.0076773101 0.48575002 6713192
0.11782806 0.0076852124 0.48625001 6580840
0.11895261 0.007689164 0.48650002 6580840
0.12013993 0.0076970663 0.48700002 6580840
0.12151609 0.0077168224 0.48825002 6777449
0.12270943 0.0077247252 0.48875001 6646633
0.12384164 0.0077286763 0.48900002 6449767
0.12491107 0.0077286763 0.48900002 6384744
0.1259805 0.0077286763 0.48900002 6384744
0.12704994 0.0077286763 0.48900002 6844525
0.12818487 0.0077326279 0.48925003 6712941
0.12925486 0.0077326279 0.48925003 6713711
0.13105737 0.0077760918 0.49200001 6712939
0.13220052 0.0077800429 0.49225003 6581606
0.13334475 0.0077839945 0.49250004 6778732
0.13455832 0.0077918968 0.49300003 6712939
0.13570528 0.007795848 0.49325001 6515047
0.13699199 0.0078077018 0.49400002 6646635
0.13856149 0.0078353602 0.49575001 6712941
0.13978653 0.0078432634 0.49625003 6515564
0.14087182 0.0078432634 0.49625003 6712689
0.14188561 0.0078393118 0.49600002 6712943
0.14304242 0.0078432634 0.49625003 6712941
0.14557877 0.0078630196 0.49750003 6318953
0.1468879 0.0078748735 0.49825004 6385259
0.14812607 0.0078827757 0.49875003 6450537
0.14936641 0.007890678 0.49925002 6384746
0.15136236 0.0079380935 0.50225002 6450539
0.15253668 0.0079420442 0.5025 6844527
0.15371208 0.0079459967 0.50275004 6516845
0.15488857 0.0079499474 0.50300002 6384746
0.15606615 0.007953898 0.50325 6319466
0.15716675 0.007953898 0.50325 6385259
0.15834598 0.0079578506 0.50350004 6582125
0.15952629 0.0079618013 0.50375003 6319466
0.16182373 0.0080210706 0.50750005 6384744
0.16293363 0.0080210706 0.50750005 6253158
0.16412434 0.0080250213 0.50775003 6515560
0.16531613 0.0080289729 0.50800002 6450537
