# .PCD v0.7 - Point Cloud Data file format
VERSION 0.7
FIELDS x y z rgb
SIZE 4 4 4 4
TYPE F F F U
COUNT 1 1 1 1
WIDTH 1115
HEIGHT 1
VIEWPOINT 0 0 0 1 0 0 0
POINTS 1115
DATA ascii
0.10108627 -0.11967721 0.50350004 6909288
0.10344242 -0.11985548 0.50425005 6909288
0.10464887 -0.11997432 0.50475001 6581093
0.10585751 -0.12009317 0.50525004 6778472
0.10712127 -0.12027144 0.50600004 6777702
0.10833482 -0.12039027 0.50650001 6581091
0.10955057 -0.12050913 0.50700003 6646884
0.11076851 -0.12062798 0.50750005 6646884
0.11193351 -0.1206874 0.50775003 6909288
0.11337791 -0.12104394 0.50925004 6777700
0.11482886 -0.12140045 0.51075 6711909
0.11605939 -0.1215193 0.51125002 6711907
0.11723477 -0.12157872 0.5115 6711909
0.11841127 -0.12163816 0.51175004 6711909
0.11958885 -0.12169757 0.51200002 6778472
0.12076753 -0.12175699 0.51225001 6646884
0.12194731 -0.12181643 0.51250005 6777700
0.12312817 -0.12187584 0.51275003 6646884
0.12437071 -0.1219947 0.51325005 6516065
0.12641007 -0.12288603 0.51700002 6516065
0.12760241 -0.12294545 0.51725 6646884
0.12873363 -0.12294545 0.51725 6842723
0.12992764 -0.12300488 0.51750004 6908516
0.13105941 -0.12300488 0.51750004 6711909
0.13238275 -0.12318315 0.51825005 6449505
0.13510424 -0.1235991 0.52000004 6579805
0.13630696 -0.12365852 0.52025002 6382172
0.13751078 -0.12371794 0.5205 6513501
0.13871571 -0.12377737 0.52075005 6512985
0.13992174 -0.12383679 0.52100003 6382169
0.14112884 -0.12389621 0.52125001 6382426
0.14240527 -0.12401506 0.52175003 6710880
0.14361511 -0.12407448 0.52200001 6776927
-0.26348999 -0.12063757 0.51225001 5723985
-0.26377827 -0.12128522 0.51500005 6316122
-0.26290694 -0.12140297 0.51550001 6250840
-0.23904978 -0.11851802 0.50325 6512731
-0.20906413 -0.11592747 0.49225003 6513501
-0.20788194 -0.1158686 0.49200001 6513501
-0.20070951 -0.11545646 0.49025002 6579805
-0.19953553 -0.11539758 0.49000001 6514528
-0.1984639 -0.11539758 0.49000001 6447965
-0.19729158 -0.11533871 0.48975003 6645344
-0.1927117 -0.11516208 0.48900002 6579551
-0.19134833 -0.11498545 0.48825002 6514528
-0.19008568 -0.1148677 0.48775002 6579551
-0.18892209 -0.11480882 0.48750001 6841696
-0.18766326 -0.11469107 0.48700002 6776157
-0.1865024 -0.1146322 0.48675004 6841696
-0.18515216 -0.11445557 0.48600003 6645089
-0.1836158 -0.11416119 0.48475003 6710882
-0.18246152 -0.1141023 0.48450002 6579553
-0.18130831 -0.11404343 0.48425001 6580575
-0.18006316 -0.11392568 0.48375002 6579805
-0.1789127 -0.11386681 0.48350003 6645089
-0.17767136 -0.11374905 0.48300001 6645344
-0.17643219 -0.11363129 0.48250002 6514528
-0.17528611 -0.11357243 0.48225003 6448735
-0.17414112 -0.11351354 0.48200002 6317149
-0.17299721 -0.11345466 0.48175001 6514530
-0.17176518 -0.11333691 0.48125002 6514528
-0.17062402 -0.11327804 0.48100004 6646114
-0.16948393 -0.11321916 0.48075002 6842725
-0.16825737 -0.11310142 0.48025003 6842466
-0.16712002 -0.11304253 0.48000002 6579553
-0.16598377 -0.11298366 0.47975004 6776930
-0.16493456 -0.11298366 0.47975004 6908516
-0.16379996 -0.11292478 0.47950003 6776930
-0.16266644 -0.1128659 0.47925001 7040356
-0.16153403 -0.11280703 0.47900003 6711907
-0.16040269 -0.11274815 0.47875002 6580321
-0.15927245 -0.11268927 0.47850001 6777184
-0.15822598 -0.11268927 0.47850001 6842466
-0.15717949 -0.11268927 0.47850001 6711909
-0.15613303 -0.11268927 0.47850001 6711909
-0.15508655 -0.11268927 0.47850001 6646886
-0.1539596 -0.1126304 0.47825003 6711907
-0.15283374 -0.11257152 0.47800002 6515298
-0.15170899 -0.11251265 0.47775003 6646884
-0.15058531 -0.11245377 0.47750002 6646114
-0.14946273 -0.11239489 0.47725001 6908516
-0.14834124 -0.11233602 0.47700003 6974052
-0.14706644 -0.11215939 0.47625002 6974306
-0.14587158 -0.11204164 0.47575003 6777700
-0.14467892 -0.11192389 0.47525004 6778470
-0.14363955 -0.11192389 0.47525004 6844263
-0.14252517 -0.11186501 0.47500002 6975079
-0.14141189 -0.11180613 0.47475001 6975333
-0.14029969 -0.11174726 0.47450003 7041124
-0.13918859 -0.11168838 0.47425002 7105892
-0.13807859 -0.11162951 0.47400004 7171690
-0.13696967 -0.11157063 0.47375003 6910058
-0.13586184 -0.11151174 0.47350001 7172712
-0.13482632 -0.11151174 0.47350001 7106919
-0.13379078 -0.11151174 0.47350001 7106665
-0.13275523 -0.11151174 0.47350001 7040872
-0.13171971 -0.11151174 0.47350001 7238251
-0.13061517 -0.11145288 0.47325003 7172458
-0.12958017 -0.11145288 0.47325003 7303274
-0.12847728 -0.111394 0.47300002 7566446
-0.12744282 -0.111394 0.47300002 7369839
-0.12627476 -0.11127625 0.47250003 7369839
-0.12517515 -0.11121736 0.47225001 7698032
-0.12414234 -0.11121736 0.47225001 7632241
-0.12310953 -0.11121736 0.47225001 7567218
-0.12207673 -0.11121736 0.47225001 7566446
-0.12117207 -0.11133511 0.47275001 7501423
-0.12020171 -0.111394 0.47300002 7369837
-0.11923026 -0.11145288 0.47325003 7566446
-0.11825769 -0.11151174 0.47350001 7961458
-0.11716027 -0.11145288 0.47325003 7632236
-0.11612528 -0.11145288 0.47325003 7632239
-0.11496868 -0.11133511 0.47275001 7764079
-0.11375404 -0.1111585 0.47200003 7830642
-0.11260237 -0.11104073 0.47150001 7829872
-0.11151205 -0.11098187 0.47125003 7829872
-0.11042281 -0.11092298 0.47100002 8027251
-0.10939275 -0.11092298 0.47100002 7830642
-0.10836267 -0.11092298 0.47100002 8027767
-0.10733261 -0.11092298 0.47100002 7961976
-0.10630253 -0.11092298 0.47100002 7765367
-0.10527246 -0.11092298 0.47100002 7831158
-0.10424239 -0.11092298 0.47100002 7830388
-0.10321232 -0.11092298 0.47100002 7830390
-0.10212802 -0.11086411 0.47075003 7830137
-0.10109849 -0.11086411 0.47075003 7765367
-0.10006896 -0.11086411 0.47075003 7698804
-0.098986849 -0.11080524 0.47050002 7830390
-0.097957872 -0.11080524 0.47050002 7830388
-0.096928887 -0.11080524 0.47050002 7698802
-0.09589991 -0.11080524 0.47050002 7896183
-0.094870932 -0.11080524 0.47050002 7830388
-0.093841963 -0.11080524 0.47050002 7830642
-0.092812978 -0.11080524 0.47050002 7830642
-0.091735229 -0.11074635 0.47025001 7896181
-0.090706803 -0.11074635 0.47025001 7633011
-0.089678369 -0.11074635 0.47025001 7698804
-0.088602811 -0.11068748 0.47000003 7633011
-0.087621503 -0.11074635 0.47025001 7829620
-0.086593077 -0.11074635 0.47025001 7829618
-0.085564643 -0.11074635 0.47025001 7896181
-0.084581152 -0.11080524 0.47050002 7567986
-0.083552182 -0.11080524 0.47050002 7502193
-0.082523204 -0.11080524 0.47050002 7698804
-0.081450924 -0.11074635 0.47025001 7633009
-0.080422483 -0.11074635 0.47025001 7699572
-0.07935185 -0.11068748 0.47000003 7567216
-0.078323968 -0.11068748 0.47000003 7633009
-0.077337198 -0.11074635 0.47025001 7502193
-0.076349333 -0.11080524 0.47050002 7436400
-0.07536038 -0.11086411 0.47075003 7633009
-0.074370332 -0.11092298 0.47100002 7633009
-0.073340259 -0.11092298 0.47100002 7370607
-0.072310194 -0.11092298 0.47100002 7370607
-0.071280114 -0.11092298 0.47100002 7502195
-0.070250042 -0.11092298 0.47100002 7567218
-0.069219977 -0.11092298 0.47100002 7698034
-0.068189904 -0.11092298 0.47100002 7501425
-0.067159832 -0.11092298 0.47100002 7435632
-0.066164866 -0.11098187 0.47125003 7632241
-0.06513425 -0.11098187 0.47125003 7566448
-0.064103633 -0.11098187 0.47125003 7698032
-0.063039549 -0.11092298 0.47100002 7567216
-0.062009476 -0.11092298 0.47100002 7763825
-0.060947042 -0.11086411 0.47075003 7567470
-0.059917517 -0.11086411 0.47075003 7435632
-0.058887988 -0.11086411 0.47075003 7435379
-0.057919919 -0.11098187 0.47125003 7435379
-0.056949664 -0.11109962 0.47175002 7435632
-0.055947583 -0.1111585 0.47200003 7370607
-0.054944411 -0.11121736 0.47225001 7239021
-0.053911604 -0.11121736 0.47225001 7239021
-0.052878801 -0.11121736 0.47225001 7369839
-0.051845994 -0.11121736 0.47225001 7107437
-0.050813191 -0.11121736 0.47225001 7107437
-0.049754035 -0.1111585 0.47200003 7239023
-0.048670165 -0.11104073 0.47150001 7107437
-0.047588479 -0.11092298 0.47100002 7238251
-0.0465337 -0.11086411 0.47075003 7435884
-0.045504171 -0.11086411 0.47075003 7370091
-0.04447465 -0.11086411 0.47075003 7238251
-0.043468196 -0.11092298 0.47100002 7370861
-0.04246065 -0.11098187 0.47125003 7041896
-0.041452013 -0.11104073 0.47150001 7238251
-0.040420845 -0.11104073 0.47150001 7172458
-0.039389685 -0.11104073 0.47150001 7238505
-0.038358517 -0.11104073 0.47150001 7238251
-0.037327353 -0.11104073 0.47150001 7172458
-0.036296189 -0.11104073 0.47150001 7172458
-0.035283726 -0.11109962 0.47175002 7238251
-0.034270164 -0.1111585 0.47200003 7107435
-0.033237908 -0.1111585 0.47200003 7106667
-0.032222703 -0.11121736 0.47225001 7172460
-0.0311899 -0.11121736 0.47225001 7238253
-0.030157093 -0.11121736 0.47225001 7172460
-0.029139707 -0.11127625 0.47250003 7369067
-0.028106356 -0.11127625 0.47250003 7238251
-0.027073003 -0.11127625 0.47250003 7041644
-0.026039654 -0.11127625 0.47250003 7042157
-0.025006302 -0.11127625 0.47250003 7041642
-0.023972951 -0.11127625 0.47250003 6975849
-0.0229396 -0.11127625 0.47250003 7041644
-0.021906247 -0.11127625 0.47250003 7041642
-0.020872897 -0.11127625 0.47250003 7107435
-0.01985004 -0.11133511 0.47275001 6976362
-0.018816141 -0.11133511 0.47275001 6976362
-0.017791647 -0.111394 0.47300002 6975849
-0.016757203 -0.111394 0.47300002 6975849
-0.015731068 -0.11145288 0.47325003 6976362
-0.014696077 -0.11145288 0.47325003 6910569
-0.013661084 -0.11145288 0.47325003 6975851
-0.012626092 -0.11145288 0.47325003 6975849
-0.0115911 -0.11145288 0.47325003 7369837
-0.010556108 -0.11145288 0.47325003 7172458
-0.0095211165 -0.11145288 0.47325003 7041642
-0.0084861247 -0.11145288 0.47325003 7041642
-0.0074511329 -0.11145288 0.47325003 6910056
-0.0064195301 -0.11151174 0.47350001 6910056
-0.0053839916 -0.11151174 0.47350001 7106665
-0.0043507493 -0.11157063 0.47375003 6975849
-0.0033164129 -0.11162951 0.47400004 6844265
-0.0022809831 -0.11168838 0.47425002 6910058
-0.0012438043 -0.11168838 0.47425002 6910058
-0.0002067344 -0.11174726 0.47450003 7040874
0.00083142903 -0.11180613 0.47475001 7239023
0.0018697014 -0.11180613 0.47475001 6910058
0.0029095048 -0.11186501 0.47500002 6975851
0.0039504021 -0.11192389 0.47525004 6910571
0.0049950178 -0.11204164 0.47575003 6910056
0.0060386485 -0.11210051 0.47600001 7106919
0.0070833731 -0.11215939 0.47625002 7041642
0.0081249261 -0.11215939 0.47625002 6910571
0.0091712903 -0.11221827 0.47650003 6844778
0.01021339 -0.11221827 0.47650003 6778985
0.011261395 -0.11227714 0.47675002 6910058
0.012310494 -0.11233602 0.47700003 6910058
0.013353686 -0.11233602 0.47700003 6975849
0.014396879 -0.11233602 0.47700003 6844776
0.015440072 -0.11233602 0.47700003 6844776
0.016474625 -0.11227714 0.47675002 6910058
0.017517272 -0.11227714 0.47675002 6844265
0.018550187 -0.11221827 0.47650003 7040874
0.019592287 -0.11221827 0.47650003 7106667
0.020634387 -0.11221827 0.47650003 7040874
0.021687858 -0.11227714 0.47675002 7040874
0.022742424 -0.11233602 0.47700003 6910058
0.023785617 -0.11233602 0.47700003 6910058
0.024880862 -0.11257152 0.47800002 6975081
0.02602116 -0.11298366 0.47975004 7040874
0.027098581 -0.11310142 0.48025003 6778985
0.028178187 -0.11321916 0.48075002 6844778
0.029244782 -0.11327804 0.48100004 6778985
0.030296724 -0.11327804 0.48100004 6909288
0.03133237 -0.11321916 0.48075002 7171690
0.032366924 -0.11316028 0.48050001 6975081
0.033400383 -0.11310142 0.48025003 6844265
0.034450687 -0.11310142 0.48025003 7040874
0.035482503 -0.11304253 0.48000002 7040872
0.03653226 -0.11304253 0.48000002 7105895
0.037601586 -0.11310142 0.48025003 6975081
0.038772613 -0.11345466 0.48175001 6910058
0.039950199 -0.11380792 0.48325002 6778472
0.041049488 -0.11392568 0.48375002 6778472
0.042129204 -0.11398456 0.48400003 7105897
0.043187708 -0.11398456 0.48400003 7237483
0.044269063 -0.11404343 0.48425001 6975081
0.04532811 -0.11404343 0.48425001 7040874
0.046387158 -0.11404343 0.48425001 7105895
0.047470707 -0.1141023 0.48450002 7040874
0.048580382 -0.11422006 0.48500001 6711656
0.049717836 -0.11439669 0.48575002 6711656
0.050806303 -0.11445557 0.48600003 6778472
0.05186918 -0.11445557 0.48600003 6844263
0.052904822 -0.11439669 0.48575002 6515811
0.053967152 -0.11439669 0.48575002 6778985
0.055001162 -0.11433782 0.48550004 6778472
0.056062944 -0.11433782 0.48550004 6844265
0.057154141 -0.11439669 0.48575002 6778472
0.05824643 -0.11445557 0.48600003 6713192
0.059339818 -0.11451444 0.48625001 6778985
0.060434293 -0.11457332 0.48650002 6581091
0.061561465 -0.11469107 0.48700002 6711907
0.062690832 -0.11480882 0.48750001 6777702
0.063822381 -0.11492658 0.48800004 6974828
0.065454751 -0.11592747 0.49225003 6908265
0.06659887 -0.11604522 0.49275002 6975081
0.067745186 -0.11616298 0.49325001 6909035
0.068823919 -0.11616298 0.49325001 6974828
0.069902651 -0.11616298 0.49325001 6777702
0.070981376 -0.11616298 0.49325001 6778472
0.07198707 -0.11604522 0.49275002 6909288
0.073064707 -0.11604522 0.49275002 6909288
0.074142344 -0.11604522 0.49275002 6778470
0.075219981 -0.11604522 0.49275002 6778470
0.076336332 -0.1161041 0.49300003 6844263
0.07745377 -0.11616298 0.49325001 6646884
0.078572303 -0.11622185 0.49350002 6646633
0.079772636 -0.11639848 0.49425003 6646886
0.081262529 -0.11698725 0.49675003 6646886
0.082390353 -0.11704612 0.49700001 6777702
0.08351928 -0.117105 0.49725002 6777702
0.08469183 -0.11722275 0.49775001 6777700
0.085823491 -0.11728163 0.49800003 6711909
0.086999871 -0.11739938 0.49850002 6646886
0.088178441 -0.11751713 0.49900001 6515811
0.089359194 -0.11763489 0.49950004 6581091
0.09049686 -0.11769376 0.49975002 6713192
0.09163563 -0.11775263 0.5 6646886
0.092775494 -0.11781152 0.50025004 6581093
0.093916439 -0.11787039 0.50050002 6713192
0.095058478 -0.11792926 0.50075001 6581093
0.096297637 -0.1181059 0.50150001 6778472
0.097540066 -0.11828253 0.50225002 6646884
0.098736681 -0.11840028 0.50275004 6646886
0.099935465 -0.11851802 0.50325 6515300
0.10108627 -0.11857691 0.50350004 6844265
0.10228889 -0.11869466 0.50400001 6777702
0.10344242 -0.11875354 0.50425005 7040104
0.10464887 -0.11887129 0.50475001 6908518
0.10585751 -0.11898904 0.50525004 6777449
0.10717419 -0.11922455 0.50625002 6581093
0.10844177 -0.11940118 0.50700003 6581091
0.10965861 -0.11951894 0.50750005 6777954
0.11087764 -0.11963668 0.50800002 6777700
0.11253975 -0.12022544 0.51050001 6909288
0.11371186 -0.12028431 0.51075 6777702
0.11488508 -0.1203432 0.51100004 6777700
0.11600263 -0.1203432 0.51100004 6712161
0.11717748 -0.12040208 0.51125002 6909286
0.11835342 -0.12046094 0.5115 6711909
0.11953046 -0.12051983 0.51175004 6581091
0.12070859 -0.12057871 0.51200002 6646368
0.12306814 -0.12069646 0.51250005 6515813
0.12449186 -0.12099084 0.51375002 6581091
0.12641007 -0.12175623 0.51700002 6646884
0.12754075 -0.12175623 0.51700002 6777700
0.12867142 -0.12175623 0.51700002 6711907
0.12986486 -0.1218151 0.51725 6777700
0.13099608 -0.1218151 0.51725 6515300
0.13219117 -0.12187399 0.51750004 6515813
0.133967 -0.12246275 0.52000004 6252639
0.13510424 -0.12246275 0.52000004 6514782
0.13630696 -0.12252162 0.52025002 6645341
0.13751078 -0.12258049 0.5205 6447962
0.13864911 -0.12258049 0.5205 6512985
0.13992174 -0.12269825 0.52100003 6250583
0.14126422 -0.12287488 0.52175003 6382426
0.1424735 -0.12293375 0.52200001 6645598
0.1436839 -0.12299263 0.52225 6842977
0.14482604 -0.12299263 0.52225 6842977
-0.26348999 -0.11951815 0.51225001 5789780
-0.26339412 -0.1199848 0.51425004 5988954
-0.21836002 -0.11578503 0.49625003 6447967
-0.20060715 -0.11432678 0.49000001 6579551
-0.19953553 -0.11432678 0.49000001 6776673
-0.19836266 -0.11426845 0.48975003 6579551
-0.19719087 -0.11421012 0.48950002 6579553
-0.19612032 -0.11421012 0.48950002 6448737
-0.19378112 -0.11409346 0.48900002 6710880
-0.19251464 -0.11397681 0.48850003 6579553
-0.19125035 -0.11386015 0.48800004 6448737
-0.19008568 -0.11380181 0.48775002 6645344
-0.1888252 -0.11368515 0.48725003 6711134
-0.18766326 -0.11362682 0.48700002 6579551
-0.1865024 -0.11356849 0.48675004 6711137
-0.18439022 -0.11292686 0.48400003 6645344
-0.18333171 -0.11292686 0.48400003 6645087
-0.18227321 -0.11292686 0.48400003 6776673
-0.18112111 -0.11286853 0.48375002 6711137
-0.18006316 -0.11286853 0.48375002 6514530
-0.17882018 -0.11275187 0.48325002 6580323
-0.17767136 -0.11269354 0.48300001 6580321
-0.17652361 -0.11263522 0.48275003 6448735
-0.17528611 -0.11251856 0.48225003 6711137
-0.17414112 -0.11246023 0.48200002 6185565
-0.17299721 -0.11240189 0.48175001 6711139
-0.17185441 -0.11234356 0.48150003 6776675
-0.17062402 -0.1122269 0.48100004 6645344
-0.16948393 -0.11216857 0.48075002 6842466
-0.16825737 -0.11205191 0.48025003 6776927
-0.16712002 -0.11199358 0.48000002 6645344
-0.16598377 -0.11193526 0.47975004 6842725
-0.16493456 -0.11193526 0.47975004 6842466
-0.16379996 -0.11187692 0.47950003 6842466
-0.16266644 -0.11181859 0.47925001 6776930
-0.16161832 -0.11181859 0.47925001 6580321
-0.16048646 -0.11176027 0.47900003 6580321
-0.15935567 -0.11170194 0.47875002 6514528
-0.15830866 -0.11170194 0.47875002 6711907
-0.15726162 -0.11170194 0.47875002 6909286
-0.15613303 -0.1116436 0.47850001 6646114
-0.15508655 -0.1116436 0.47850001 6711907
-0.1539596 -0.11158527 0.47825003 6581091
-0.15275382 -0.11146861 0.47775003 6711907
-0.1516296 -0.11141028 0.47750002 6777700
-0.15050647 -0.11135195 0.47725001 6711907
-0.14938444 -0.11129362 0.47700003 6909286
-0.14826348 -0.11123529 0.47675002 7040102
-0.14714365 -0.11117697 0.47650003 7171685
-0.14594823 -0.1110603 0.47600001 6777700
-0.14475502 -0.11094365 0.47550002 6778472
-0.14363955 -0.11088531 0.47525004 6711909
-0.14252517 -0.11082698 0.47500002 6778470
-0.14148635 -0.11082698 0.47500002 6844263
-0.14029969 -0.11071032 0.47450003 7171942
-0.13918859 -0.11065199 0.47425002 7105895
-0.13800575 -0.11053533 0.47375003 7303017
-0.13689739 -0.110477 0.47350001 7303274
-0.13579012 -0.11041868 0.47325003 7172458
-0.13475513 -0.11041868 0.47325003 7237483
-0.1336495 -0.11036034 0.47300002 7237483
-0.13261506 -0.11036034 0.47300002 7106667
-0.13158061 -0.11036034 0.47300002 7106667
-0.13054617 -0.11036034 0.47300002 7172460
-0.12951171 -0.11036034 0.47300002 7237483
-0.12840936 -0.11030201 0.47275001 7369067
-0.12730812 -0.11024369 0.47250003 7500653
-0.12620795 -0.11018535 0.47225001 7566446
-0.12510888 -0.11012702 0.47200003 7500655
-0.12407663 -0.11012702 0.47200003 7435632
-0.12304437 -0.11012702 0.47200003 7303274
-0.12207673 -0.11018535 0.47225001 7632239
-0.12123615 -0.11036034 0.47300002 7566446
-0.12032877 -0.110477 0.47350001 7435632
-0.11929324 -0.110477 0.47350001 7567216
-0.11825769 -0.110477 0.47350001 7632493
-0.11722216 -0.110477 0.47350001 7698032
-0.11612528 -0.11041868 0.47325003 7632239
-0.11502948 -0.11036034 0.47300002 7697777
-0.11381429 -0.11018535 0.47225001 7895156
-0.11266208 -0.11006869 0.47175002 7567216
-0.11157121 -0.11001036 0.47150001 7830388
-0.11048143 -0.10995203 0.47125003 7698802
-0.10939275 -0.1098937 0.47100002 7633009
-0.10830516 -0.10983538 0.47075003 7633009
-0.10727564 -0.10983538 0.47075003 7830390
-0.10624611 -0.10983538 0.47075003 7829618
-0.10521659 -0.10983538 0.47075003 7829872
-0.10418706 -0.10983538 0.47075003 8027251
-0.10315754 -0.10983538 0.47075003 7829618
-0.10212802 -0.10983538 0.47075003 8158585
-0.1010448 -0.10977704 0.47050002 7961206
-0.10001582 -0.10977704 0.47050002 7961976
-0.098986849 -0.10977704 0.47050002 7699574
-0.097957872 -0.10977704 0.47050002 7765114
-0.096928887 -0.10977704 0.47050002 7567988
-0.09589991 -0.10977704 0.47050002 7765367
-0.094870932 -0.10977704 0.47050002 7830388
-0.093841963 -0.10977704 0.47050002 7830642
-0.092812978 -0.10977704 0.47050002 7698032
-0.091735229 -0.10971871 0.47025001 7830388
-0.090706803 -0.10971871 0.47025001 7633011
-0.089678369 -0.10971871 0.47025001 7566965
-0.088649936 -0.10971871 0.47025001 7830137
-0.087621503 -0.10971871 0.47025001 7698804
-0.086593077 -0.10971871 0.47025001 7763825
-0.085610136 -0.10977704 0.47050002 7829618
-0.084581152 -0.10977704 0.47050002 7435630
-0.083552182 -0.10977704 0.47050002 7830388
-0.082523204 -0.10977704 0.47050002 7436402
-0.081450924 -0.10971871 0.47025001 7567218
-0.080422483 -0.10971871 0.47025001 7567216
-0.07935185 -0.10966039 0.47000003 7567470
-0.078323968 -0.10966039 0.47000003 7830642
-0.077337198 -0.10971871 0.47025001 7567986
-0.076349333 -0.10977704 0.47050002 7436402
-0.07536038 -0.10983538 0.47075003 7633009
-0.074370332 -0.1098937 0.47100002 7698802
-0.073340259 -0.1098937 0.47100002 7830388
-0.072310194 -0.1098937 0.47100002 7633011
-0.071280114 -0.1098937 0.47100002 7567218
-0.070250042 -0.1098937 0.47100002 7763827
-0.069219977 -0.1098937 0.47100002 7698032
-0.068189904 -0.1098937 0.47100002 7632241
-0.067195475 -0.10995203 0.47125003 7698034
-0.066164866 -0.10995203 0.47125003 7763827
-0.06513425 -0.10995203 0.47125003 7829367
-0.064103633 -0.10995203 0.47125003 7632241
-0.063073009 -0.10995203 0.47125003 7567218
-0.062042389 -0.10995203 0.47125003 7435632
-0.061011776 -0.10995203 0.47125003 7435630
-0.05998116 -0.10995203 0.47125003 7567216
-0.058950536 -0.10995203 0.47125003 7435632
-0.057981372 -0.11006869 0.47175002 7435630
-0.056979842 -0.11012702 0.47200003 7435630
-0.055977214 -0.11018535 0.47225001 7239021
-0.054944411 -0.11018535 0.47225001 7173741
-0.053940147 -0.11024369 0.47250003 7239275
-0.052906796 -0.11024369 0.47250003 7304816
-0.051873442 -0.11024369 0.47250003 7369839
-0.050813191 -0.11018535 0.47225001 7239023
-0.049780384 -0.11018535 0.47225001 7239536
-0.04869597 -0.11006869 0.47175002 7173743
-0.04761374 -0.10995203 0.47125003 7239023
-0.04655841 -0.1098937 0.47100002 7369837
-0.045504171 -0.10983538 0.47075003 7238251
-0.04447465 -0.10983538 0.47075003 7172460
-0.043468196 -0.1098937 0.47100002 7239023
-0.042438123 -0.1098937 0.47100002 7239021
-0.041430034 -0.10995203 0.47125003 7041642
-0.040399417 -0.10995203 0.47125003 7238505
-0.039368801 -0.10995203 0.47125003 7303274
-0.038317841 -0.1098937 0.47100002 7303274
-0.037307564 -0.10995203 0.47125003 7107435
-0.036276944 -0.10995203 0.47125003 7172458
-0.035246328 -0.10995203 0.47125003 7041642
-0.034233857 -0.11001036 0.47150001 6975851
-0.033220302 -0.11006869 0.47175002 7238253
-0.032205645 -0.11012702 0.47200003 7106665
-0.0311899 -0.11018535 0.47225001 7304814
-0.030157093 -0.11018535 0.47225001 7172458
-0.02912429 -0.11018535 0.47225001 7238251
-0.028091485 -0.11018535 0.47225001 7172458
-0.02705868 -0.11018535 0.47225001 7107435
-0.026025876 -0.11018535 0.47225001 7107435
-0.024979841 -0.11012702 0.47200003 7238251
-0.023947584 -0.11012702 0.47200003 7369067
-0.022915324 -0.11012702 0.47200003 7369067
-0.021883067 -0.11012702 0.47200003 7238251
-0.020861851 -0.11018535 0.47225001 7238253
-0.019829046 -0.11018535 0.47225001 7041391
-0.018806193 -0.11024369 0.47250003 7041644
-0.017782243 -0.11030201 0.47275001 7107435
-0.016757203 -0.11036034 0.47300002 7107435
-0.015722757 -0.11036034 0.47300002 7107435
-0.014688312 -0.11036034 0.47300002 6975849
-0.013653867 -0.11036034 0.47300002 7238251
-0.012619422 -0.11036034 0.47300002 7041644
-0.011584977 -0.11036034 0.47300002 7041642
-0.010550532 -0.11036034 0.47300002 6910056
-0.0095160864 -0.11036034 0.47300002 7041642
-0.0084816413 -0.11036034 0.47300002 6975849
-0.0074471962 -0.11036034 0.47300002 7040874
-0.0064161411 -0.11041868 0.47325003 7040872
-0.0053839916 -0.110477 0.47350001 7106665
-0.0043507493 -0.11053533 0.47375003 6844265
-0.0033164129 -0.11059367 0.47400004 6844265
-0.0022809831 -0.11065199 0.47425002 7040874
-0.0012438043 -0.11065199 0.47425002 7106665
-0.0002067344 -0.11071032 0.47450003 7040872
0.00083099119 -0.11071032 0.47450003 6910056
0.0018697014 -0.11076865 0.47475001 6975849
0.0029095048 -0.11082698 0.47500002 6975849
0.0039504021 -0.11088531 0.47525004 6910056
0.0049950178 -0.11100198 0.47575003 7040872
0.0060386485 -0.1110603 0.47600001 7040872
0.0070833731 -0.11111863 0.47625002 6910058
0.0081291907 -0.11117697 0.47650003 6844778
0.0091712903 -0.11117697 0.47650003 6844525
0.010218749 -0.11123529 0.47675002 6910058
0.011261395 -0.11123529 0.47675002 6910056
0.012304042 -0.11123529 0.47675002 6844263
0.013346687 -0.11123529 0.47675002 6844776
0.014389333 -0.11123529 0.47675002 6910058
0.01543198 -0.11123529 0.47675002 6910058
0.016474625 -0.11123529 0.47675002 6844778
0.017517272 -0.11123529 0.47675002 6844263
0.018550187 -0.11117697 0.47650003 6975079
0.019592287 -0.11117697 0.47650003 6975081
0.020645211 -0.11123529 0.47675002 6778472
0.021687858 -0.11123529 0.47675002 6844265
0.022742424 -0.11129362 0.47700003 6910058
0.023798082 -0.11135195 0.47725001 6910058
0.024919901 -0.11170194 0.47875002 7040874
0.02604828 -0.11205191 0.48025003 7040874
0.0271409 -0.1122269 0.48100004 6778472
0.028222147 -0.11234356 0.48150003 6975851
0.029259982 -0.11228523 0.48125002 7041644
0.030312469 -0.11228523 0.48125002 7040874
0.031348664 -0.1122269 0.48100004 7171690
0.032366924 -0.11211024 0.48050001 6975081
0.033400383 -0.11205191 0.48025003 6910058
0.034432754 -0.11199358 0.48000002 6975081
0.035482503 -0.11199358 0.48000002 7040874
0.03653226 -0.11199358 0.48000002 6975081
0.037582014 -0.11199358 0.48000002 6975081
0.038893338 -0.11275187 0.48325002 7040874
0.039970867 -0.1128102 0.48350003 6975081
0.041028276 -0.1128102 0.48350003 6975081
0.042107444 -0.11286853 0.48375002 6910058
0.043187708 -0.11292686 0.48400003 6646886
0.044246208 -0.11292686 0.48400003 6778472
0.045304712 -0.11292686 0.48400003 6778472
0.046387158 -0.11298519 0.48425001 6910058
0.047470707 -0.11304352 0.48450002 6581093
0.048705589 -0.11345183 0.48625001 6777451
0.049769014 -0.11345183 0.48625001 6185316
0.050832435 -0.11345183 0.48625001 6909037
0.05186918 -0.11339351 0.48600003 6844265
0.052932054 -0.11339351 0.48600003 6778472
0.053967152 -0.11333517 0.48575002 6713192
0.055029482 -0.11333517 0.48575002 6778472
0.056091808 -0.11333517 0.48575002 6711907
0.057183556 -0.11339351 0.48600003 6777700
0.058276393 -0.11345183 0.48625001 6910058
0.059370328 -0.11351016 0.48650002 6711909
0.060465351 -0.11356849 0.48675004 6646116
0.061593071 -0.11368515 0.48725003 6778470
0.06275513 -0.11386015 0.48800004 6844265
0.064345509 -0.11479342 0.49200001 6844012
0.065487996 -0.11491009 0.49250004 6777449
0.066632666 -0.11502674 0.49300003 6975081
0.067745186 -0.11508507 0.49325001 6711909
0.068823919 -0.11508507 0.49325001 6909035
0.069902651 -0.11508507 0.49325001 6777702
0.070981376 -0.11508507 0.49325001 6778470
0.072023593 -0.11502674 0.49300003 6975079
0.073101774 -0.11502674 0.49300003 6712161
0.074179962 -0.11502674 0.49300003 6909540
0.075258143 -0.11502674 0.49300003 6581858
0.076336332 -0.11502674 0.49300003 6844517
0.07745377 -0.11508507 0.49325001 6909286
0.078572303 -0.1151434 0.49350002 6711909
0.079691932 -0.11520173 0.49375004 6777702
0.081303425 -0.11596002 0.49700001 6646886
0.082473248 -0.11607669 0.49750003 6646886
0.083561271 -0.11607669 0.49750003 6646886
0.084734365 -0.11619334 0.49800003 6711909
0.085866578 -0.11625168 0.49825004 6581093
0.086999871 -0.11631 0.49850002 6581093
0.088178441 -0.11642666 0.49900001 6646884
0.089314468 -0.11648499 0.49925002 6581091
0.090451598 -0.11654332 0.49950004 6515811
0.091589816 -0.11660165 0.49975002 6581606
0.092729121 -0.11665998 0.5 6581606
0.09386953 -0.11671831 0.50025004 6515811
0.095058478 -0.11683497 0.50075001 6646886
0.096297637 -0.11700996 0.50150001 6777702
0.097588614 -0.11724328 0.5025 6777700
0.098785773 -0.11735994 0.50300002 6515300
0.099935465 -0.11741827 0.50325 6646886
0.10113646 -0.11753494 0.50375003 6581093
0.10228889 -0.11759326 0.50400001 6777702
0.10349371 -0.11770993 0.50450003 6777702
0.10475253 -0.11788491 0.50525004 6777702
0.10601465 -0.1180599 0.50600004 6711656
0.10733297 -0.11829323 0.50700003 6711909
0.10854872 -0.11840989 0.50750005 6711907
0.10976664 -0.11852654 0.50800002 6909540
0.11131417 -0.11899319 0.51000005 6909286
0.11259486 -0.11916816 0.51075 6975079
0.11371186 -0.11916816 0.51075 6711907
0.11488508 -0.11922651 0.51100004 6711656
0.11600263 -0.11922651 0.51100004 6842725
0.11717748 -0.11928483 0.51125002 6908518
0.11829557 -0.11928483 0.51125002 6711909
0.11947206 -0.11934315 0.5115 6777700
0.12182833 -0.11945982 0.51200002 6581093
0.12300809 -0.11951815 0.51225001 6646886
0.12473418 -0.12010144 0.51475 6777700
0.12628782 -0.12050976 0.5165 6909286
0.12747908 -0.1205681 0.51675004 6908516
0.12867142 -0.12062642 0.51700002 6777700
0.12980209 -0.12062642 0.51700002 6909286
0.13099608 -0.12068474 0.51725 6646116
0.1321273 -0.12068474 0.51725 6449507
0.133967 -0.12132639 0.52000004 6383712
0.13516918 -0.12138471 0.52025002 6186333
0.13630696 -0.12138471 0.52025002 6447965
0.13751078 -0.12144303 0.5205 6512985
0.13871571 -0.12150138 0.52075005 6381915
0.14019029 -0.12179302 0.52200001 6381915
0.14139958 -0.12185135 0.52225 6447962
0.14254174 -0.12185135 0.52225 6645598
0.1436839 -0.12185135 0.52225 6909540
0.14489537 -0.12190969 0.52250004 6909538
-0.26277944 -0.11909214 0.51525003 6119002
-0.26177955 -0.11914992 0.51550001 6841183
-0.2597765 -0.11926549 0.51600003 6185047
-0.22195083 -0.11487392 0.49700001 6710880
-0.21955585 -0.11475836 0.49650002 6447965
-0.21836002 -0.11470058 0.49625003 6382174
-0.21369539 -0.11452723 0.49550003 6644317
-0.21250446 -0.11446944 0.49525002 6513501
-0.20178168 -0.11331377 0.49025002 6645346
-0.19943373 -0.11319821 0.48975003 6645341
-0.1982614 -0.11314042 0.48950002 6645341
-0.19709016 -0.11308264 0.48925003 6776675
-0.19602017 -0.11308264 0.48925003 6645089
-0.19485056 -0.11302485 0.48900002 6645089
-0.19125035 -0.11279372 0.48800004 6710882
-0.18998824 -0.11267815 0.48750001 6645087
-0.1888252 -0.11262037 0.48725003 6579551
-0.18766326 -0.11256258 0.48700002 6579551
-0.18544871 -0.11186918 0.48400003 6711134
-0.18429497 -0.11181139 0.48375002 6645598
-0.18323702 -0.11181139 0.48375002 6579805
-0.18217906 -0.11181139 0.48375002 6645598
-0.1810275 -0.11175361 0.48350003 6711134
-0.1799701 -0.11175361 0.48350003 6645089
-0.17882018 -0.11169583 0.48325002 6579553
-0.17767136 -0.11163804 0.48300001 6580321
-0.17652361 -0.11158026 0.48275003 6645598
-0.17537698 -0.11152247 0.48250002 6645598
-0.17423144 -0.11146469 0.48225003 6842466
-0.17299721 -0.11134912 0.48175001 6907489
-0.17185441 -0.11129134 0.48150003 6710882
-0.17062402 -0.11117578 0.48100004 6449505
-0.1693958 -0.1110602 0.48050001 6514528
-0.16825737 -0.11100242 0.48025003 6711391
-0.16703299 -0.11088686 0.47975004 6645344
-0.16598377 -0.11088686 0.47975004 6580323
-0.16484861 -0.11082907 0.47950003 6908261
-0.16379996 -0.11082907 0.47950003 6842466
-0.16275129 -0.11082907 0.47950003 6974052
-0.16161832 -0.11077128 0.47925001 6776930
-0.1605702 -0.11077128 0.47925001 6711909
-0.15943889 -0.1107135 0.47900003 6777702
-0.15839133 -0.1107135 0.47900003 6646368
-0.15726162 -0.11065572 0.47875002 6646368
-0.15613303 -0.11059793 0.47850001 6646114
-0.15500553 -0.11054015 0.47825003 6842725
-0.15387912 -0.11048236 0.47800002 6908259
-0.15267387 -0.1103668 0.47750002 6908516
-0.15147083 -0.11025123 0.47700003 7040102
-0.15034878 -0.11019345 0.47675002 6776930
-0.14930613 -0.11019345 0.47675002 7105895
-0.14818574 -0.11013567 0.47650003 6842466
-0.14714365 -0.11013567 0.47650003 7040102
-0.14602488 -0.11007788 0.47625002 6646114
-0.14483112 -0.10996231 0.47575003 6646884
-0.1437151 -0.10990454 0.47550002 6844265
-0.14260018 -0.10984675 0.47525004 6778472
-0.14148635 -0.10978897 0.47500002 6646886
-0.14037362 -0.10973118 0.47475001 6975079
-0.13918859 -0.10961562 0.47425002 7303271
-0.13800575 -0.10950005 0.47375003 7369064
-0.13682511 -0.10938448 0.47325003 7303271
-0.13579012 -0.10938448 0.47325003 7106665
-0.13468394 -0.1093267 0.47300002 7106667
-0.1336495 -0.1093267 0.47300002 7171690
-0.13254496 -0.10926891 0.47275001 7303274
-0.13151106 -0.10926891 0.47275001 7238251
-0.13040817 -0.10921113 0.47250003 6910058
-0.1293748 -0.10921113 0.47250003 6975849
-0.12827355 -0.10915335 0.47225001 7369837
-0.12717339 -0.10909557 0.47200003 7764079
-0.12607433 -0.10903778 0.47175002 7369067
-0.12504262 -0.10903778 0.47175002 7238251
-0.12401091 -0.10903778 0.47175002 7566446
-0.12304437 -0.10909557 0.47200003 7566700
-0.12214136 -0.10921113 0.47250003 7435630
-0.1213643 -0.10944226 0.47350001 7500655
-0.1203923 -0.10950005 0.47375003 7698034
-0.11935622 -0.10950005 0.47375003 7632239
-0.11832014 -0.10950005 0.47375003 8025970
-0.11722216 -0.10944226 0.47350001 7960177
-0.11612528 -0.10938448 0.47325003 7828591
-0.11502948 -0.1093267 0.47300002 7960431
-0.11387454 -0.10921113 0.47250003 7894638
-0.11272179 -0.10909557 0.47200003 7631982
-0.11157121 -0.10897999 0.47150001 7698802
-0.11048143 -0.10892221 0.47125003 7962744
-0.10939275 -0.10886443 0.47100002 7698802
-0.10830516 -0.10880665 0.47075003 7961204
-0.10727564 -0.10880665 0.47075003 8422009
-0.10618968 -0.10874886 0.47050002 8158583
-0.10516071 -0.10874886 0.47050002 8224376
-0.10413174 -0.10874886 0.47050002 8158585
-0.10310276 -0.10874886 0.47050002 8158585
-0.10207378 -0.10874886 0.47050002 8092792
-0.1010448 -0.10874886 0.47050002 7830388
-0.099962674 -0.10869107 0.47025001 7961974
-0.098934248 -0.10869107 0.47025001 7567988
-0.097957872 -0.10874886 0.47050002 7699574
-0.096928887 -0.10874886 0.47050002 7699572
-0.09589991 -0.10874886 0.47050002 7699572
-0.09492135 -0.10880665 0.47075003 8026997
-0.093891822 -0.10880665 0.47075003 8026740
-0.092812978 -0.10874886 0.47050002 7763825
-0.091784 -0.10874886 0.47050002 7961204
-0.090706803 -0.10869107 0.47025001 7698804
-0.089678369 -0.10869107 0.47025001 7502195
-0.088649936 -0.10869107 0.47025001 7436915
-0.087621503 -0.10869107 0.47025001 7700085
-0.086639114 -0.10874886 0.47050002 7699574
-0.085610136 -0.10874886 0.47050002 7765367
-0.084626101 -0.10880665 0.47075003 7567986
-0.08359658 -0.10880665 0.47075003 7436400
-0.082567051 -0.10880665 0.47075003 7567986
-0.081494227 -0.10874886 0.47050002 7765367
-0.080422483 -0.10869107 0.47025001 7567988
-0.079394057 -0.10869107 0.47025001 7698802
-0.078323968 -0.10863329 0.47000003 7830388
-0.077296086 -0.10863329 0.47000003 7567218
-0.076308765 -0.10869107 0.47025001 7502195
-0.075320356 -0.10874886 0.47050002 7304816
-0.074330859 -0.10880665 0.47075003 7436402
-0.073301338 -0.10880665 0.47075003 7698802
-0.072310194 -0.10886443 0.47100002 7567216
-0.071280114 -0.10886443 0.47100002 7501423
-0.070250042 -0.10886443 0.47100002 7567216
-0.069219977 -0.10886443 0.47100002 7829618
-0.068189904 -0.10886443 0.47100002 7566448
-0.067195475 -0.10892221 0.47125003 7763827
-0.066164866 -0.10892221 0.47125003 7567216
-0.065168798 -0.10897999 0.47150001 7567218
-0.064137638 -0.10897999 0.47150001 7501425
-0.063106462 -0.10897999 0.47150001 7435632
-0.062042389 -0.10892221 0.47125003 7436402
-0.061011776 -0.10892221 0.47125003 7304814
-0.060012978 -0.10897999 0.47150001 7436654
-0.058981806 -0.10897999 0.47150001 7370861
-0.057981372 -0.10903778 0.47175002 7632239
-0.056979842 -0.10909557 0.47200003 7238251
-0.055977214 -0.10915335 0.47225001 7436402
-0.054944411 -0.10915335 0.47225001 7239021
-0.053940147 -0.10921113 0.47250003 7238251
-0.052906796 -0.10921113 0.47250003 7239023
-0.051873442 -0.10921113 0.47250003 7370356
-0.050840091 -0.10921113 0.47250003 7304816
-0.049780384 -0.10915335 0.47225001 7304816
-0.048721779 -0.10909557 0.47200003 7173743
-0.047638997 -0.10897999 0.47150001 7304816
-0.046583124 -0.10892221 0.47125003 7239023
-0.045528337 -0.10886443 0.47100002 7435632
-0.04447465 -0.10880665 0.47075003 7107437
-0.043468196 -0.10886443 0.47100002 7239023
-0.042438123 -0.10886443 0.47100002 7107437
-0.041408055 -0.10886443 0.47100002 7107437
-0.040377982 -0.10886443 0.47100002 7173743
-0.039327029 -0.10880665 0.47075003 7041644
-0.038297504 -0.10880665 0.47075003 7303274
-0.037267979 -0.10880665 0.47075003 7238251
-0.036238454 -0.10880665 0.47075003 7172458
-0.035208933 -0.10880665 0.47075003 7172458
-0.034179404 -0.10880665 0.47075003 7041642
-0.033132277 -0.10874886 0.47050002 7041644
-0.032086238 -0.10869107 0.47025001 7172460
-0.031074321 -0.10874886 0.47050002 6976364
-0.03014113 -0.10909557 0.47200003 7042155
-0.02912429 -0.10915335 0.47225001 7106919
-0.028091485 -0.10915335 0.47225001 7041642
-0.027044356 -0.10909557 0.47200003 7041644
-0.02599832 -0.10903778 0.47175002 6975849
-0.024966611 -0.10903778 0.47175002 7238251
-0.023934899 -0.10903778 0.47175002 7172458
-0.022903187 -0.10903778 0.47175002 7303274
-0.021871476 -0.10903778 0.47175002 7172458
-0.020850809 -0.10909557 0.47200003 7041644
-0.01981855 -0.10909557 0.47200003 6975851
-0.018796241 -0.10915335 0.47225001 6975849
-0.01777284 -0.10921113 0.47250003 7107689
-0.016748345 -0.10926891 0.47275001 7040872
-0.015722757 -0.1093267 0.47300002 7106665
-0.014688312 -0.1093267 0.47300002 7172460
-0.013653867 -0.1093267 0.47300002 7106665
-0.012612752 -0.10926891 0.47275001 7172458
-0.011578853 -0.10926891 0.47275001 7106665
-0.010544955 -0.10926891 0.47275001 7172458
-0.0095110564 -0.10926891 0.47275001 6975849
-0.0084771579 -0.10926891 0.47275001 6844778
-0.0074471962 -0.1093267 0.47300002 7042157
-0.0064127515 -0.1093267 0.47300002 6910056
-0.0053811492 -0.10938448 0.47325003 6910056
-0.0043484531 -0.10944226 0.47350001 6844265
-0.0033164129 -0.10955784 0.47400004 6844778
-0.0022809831 -0.10961562 0.47425002 6844263
-0.0012438043 -0.10961562 0.47425002 6778472
-0.0002067344 -0.1096734 0.47450003 6910056
0.00083142903 -0.10973118 0.47475001 6975079
0.0018697014 -0.10973118 0.47475001 7040872
0.0029095048 -0.10978897 0.47500002 6844263
0.0039524799 -0.10990454 0.47550002 7040872
0.0049976422 -0.1100201 0.47600001 7040872
0.0060418202 -0.11007788 0.47625002 6844265
0.0070870914 -0.11013567 0.47650003 6975851
0.0081291907 -0.11013567 0.47650003 7106667
0.0091761025 -0.11019345 0.47675002 7106667
0.010218749 -0.11019345 0.47675002 6974828
0.011261395 -0.11019345 0.47675002 6910058
0.012304042 -0.11019345 0.47675002 6844265
0.013346687 -0.11019345 0.47675002 6778985
0.014389333 -0.11019345 0.47675002 6844525
0.01543198 -0.11019345 0.47675002 6844265
0.016474625 -0.11019345 0.47675002 6844776
0.017508088 -0.11013567 0.47650003 6844517
0.018559918 -0.11019345 0.47675002 7106919
0.019602565 -0.11019345 0.47675002 7040872
0.020645211 -0.11019345 0.47675002 6844263
0.021699231 -0.11025123 0.47700003 6910058
0.022754343 -0.11030901 0.47725001 6909288
0.023810549 -0.1103668 0.47750002 6975081
0.025010992 -0.1110602 0.48050001 6975081
0.026102519 -0.11123355 0.48125002 6975851
0.027169114 -0.11129134 0.48150003 6844265
0.028222147 -0.11129134 0.48150003 7040874
0.029275183 -0.11129134 0.48150003 6975081
0.030312469 -0.11123355 0.48125002 6909288
0.031348664 -0.11117578 0.48100004 7040874
0.032366924 -0.1110602 0.48050001 6778472
0.033400383 -0.11100242 0.48025003 6844265
0.034432754 -0.11094464 0.48000002 6777702
0.035482503 -0.11094464 0.48000002 7040872
0.03653226 -0.11094464 0.48000002 6844263
0.037582014 -0.11094464 0.48000002 6778983
0.038893338 -0.11169583 0.48325002 6778470
0.039970867 -0.11175361 0.48350003 6844265
0.041028276 -0.11175361 0.48350003 6975079
0.042107444 -0.11181139 0.48375002 7040874
0.043187708 -0.11186918 0.48400003 6844265
0.044246208 -0.11186918 0.48400003 6844265
0.04532811 -0.11192696 0.48425001 6844265
0.046387158 -0.11192696 0.48425001 6910058
0.047617674 -0.11233145 0.48600003 6384227
0.048705589 -0.11238923 0.48625001 6515047
0.049769014 -0.11238923 0.48625001 6186084
0.050832435 -0.11238923 0.48625001 6646633
0.051895857 -0.11238923 0.48625001 6646886
0.052932054 -0.11233145 0.48600003 6778472
0.053967152 -0.11227366 0.48575002 6778470
0.055029482 -0.11227366 0.48575002 6909286
0.056091808 -0.11227366 0.48575002 6844263
0.057183556 -0.11233145 0.48600003 6711907
0.058276393 -0.11238923 0.48625001 6909286
0.059370328 -0.11244702 0.48650002 6580321
0.060465351 -0.1125048 0.48675004 6515813
0.061593071 -0.11262037 0.48725003 6581604
0.062819429 -0.11290929 0.48850003 6844263
0.064312816 -0.11366047 0.49175003 6844265
0.065487996 -0.11383382 0.49250004 6910056
0.06659887 -0.1138916 0.49275002 6909286
0.067710854 -0.11394939 0.49300003 7106149
0.068823919 -0.11400717 0.49325001 6975079
0.069902651 -0.11400717 0.49325001 6646886
0.070981376 -0.11400717 0.49325001 6778472
0.072023593 -0.11394939 0.49300003 6778470
0.073101774 -0.11394939 0.49300003 6778470
0.074179962 -0.11394939 0.49300003 6646884
0.075258143 -0.11394939 0.49300003 6778470
0.076336332 -0.11394939 0.49300003 6581606
0.07745377 -0.11400717 0.49325001 6581606
0.078572303 -0.11406495 0.49350002 6646884
0.079651587 -0.11406495 0.49350002 6646884
0.080771767 -0.11412274 0.49375004 6581606
0.082514688 -0.11504728 0.49775001 6581093
0.083645254 -0.11510506 0.49800003 6646886
0.084734365 -0.11510506 0.49800003 6778472
0.085866578 -0.11516285 0.49825004 6581093
0.086999871 -0.11522063 0.49850002 6646886
0.088134266 -0.11527842 0.49875003 6711907
0.089314468 -0.11539398 0.49925002 6711907
0.090451598 -0.11545177 0.49950004 6777702
0.091589816 -0.11550955 0.49975002 6711909
0.092729121 -0.11556733 0.5 6646116
0.093916439 -0.1156829 0.50050002 6646116
0.095058478 -0.11574068 0.50075001 6581093
0.096489653 -0.11614516 0.5025 6711656
0.097637169 -0.11620296 0.50275004 6646886
0.098834865 -0.11631852 0.50325 6515813
0.099985123 -0.11637631 0.50350004 6515813
0.10118665 -0.11649187 0.50400001 6778472
0.10233964 -0.11654966 0.50425005 6646884
0.10354499 -0.11666522 0.50475001 6777954
0.10506353 -0.11712749 0.50675005 6777702
0.10627654 -0.11724306 0.50725001 6778472
0.10743883 -0.11730085 0.50750005 6778470
0.10860219 -0.11735862 0.50775003 6646884
0.10982066 -0.11747418 0.50825 6844263
0.11147786 -0.11805202 0.51075 6777700
0.11259486 -0.11805202 0.51075 6711907
0.11376753 -0.11810981 0.51100004 6711909
0.11488508 -0.11810981 0.51100004 6711909
0.11600263 -0.11810981 0.51100004 6646114
0.11712018 -0.11810981 0.51100004 6581093
0.11829557 -0.11816759 0.51125002 6515300
0.11947206 -0.11822537 0.5115 6646116
0.12059071 -0.11822537 0.5115 6711909
0.12176885 -0.11828317 0.51175004 6581093
0.12294807 -0.11834095 0.51200002 6581093
0.12412838 -0.11839873 0.51225001 6713192
0.1260433 -0.11914992 0.51550001 6581093
0.1274174 -0.11938105 0.5165 6711907
0.12860921 -0.11943884 0.51675004 6711907
0.12980209 -0.11949662 0.51700002 6777702
0.13093276 -0.11949662 0.51700002 6908261
0.1321273 -0.1195544 0.51725 6776932
0.1340314 -0.12024781 0.52025002 6449505
0.13516918 -0.12024781 0.52025002 6448735
0.13637246 -0.12030559 0.5205 6512985
0.13757683 -0.12036338 0.52075005 6644317
0.13911526 -0.12071007 0.52225 6185563
0.14032458 -0.12076786 0.52250004 6185817
0.14146729 -0.12076786 0.52250004 6448219
0.14260998 -0.12076786 0.52250004 6579805
0.14375268 -0.12076786 0.52250004 6908516
0.14489537 -0.12076786 0.52250004 6908513
0.14603809 -0.12076786 0.52250004 6841948
-0.26339412 -0.1177372 0.51425004 6053979
-0.26252443 -0.11785167 0.51475 5856598
-0.26152566 -0.11790892 0.51500005 6381915
-0.26052576 -0.11796615 0.51525003 6644571
-0.22536482 -0.11441743 0.49975002 6251358
-0.22075281 -0.11373059 0.49675003 6513501
-0.21369539 -0.1134444 0.49550003 6316379
-0.21250446 -0.11338716 0.49525002 6316379
-0.20798759 -0.11270032 0.49225003 6579551
-0.20050481 -0.11212794 0.48975003 6645344
-0.19933192 -0.1120707 0.48950002 6645341
-0.19816014 -0.11201347 0.48925003 6776157
-0.19709016 -0.11201347 0.48925003 6841696
-0.19592001 -0.11195623 0.48900002 6842468
-0.19475093 -0.11189899 0.48875001 6645346
-0.19125035 -0.11172728 0.48800004 6645089
-0.19008568 -0.11167005 0.48775002 6382172
-0.1888252 -0.11155557 0.48725003 6645344
-0.18650723 -0.11081149 0.48400003 6317149
-0.18535292 -0.11075424 0.48375002 6514782
-0.18429497 -0.11075424 0.48375002 6579805
-0.18314232 -0.11069702 0.48350003 6645598
-0.18208492 -0.11069702 0.48350003 6645598
-0.18093391 -0.11063977 0.48325002 6645087
-0.17987704 -0.11063977 0.48325002 6645087
-0.17872767 -0.11058253 0.48300001 6645087
-0.1775794 -0.1105253 0.48275003 6776673
-0.17643219 -0.11046806 0.48250002 6711391
-0.17528611 -0.11041082 0.48225003 6776930
-0.17414112 -0.11035359 0.48200002 6710880
-0.17299721 -0.11029635 0.48175001 6316379
-0.17185441 -0.11023911 0.48150003 6646114
-0.17062402 -0.11012464 0.48100004 6580321
-0.16930766 -0.10995293 0.48025003 6645344
-0.16816978 -0.10989568 0.48000002 6776673
-0.16703299 -0.10983846 0.47975004 6777184
-0.16589727 -0.10978121 0.47950003 6448735
-0.16484861 -0.10978121 0.47950003 6645344
-0.16379996 -0.10978121 0.47950003 6842723
-0.16275129 -0.10978121 0.47950003 6908516
-0.16161832 -0.10972397 0.47925001 7105895
-0.1605702 -0.10972397 0.47925001 6776930
-0.15943889 -0.10966674 0.47900003 6776930
-0.15830866 -0.1096095 0.47875002 6842723
-0.15726162 -0.1096095 0.47875002 6580321
-0.15613303 -0.10955226 0.47850001 6711909
-0.1549245 -0.10943779 0.47800002 6711909
-0.15379864 -0.10938055 0.47775003 6842977
-0.15251401 -0.10920884 0.47700003 6908768
-0.15139143 -0.1091516 0.47675002 6974306
-0.15026996 -0.10909437 0.47650003 6842977
-0.14922786 -0.10909437 0.47650003 6908516
-0.14818574 -0.10909437 0.47650003 7040102
-0.14714365 -0.10909437 0.47650003 7105638
-0.14602488 -0.10903713 0.47625002 7171688
-0.14490722 -0.10897989 0.47600001 6777702
-0.14379066 -0.10892265 0.47575003 6844265
-0.14267519 -0.10886542 0.47550002 6910058
-0.14156082 -0.10880818 0.47525004 6646886
-0.14037362 -0.1086937 0.47475001 6975079
-0.13918859 -0.10857923 0.47425002 7105895
-0.13800575 -0.10846476 0.47375003 7171688
-0.13682511 -0.10835028 0.47325003 7237481
-0.13579012 -0.10835028 0.47325003 7369067
-0.13468394 -0.10829304 0.47300002 7566189
-0.13357885 -0.1082358 0.47275001 7565419
-0.13247487 -0.10817857 0.47250003 7566189
-0.13137197 -0.10812133 0.47225001 7565419
-0.13027018 -0.10806409 0.47200003 7566189
-0.12916945 -0.10800686 0.47175002 7303274
-0.12806983 -0.10794961 0.47150001 7500653
-0.12703867 -0.10794961 0.47150001 7238251
-0.12600751 -0.10794961 0.47150001 7303274
-0.12504262 -0.10800686 0.47175002 7500653
-0.12401091 -0.10800686 0.47175002 7632239
-0.12304437 -0.10806409 0.47200003 7566446
-0.12227061 -0.10829304 0.47300002 7369837
-0.12142839 -0.10846476 0.47375003 7369839
-0.1203923 -0.10846476 0.47375003 7566448
-0.11941921 -0.108522 0.47400004 7829363
-0.11832014 -0.10846476 0.47375003 7762800
-0.11728405 -0.10846476 0.47375003 7960179
-0.11612528 -0.10835028 0.47325003 7829363
-0.11502948 -0.10829304 0.47300002 7763825
-0.11387454 -0.10817857 0.47250003 7763825
-0.11272179 -0.10806409 0.47200003 7698032
-0.11157121 -0.10794961 0.47150001 7896183
-0.11048143 -0.10789238 0.47125003 7699572
-0.10939275 -0.10783514 0.47100002 7961458
-0.10830516 -0.10777791 0.47075003 8026740
-0.10721867 -0.10772067 0.47050002 7961206
-0.10618968 -0.10772067 0.47050002 8092792
-0.10516071 -0.10772067 0.47050002 8092792
-0.10413174 -0.10772067 0.47050002 7896183
-0.10310276 -0.10772067 0.47050002 7830388
-0.10201954 -0.10766343 0.47025001 7896181
-0.10099111 -0.10766343 0.47025001 7896181
-0.099962674 -0.10766343 0.47025001 7961974
-0.098934248 -0.10766343 0.47025001 7896181
-0.097905815 -0.10766343 0.47025001 7961974
-0.096928887 -0.10772067 0.47050002 7961976
-0.095950872 -0.10777791 0.47075003 7765365
-0.09492135 -0.10777791 0.47075003 7567988
-0.093891822 -0.10777791 0.47075003 8026997
-0.092812978 -0.10772067 0.47050002 8026997
-0.091784 -0.10772067 0.47050002 7436400
-0.090755023 -0.10772067 0.47050002 7370607
-0.089678369 -0.10766343 0.47025001 7502193
-0.088649936 -0.10766343 0.47025001 7502195
-0.087668091 -0.10772067 0.47050002 7699574
-0.086639114 -0.10772067 0.47050002 7567988
-0.08565563 -0.10777791 0.47075003 7633009
-0.084626101 -0.10777791 0.47075003 7568240
-0.08364097 -0.10783514 0.47100002 7568240
-0.082610898 -0.10783514 0.47100002 7633009
-0.081580833 -0.10783514 0.47100002 7698032
-0.080508001 -0.10777791 0.47075003 7961204
-0.079394057 -0.10766343 0.47025001 7567216
-0.078323968 -0.10760619 0.47000003 7830388
-0.077296086 -0.10760619 0.47000003 7567988
-0.076268196 -0.10760619 0.47000003 7501942
-0.075240314 -0.10760619 0.47000003 7501942
-0.074251905 -0.10766343 0.47025001 7567988
-0.073262408 -0.10772067 0.47050002 7436400
-0.072271809 -0.10777791 0.47075003 7633263
-0.07124228 -0.10777791 0.47075003 7501423
-0.070212759 -0.10777791 0.47075003 7896183
