# .PCD v0.7 - Point Cloud Data file format
VERSION 0.7
FIELDS x y z rgb
SIZE 4 4 4 4
TYPE F F F U
COUNT 1 1 1 1
WIDTH 1137
HEIGHT 1
VIEWPOINT 0 0 0 1 0 0 0
POINTS 1137
DATA ascii
0.019207021 0.06449876 0.26775002 10454797
0.019811064 0.064558983 0.26800001 10454543
0.020397179 0.064558983 0.26800001 10323211
0.021002864 0.064619206 0.26825002 10388484
0.021609645 0.064679421 0.2685 10651404
0.022217518 0.064739652 0.26875001 10454795
0.022826487 0.064799875 0.26900002 10454795
0.023436546 0.064860091 0.26925001 10586383
0.024025394 0.064860091 0.26925001 10322957
0.024637094 0.064920321 0.26950002 10520853
0.025249887 0.064980537 0.26975 10389267
0.025863776 0.065040767 0.27000001 10455310
0.026454262 0.065040767 0.27000001 10455049
0.027069792 0.06510099 0.27025002 10652176
0.027712002 0.065221436 0.27075002 10257677
0.028330263 0.065281659 0.27100003 10652185
0.028949618 0.065341875 0.27125001 10455830
0.029570067 0.065402105 0.27150002 10521621
0.030163834 0.065402105 0.27150002 10521621
0.030785922 0.065462321 0.27175 10653468
0.031409103 0.065522552 0.27200001 10719009
0.032003965 0.065522552 0.27200001 10850345
0.032598827 0.065522552 0.27200001 10784816
0.033224199 0.065582775 0.27225003 10654252
0.033819605 0.065582775 0.27225003 10654250
0.03441501 0.065582775 0.27225003 10851377
0.03501042 0.065582775 0.27225003 10851129
0.035605825 0.065582775 0.27225003 10982976
0.036201235 0.065582775 0.27225003 11442762
0.036830425 0.06564299 0.27250001 11312461
0.037426382 0.06564299 0.27250001 11707734
0.038022336 0.06564299 0.27250001 11707732
0.038618289 0.06564299 0.27250001 11378765
0.039250221 0.065703221 0.27275002 11247951
0.039846726 0.065703221 0.27275002 10985295
0.040480293 0.065763436 0.273 10788427
0.041077338 0.065763436 0.273 10787914
0.041712552 0.065823659 0.27325001 10524492
0.042348862 0.06588389 0.27350003 10195779
0.042947002 0.06588389 0.27350003 10130749
0.043584943 0.065944105 0.27375001 9473335
0.044223979 0.066004336 0.27400002 8420647
0.044823218 0.066004336 0.27400002 7565088
0.04542245 0.066004336 0.27400002 8224061
0.046021685 0.066004336 0.27400002 8422207
0.047088824 0.066666782 0.27675 8225598
0.048383426 0.067630351 0.28075001 8356932
0.049695514 0.068593919 0.28475001 8224842
0.050494965 0.068834804 0.28575 8422486
0.051164623 0.068895034 0.28600001 8159580
0.051835373 0.068955258 0.28625003 8292465
0.052507218 0.069015473 0.28650001 8687253
0.092501186 0.11346 0.47100002 8818846
0.093531258 0.11346 0.47100002 8687260
0.094511144 0.11339978 0.47075003 8556188
0.095540673 0.11339978 0.47075003 8753567
0.096570194 0.11339978 0.47075003 8687774
0.097599715 0.11339978 0.47075003 8753567
0.098681621 0.11346 0.47100002 8818848
0.099711686 0.11346 0.47100002 8687262
0.10074176 0.11346 0.47100002 9015712
0.10177183 0.11346 0.47100002 8950173
0.1028019 0.11346 0.47100002 8753821
0.10377686 0.11339978 0.47075003 8819100
0.10475073 0.11333956 0.47050002 8950432
0.10572349 0.11327933 0.47025001 8753821
0.10663842 0.11315888 0.46975002 8819612
0.10760847 0.11309867 0.46950004 8884891
0.10857741 0.11303844 0.46925002 9016479
0.10960365 0.11303844 0.46925002 8819614
0.11151399 0.11394178 0.47300002 8819360
0.11260793 0.11400201 0.47325003 8623005
0.11376298 0.11412245 0.47375003 8623005
0.11492022 0.1142429 0.47425002 8950686
0.11589628 0.11418268 0.47400004 8884641
0.11693291 0.11418268 0.47400004 8753821
0.11778288 0.11400201 0.47325003 8623005
0.11875511 0.11394178 0.47300002 8557212
0.11972624 0.11388156 0.47275001 8688544
0.12076014 0.11388156 0.47275001 8556960
0.12185844 0.11394178 0.47300002 8556190
0.12295784 0.11400201 0.47325003 8687776
0.12405833 0.11406223 0.47350001 8622751
0.12509386 0.11406223 0.47350001 8884893
0.1261294 0.11406223 0.47350001 8884380
0.12709782 0.11400201 0.47325003 8950686
0.12806511 0.11394178 0.47300002 8818846
0.12903132 0.11388156 0.47275001 8819100
0.13006522 0.11388156 0.47275001 8556442
0.13109912 0.11388156 0.47275001 8687260
0.13220289 0.11394178 0.47300002 8687260
0.13323733 0.11394178 0.47300002 8490397
0.13427177 0.11394178 0.47300002 8425376
0.13537775 0.11400201 0.47325003 8425374
0.1364848 0.11406223 0.47350001 8425626
0.13752033 0.11406223 0.47350001 8359831
0.13862903 0.11412245 0.47375003 8556440
0.13966511 0.11412245 0.47375003 8228245
0.14077546 0.11418268 0.47400004 8294038
0.14188688 0.1142429 0.47425002 8359833
0.1429994 0.11430313 0.47450003 8228508
0.14411302 0.11436334 0.47475001 8490395
0.14530416 0.1144838 0.47525004 8620954
0.14642051 0.11454401 0.47550002 8555674
0.14746042 0.11454401 0.47550002 8555674
0.14857841 0.11460423 0.47575003 8621721
0.14961886 0.11460423 0.47575003 8424856
0.15065932 0.11460423 0.47575003 8555674
0.15162006 0.11454401 0.47550002 8424856
0.15265997 0.11454401 0.47550002 8293270
0.1536191 0.1144838 0.47525004 8228247
0.15457709 0.11442357 0.47500002 8162454
0.155534 0.11436334 0.47475001 8228247
0.15648983 0.11430313 0.47450003 8162454
0.15752755 0.11430313 0.47450003 8293270
0.15864882 0.11436334 0.47475001 8227477
0.15968709 0.11436334 0.47475001 8227477
0.16080999 0.11442357 0.47500002 8424342
0.16201919 0.11454401 0.47550002 8424856
0.16314484 0.11460423 0.47575003 8293270
0.1641853 0.11460423 0.47575003 8162454
0.16522576 0.11460423 0.47575003 8096661
0.16626622 0.11460423 0.47575003 8162452
0.16730668 0.11460423 0.47575003 8096661
0.16834714 0.11460423 0.47575003 7900311
0.16947658 0.11466446 0.47600001 7768727
0.17060716 0.11472468 0.47625002 8031897
0.17173883 0.11478491 0.47650003 7964821
0.17296223 0.11490535 0.47700003 7964821
0.17400542 0.11490535 0.47700003 8227477
0.17514035 0.11496557 0.47725001 8095889
0.17618409 0.11496557 0.47725001 8161168
0.17722782 0.11496557 0.47725001 8358549
0.17827156 0.11496557 0.47725001 8358549
0.1793153 0.11496557 0.47725001 8030098
0.18035905 0.11496557 0.47725001 7899282
0.18140279 0.11496557 0.47725001 8031127
0.18244652 0.11496557 0.47725001 7768209
0.18349026 0.11496557 0.47725001 8227475
0.184534 0.11496557 0.47725001 8030096
0.18577218 0.11508602 0.47775003 7833748
0.18691476 0.11514624 0.47800002 7899543
0.18796013 0.11514624 0.47800002 7833489
0.18910439 0.11520647 0.47825003 7899280
0.19024971 0.11526669 0.47850001 8095889
0.19139613 0.11532691 0.47875002 7964051
0.19254364 0.11538713 0.47900003 7899028
0.19359121 0.11538713 0.47900003 8030098
0.19463877 0.11538713 0.47900003 7964305
0.19568634 0.11538713 0.47900003 8095891
0.19673391 0.11538713 0.47900003 7899028
0.19778149 0.11538713 0.47900003 7702162
0.19882905 0.11538713 0.47900003 7702416
0.19987662 0.11538713 0.47900003 7768207
0.20092417 0.11538713 0.47900003 7833487
0.20197174 0.11538713 0.47900003 7834000
0.20312527 0.11544736 0.47925001 7636623
0.20427988 0.11550758 0.47950003 7899028
0.2054356 0.1155678 0.47975004 7833487
0.20659241 0.11562803 0.48000002 7833741
0.20775032 0.11568825 0.48025003 7701901
0.20880061 0.11568825 0.48025003 7833748
0.20985092 0.11568825 0.48025003 7767955
0.21090122 0.11568825 0.48025003 7767442
0.21184118 0.11562803 0.48000002 7833235
0.21289092 0.11562803 0.48000002 7898258
0.21394068 0.11562803 0.48000002 8028817
0.21510242 0.11568825 0.48025003 7833235
0.21626525 0.11574847 0.48050001 7768209
0.21742916 0.1158087 0.48075002 7833489
0.21870777 0.11592914 0.48125002 7766674
0.21987443 0.11598936 0.48150003 7702164
0.22115688 0.11610981 0.48200002 7571346
0.22232626 0.11617003 0.48225003 7636110
0.22338094 0.11617003 0.48225003 7636623
0.22455195 0.11623026 0.48250002 7636623
0.22584097 0.1163507 0.48300001 7504524
0.22713217 0.11647115 0.48350003 7898512
0.22854353 0.11665181 0.48425001 7701901
0.22960258 0.11665181 0.48425001 7767694
0.23078072 0.11671204 0.48450002 7636623
0.23172067 0.11665181 0.48425001 7767442
0.23265956 0.1165916 0.48400003 7504270
0.23371805 0.1165916 0.48400003 7505805
0.23465529 0.11653137 0.48375002 7439242
0.23571324 0.11653137 0.48375002 7636108
0.23677121 0.11653137 0.48375002 7636110
0.23782916 0.11653137 0.48375002 7636623
0.23888712 0.11653137 0.48375002 7899282
0.24155711 0.11731426 0.48700002 7636108
0.24262217 0.11731426 0.48700002 7636110
0.24368724 0.11731426 0.48700002 7701649
0.24475229 0.11731426 0.48700002 7767694
0.24581736 0.11731426 0.48700002 7636110
0.24662894 0.11719383 0.48650002 7701903
0.24820204 0.11743471 0.48750001 7701901
0.24939603 0.11749494 0.48775002 7767696
0.25059113 0.11755516 0.48800004 7701903
0.25165838 0.11755516 0.48800004 7636110
0.25285506 0.11761538 0.48825002 7440014
0.25392288 0.11761538 0.48825002 7308428
0.25512123 0.11767561 0.48850003 7701903
0.25618958 0.11767561 0.48850003 7832719
0.25738958 0.11773583 0.48875001 7636110
0.25845847 0.11773583 0.48875001 7636108
0.25966012 0.11779605 0.48900002 7832971
0.26086286 0.11785628 0.48925003 7898250
0.26193285 0.11785628 0.48925003 7766926
0.26300281 0.11785628 0.48925003 7439244
0.26407281 0.11785628 0.48925003 7701903
0.26621279 0.11785628 0.48925003 7570830
0.27249336 0.11779605 0.48900002 7701901
0.28112453 0.11827783 0.49100003 7439244
0.28234205 0.11833806 0.49125004 7505805
0.28384906 0.11851873 0.49200001 7767948
0.28478029 0.11845851 0.49175003 7964555
0.28600106 0.11851873 0.49200001 7636362
0.29857057 0.1192414 0.49500003 7702416
-0.19344345 0.12202467 0.50200003 9543087
-0.19224979 0.1219639 0.50175005 9476778
-0.19105721 0.12190312 0.50150001 9542571
-0.18996044 0.12190312 0.50150001 9279913
-0.18886366 0.12190312 0.50150001 9280683
-0.1878605 0.1219639 0.50175005 9411499
-0.18685624 0.12202467 0.50200003 9542833
-0.18585087 0.12208543 0.50225002 9346224
-0.18475246 0.12208543 0.50225002 9280944
-0.18374544 0.1221462 0.5025 9215405
-0.18273737 0.12220698 0.50275004 9477290
-0.18163787 0.12220698 0.50275004 9477292
-0.18053836 0.12220698 0.50275004 9346476
-0.1793496 0.1221462 0.5025 9477292
-0.17789592 0.12190312 0.50150001 9411501
-0.1759178 0.12129543 0.49900001 10001839
-0.17482649 0.12129543 0.49900001 11579084
-0.17373519 0.12129543 0.49900001 14411769
-0.17264387 0.12129543 0.49900001 10596291
-0.17155257 0.12129543 0.49900001 9674157
-0.17046127 0.12129543 0.49900001 9345706
-0.1692851 0.12123466 0.49875003 9411499
-0.16811004 0.1211739 0.49850002 9477294
-0.16676854 0.12099159 0.49775001 9213868
-0.16543032 0.12080928 0.49700001 9345706
-0.16302072 0.11983697 0.49300003 9476780
-0.16186039 0.1197762 0.49275002 9543087
-0.16070119 0.11971544 0.49250004 9411501
-0.15954307 0.11965466 0.49225003 9674421
-0.15838604 0.11959389 0.49200001 9936827
-0.15723012 0.11953313 0.49175003 11383242
-0.15607528 0.11947235 0.49150002 13162481
-0.15492153 0.11941159 0.49125004 13756405
-0.15376888 0.11935082 0.49100003 14085620
-0.15261731 0.11929005 0.49075001 13954034
-0.15146686 0.11922928 0.49050003 14085107
-0.15039414 0.11922928 0.49050003 13820915
-0.14916921 0.11910774 0.49000001 11452885
-0.14802203 0.11904697 0.48975003 9348022
-0.14680092 0.11892544 0.48925003 9412017
-0.14558201 0.11880389 0.48875001 9543855
-0.14429137 0.11862159 0.48800004 9346989
-0.14307734 0.11850005 0.48750001 9281198
-0.14186554 0.11837851 0.48700002 9281198
-0.14080048 0.11837851 0.48700002 9412267
-0.1396637 0.11831775 0.48675004 9412269
-0.13859917 0.11831775 0.48675004 9281196
-0.13746402 0.11825697 0.48650002 9346478
-0.13632996 0.1181962 0.48625001 9280683
-0.13505791 0.1180139 0.48550004 9346478
-0.13378912 0.11783159 0.48475003 9346739
-0.13259207 0.11771005 0.48425001 9543605
-0.1313972 0.11758851 0.48375002 9805491
-0.1302719 0.11752775 0.48350003 9543857
-0.12914768 0.11746697 0.48325002 9412269
-0.12802455 0.1174062 0.48300001 9543855
-0.12683681 0.11728466 0.48250002 9543857
-0.12578158 0.11728466 0.48250002 9543087
-0.12466174 0.1172239 0.48225003 9673905
-0.12360705 0.1172239 0.48225003 9740466
-0.12255238 0.1172239 0.48225003 9412271
-0.12143472 0.11716312 0.48200002 9543857
-0.12031815 0.11710235 0.48175001 9478577
-0.11920268 0.11704159 0.48150003 9609646
-0.11802696 0.11692005 0.48100004 9740464
-0.11691422 0.11685928 0.48075002 9478575
-0.11580257 0.11679851 0.48050001 9543855
-0.11469202 0.11673774 0.48025003 9543857
-0.11358257 0.11667697 0.48000002 9478577
-0.1124742 0.1166162 0.47975004 9346991
-0.11136693 0.11655543 0.47950003 9806259
-0.11026075 0.11649466 0.47925001 9806259
-0.10915567 0.1164339 0.47900003 9740466
-0.10805167 0.11637312 0.47875002 9871536
-0.10694877 0.11631235 0.47850001 9740466
-0.10579164 0.11619081 0.47800002 9741236
-0.10469148 0.11613005 0.47775003 9544368
-0.10364665 0.11613005 0.47775003 9544368
-0.10260181 0.11613005 0.47775003 9610163
-0.10155698 0.11613005 0.47775003 9675443
-0.10051215 0.11613005 0.47775003 9806259
-0.099467322 0.11613005 0.47775003 9740464
-0.098370977 0.11606928 0.47750002 9675441
-0.097224779 0.11594774 0.47700003 9675441
-0.096131176 0.11588697 0.47675002 9675441
-0.095038667 0.1158262 0.47650003 9609648
-0.093947247 0.11576543 0.47625002 9806257
-0.092905693 0.11576543 0.47625002 9675443
-0.091864146 0.11576543 0.47625002 9740982
-0.090870269 0.1158262 0.47650003 9675189
-0.089828171 0.1158262 0.47650003 9872052
-0.088786073 0.1158262 0.47650003 9806005
-0.087743975 0.1158262 0.47650003 9806259
-0.08670187 0.1158262 0.47650003 9872052
-0.085614823 0.11576543 0.47625002 9807029
-0.084573276 0.11576543 0.47625002 9609909
-0.083487868 0.11570466 0.47600001 9807029
-0.082446866 0.11570466 0.47600001 10003636
-0.081405856 0.11570466 0.47600001 9872050
-0.044806071 0.06994541 0.28775001 8618330
-0.044138387 0.069884643 0.28750002 8159314
-0.043320455 0.069580801 0.28625003 7896140
-0.042209689 0.068790801 0.28300002 8158279
-0.041223362 0.068183109 0.28050002 8223551
-0.039777447 0.066785417 0.27475002 7891754
-0.03910527 0.066663869 0.27425 8945448
-0.038470391 0.066603102 0.27400002 9734935
-0.037836604 0.066542335 0.27375001 9603599
-0.037237916 0.066542335 0.27375001 10128910
-0.036639225 0.066542335 0.27375001 10652941
-0.036040537 0.066542335 0.27375001 10652939
-0.035441853 0.066542335 0.27375001 10521355
-0.034843165 0.066542335 0.27375001 10652428
-0.034244474 0.066542335 0.27375001 10782980
-0.033645786 0.066542335 0.27375001 10914566
-0.033047102 0.066542335 0.27375001 10980359
-0.032448411 0.066542335 0.27375001 10849035
-0.03182064 0.066481568 0.27350003 11045648
-0.031193957 0.066420794 0.27325001 11045912
-0.030568369 0.066360027 0.273 10784014
-0.029943876 0.06629926 0.27275002 10849285
-0.029320477 0.066238485 0.27250001 10915080
-0.028724521 0.066238485 0.27250001 11177484
-0.028102763 0.066177726 0.27225003 11047186
-0.027507355 0.066177726 0.27225003 10981389
-0.026911948 0.066177726 0.27225003 11047184
-0.02631654 0.066177726 0.27225003 11112725
-0.025697514 0.066116951 0.27200001 11047186
-0.025102653 0.066116951 0.27200001 11046666
-0.024485266 0.066056177 0.27175 11046662
-0.023868976 0.06599541 0.27150002 11046662
-0.023253774 0.065934643 0.27125001 10915078
-0.022639671 0.065873876 0.27100003 11046664
-0.022026658 0.065813102 0.27075002 10915076
-0.021414738 0.065752335 0.2705 11046664
-0.020803913 0.065691568 0.27025002 11046666
-0.020212881 0.065691568 0.27025002 10915078
-0.019603694 0.065630794 0.27000001 11177736
-0.018995604 0.065570027 0.26975 11046150
-0.018388605 0.06550926 0.26950002 10980355
-0.017782701 0.065448485 0.26925001 10915078
-0.017177891 0.065387718 0.26900002 10784262
-0.016589591 0.065387718 0.26900002 11046664
-0.016001292 0.065387718 0.26900002 11046664
-0.015412991 0.065387718 0.26900002 11045900
-0.014810914 0.065326951 0.26875001 11046412
-0.014223161 0.065326951 0.26875001 10849285
-0.013622724 0.065266177 0.2685 11046664
-0.013023381 0.06520541 0.26825002 11242766
-0.01242513 0.065144643 0.26800001 11045648
-0.011827975 0.065083876 0.26775002 11045389
-0.011231911 0.065023102 0.26750001 10914314
-0.010646892 0.065023102 0.26750001 10914312
-0.010052469 0.064962335 0.26725 11111430
-0.0094591398 0.064901568 0.26700002 11111180
-0.0088669043 0.064840794 0.26675001 11045900
-0.0082835248 0.064840794 0.26675001 10914566
-0.0077001462 0.064840794 0.26675001 10979844
-0.0071100974 0.064780027 0.26650003 10979592
-0.0065272655 0.064780027 0.26650003 10848773
-0.0059388564 0.06471926 0.26625001 10782978
-0.0053515411 0.064658485 0.266 10651906
-0.0047653201 0.064597718 0.26575002 10782976
-0.0041801916 0.064536951 0.26550001 10848519
-0.0035961575 0.064476185 0.26525003 10848269
-0.0030160588 0.064476185 0.26525003 10782476
-0.0024359603 0.064476185 0.26525003 10782728
-0.0018558619 0.064476185 0.26525003 10782467
-0.0012757634 0.064476185 0.26525003 10782215
-0.00069566496 0.064476185 0.26525003 10585600
-0.00011567541 0.064536951 0.26550001 10717187
0.00046496978 0.064536951 0.26550001 10717197
0.0010456149 0.064536951 0.26550001 10651406
0.0016277914 0.064597718 0.26575002 10782990
0.0022089835 0.064597718 0.26575002 10651404
0.0027901754 0.064597718 0.26575002 10585613
0.0033713675 0.064597718 0.26575002 10454797
0.0039525595 0.064597718 0.26575002 10520336
0.0045294859 0.064536951 0.26550001 10716433
0.0051101316 0.064536951 0.26550001 10716947
0.0056854184 0.064476185 0.26525003 10782740
0.0062655169 0.064476185 0.26525003 10651154
0.0068456153 0.064476185 0.26525003 10717717
0.0074257134 0.064476185 0.26525003 10651924
0.0080058118 0.064476185 0.26525003 10652437
0.0085859103 0.064476185 0.26525003 10521369
0.0091746477 0.064536951 0.26550001 10652185
0.0097552929 0.064536951 0.26550001 10783512
0.010335938 0.064536951 0.26550001 10783512
0.010916583 0.064536951 0.26550001 10914592
0.011497228 0.064536951 0.26550001 10717213
0.012077874 0.064536951 0.26550001 10717467
0.012658519 0.064536951 0.26550001 10585879
0.013251631 0.064597718 0.26575002 10585363
0.013832822 0.064597718 0.26575002 10651156
0.014427573 0.064658485 0.266 10650904
0.015009312 0.064658485 0.266 10585363
0.015605705 0.06471926 0.26625001 10585613
0.016203191 0.064780027 0.26650003 10521103
0.016801769 0.064840794 0.26675001 10323459
0.01740144 0.064901568 0.26700002 10585863
0.018002206 0.064962335 0.26725 10454277
0.018604066 0.065023102 0.26750001 10519808
0.019189086 0.065023102 0.26750001 10322944
0.019774104 0.065023102 0.26750001 10454025
0.020378152 0.065083876 0.26775002 10454543
0.02098329 0.065144643 0.26800001 10585611
0.021589525 0.06520541 0.26825002 10585865
0.02219685 0.065266177 0.2685 10454025
0.022805272 0.065326951 0.26875001 10585613
0.023393024 0.065326951 0.26875001 10585613
0.024003087 0.065387718 0.26900002 10454797
0.024614239 0.065448485 0.26925001 10585359
0.025203086 0.065448485 0.26925001 10585361
0.02581588 0.06550926 0.26950002 10454797
0.026429767 0.065570027 0.26975 10651658
0.027044749 0.065630794 0.27000001 10585865
0.027660826 0.065691568 0.27025002 10586896
0.028277991 0.065752335 0.2705 10389783
0.028896255 0.065813102 0.27075002 10455324
0.029515611 0.065873876 0.27100003 10521369
0.030136056 0.065934643 0.27125001 10587164
0.030757602 0.06599541 0.27150002 10522144
0.031380232 0.066056177 0.27175 10784804
0.03197455 0.066056177 0.27175 10915888
0.032568861 0.066056177 0.27175 10850357
0.033193689 0.066116951 0.27200001 10850607
0.033788547 0.066116951 0.27200001 10786349
0.034383405 0.066116951 0.27200001 10851890
0.034978271 0.066116951 0.27200001 11114814
0.035573129 0.066116951 0.27200001 11311689
0.03616799 0.066116951 0.27200001 11114562
0.036796641 0.066177726 0.27225003 11443529
0.03739205 0.066177726 0.27225003 11641174
0.037987456 0.066177726 0.27225003 11247953
0.038618289 0.066238485 0.27250001 11445844
0.039214242 0.066238485 0.27250001 11314260
0.039846726 0.06629926 0.27275002 11312974
0.040443227 0.06629926 0.27275002 11247183
0.041077338 0.066360027 0.273 10787148
0.041712552 0.066420794 0.27325001 10721357
0.042310148 0.066420794 0.27325001 10589253
0.042947002 0.066481568 0.27350003 10261056
0.043545142 0.066481568 0.27350003 9867064
0.044183627 0.066542335 0.27375001 9538362
0.044782318 0.066542335 0.27375001 8551985
0.04542245 0.066603102 0.27400002 7103515
0.046021685 0.066603102 0.27400002 8224063
0.04662092 0.066603102 0.27400002 8356162
0.04760791 0.067150027 0.27625 7962174
0.048953794 0.068183109 0.28050002 8160068
0.05031826 0.069216184 0.28475001 8291150
0.051164623 0.069520026 0.28600001 8160084
0.051835373 0.069580801 0.28625003 7831896
0.052507218 0.069641568 0.28650001 8292472
0.091912009 0.11376005 0.46800002 8950173
0.093283035 0.11418543 0.46975002 8884639
0.094460949 0.11436774 0.47050002 8753567
0.095489927 0.11436774 0.47050002 8884641
0.096518904 0.11436774 0.47050002 8687774
0.097599715 0.11442851 0.47075003 8818846
0.098629244 0.11442851 0.47075003 8687260
0.099658765 0.11442851 0.47075003 8818850
0.10068829 0.11442851 0.47075003 8818850
0.10171781 0.11442851 0.47075003 8818848
0.10274734 0.11442851 0.47075003 8819360
0.10377686 0.11442851 0.47075003 8753821
0.10475073 0.11436774 0.47050002 9015712
0.10572349 0.11430696 0.47025001 9146528
0.10663842 0.11418543 0.46975002 9212575
0.10760847 0.11412466 0.46950004 8819100
0.10857741 0.1140639 0.46925002 8688798
0.10960365 0.1140639 0.46925002 8557212
0.11151399 0.11497543 0.47300002 8753821
0.11260793 0.1150362 0.47325003 8950684
0.11370295 0.11509696 0.47350001 8950171
0.11479907 0.11515774 0.47375003 8950686
0.11583515 0.11515774 0.47375003 8950432
0.11680956 0.11509696 0.47350001 8818848
0.11778288 0.1150362 0.47325003 8884639
0.11869234 0.11491466 0.47275001 8753567
0.11972624 0.11491466 0.47275001 8753569
0.12076014 0.11491466 0.47275001 8425374
0.12185844 0.11497543 0.47300002 8687774
0.12295784 0.1150362 0.47325003 8819098
0.12405833 0.11509696 0.47350001 8819100
0.12509386 0.11509696 0.47350001 8425372
0.1261294 0.11509696 0.47350001 8687774
0.12709782 0.1150362 0.47325003 8687774
0.12799743 0.11491466 0.47275001 8490395
0.12903132 0.11491466 0.47275001 8556442
0.12999645 0.1148539 0.47250003 8884891
0.13109912 0.11491466 0.47275001 8556188
0.13213301 0.11491466 0.47275001 8359579
0.13316691 0.11491466 0.47275001 8556442
0.13427177 0.11497543 0.47300002 8752794
0.13537775 0.1150362 0.47325003 8687001
0.13641274 0.1150362 0.47325003 8556442
0.13752033 0.11509696 0.47350001 8358809
0.13862903 0.11515774 0.47375003 8490649
0.13966511 0.11515774 0.47375003 8490647
0.1407012 0.11515774 0.47375003 8490647
0.14181209 0.11521851 0.47400004 8490649
0.14292404 0.11527928 0.47425002 8359579
0.14411302 0.11540081 0.47475001 8227993
0.14522773 0.11546159 0.47500002 8490395
0.14634353 0.11552235 0.47525004 8490135
0.14746042 0.11558312 0.47550002 8621721
0.14850032 0.11558312 0.47550002 8424856
0.14954023 0.11558312 0.47550002 8424602
0.15058015 0.11558312 0.47550002 8555928
0.15154035 0.11552235 0.47525004 8686999
0.15257971 0.11552235 0.47525004 8228247
0.15353827 0.11546159 0.47500002 8228760
0.15449573 0.11540081 0.47475001 8162454
0.1554521 0.11534005 0.47450003 8293786
0.15640737 0.11527928 0.47425002 8096661
0.15744455 0.11527928 0.47425002 8359063
0.15856528 0.11534005 0.47450003 8228247
0.15968709 0.11540081 0.47475001 8294040
0.16080999 0.11546159 0.47500002 8162454
0.16193402 0.11552235 0.47525004 8293268
0.16297339 0.11552235 0.47525004 8227477
0.16409902 0.11558312 0.47550002 8227993
0.16513893 0.11558312 0.47550002 8358809
0.16617884 0.11558312 0.47550002 8031127
0.16721874 0.11558312 0.47550002 8162713
0.16825867 0.11558312 0.47550002 8031381
0.16938758 0.1156439 0.47575003 8031381
0.17051761 0.11570466 0.47600001 8096920
0.17164873 0.11576543 0.47625002 8096407
0.17287157 0.11588697 0.47675002 8162200
0.17400542 0.11594774 0.47700003 7965075
0.17514035 0.11600851 0.47725001 8096659
0.17618409 0.11600851 0.47725001 8162452
0.17732067 0.11606928 0.47750002 8095891
0.17827156 0.11600851 0.47725001 8226963
0.1793153 0.11600851 0.47725001 7965073
0.18026458 0.11594774 0.47700003 7834002
0.18130778 0.11594774 0.47700003 7899541
0.18225539 0.11588697 0.47675002 7964821
0.18329804 0.11588697 0.47675002 7833489
0.18443735 0.11594774 0.47700003 7965075
0.18557775 0.11600851 0.47725001 7833748
0.18681701 0.11613005 0.47775003 7833748
0.18796013 0.11619081 0.47800002 7965075
0.18910439 0.11625159 0.47825003 8095889
0.19024971 0.11631235 0.47850001 7768209
0.19139613 0.11637312 0.47875002 7637141
0.19244315 0.11637312 0.47875002 7833498
0.19349016 0.11637312 0.47875002 8029846
0.19453718 0.11637312 0.47875002 7899028
0.19558421 0.11637312 0.47875002 7833487
0.19663122 0.11637312 0.47875002 7899282
0.19767825 0.11637312 0.47875002 7899282
0.1986215 0.11631235 0.47850001 8029844
0.19977228 0.11637312 0.47875002 8095637
0.20081931 0.11637312 0.47875002 7898258
0.20186633 0.11637312 0.47875002 7898258
0.20301931 0.1164339 0.47900003 7636369
0.20417337 0.11649466 0.47925001 7702164
0.20532854 0.11655543 0.47950003 7899282
0.20648482 0.1166162 0.47975004 7767694
0.20764217 0.11667697 0.48000002 7833487
0.20869192 0.11667697 0.48000002 7636371
0.20963244 0.1166162 0.47975004 7833748
0.21068165 0.1166162 0.47975004 7702162
0.21162051 0.11655543 0.47950003 7767955
0.21278006 0.1166162 0.47975004 7833487
0.21382926 0.1166162 0.47975004 7833489
0.21499044 0.11667697 0.48000002 7767442
0.21626525 0.11679851 0.48050001 7833489
0.21742916 0.11685928 0.48075002 7767696
0.21870777 0.11698081 0.48125002 7832465
0.21987443 0.11704159 0.48150003 7767442
0.22104216 0.11710235 0.48175001 7701651
0.222211 0.11716312 0.48200002 7833237
0.22338094 0.1172239 0.48225003 7636623
0.22443561 0.1172239 0.48225003 7702414
0.22560719 0.11728466 0.48250002 7636369
0.22724961 0.11758851 0.48375002 7438992
0.22866152 0.11777081 0.48450002 7832719
0.22972113 0.11777081 0.48450002 7569799
0.23078072 0.11777081 0.48450002 7701903
0.23172067 0.11771005 0.48425001 7636623
0.23277973 0.11771005 0.48425001 7702414
0.23371805 0.11764928 0.48400003 7636621
0.23465529 0.11758851 0.48375002 7636621
0.23571324 0.11758851 0.48375002 7636108
0.23664886 0.11752775 0.48350003 7636108
0.23770626 0.11752775 0.48350003 7636621
0.23888712 0.11758851 0.48375002 7438729
0.23994507 0.11758851 0.48375002 7635340
0.24249762 0.11831775 0.48675004 7964305
0.24356215 0.11831775 0.48675004 7701903
0.24387279 0.11795312 0.48525003 7570830
0.24480784 0.11789235 0.48500001 7636623
0.24586852 0.11789235 0.48500001 7833235
0.24718378 0.1180139 0.48550004 7701903
0.24888471 0.11831775 0.48675004 7636110
0.25046274 0.11856082 0.48775002 7766924
0.25165838 0.11862159 0.48800004 7702155
0.2527256 0.11862159 0.48800004 7571598
0.25392288 0.11868235 0.48825002 7505807
0.25512123 0.11874313 0.48850003 7636623
0.25618958 0.11874313 0.48850003 7439244
0.25725791 0.11874313 0.48850003 7505553
0.25845847 0.11880389 0.48875001 7636369
0.25966012 0.11886466 0.48900002 7767696
0.26072955 0.11886466 0.48900002 7963791
0.26193285 0.11892544 0.48925003 7898512
0.26300281 0.11892544 0.48925003 7832719
0.26621279 0.11892544 0.48925003 7636110
0.26728275 0.11892544 0.48925003 7701903
0.27840871 0.11910774 0.49000001 7702666
0.28069511 0.11916851 0.49025002 7636623
-0.19334713 0.12306038 0.50175005 9149097
-0.19224979 0.12306038 0.50175005 9149099
-0.19105721 0.12299906 0.50150001 9477290
-0.18996044 0.12299906 0.50150001 9477292
-0.18886366 0.12299906 0.50150001 9215405
-0.18776689 0.12299906 0.50150001 9280431
-0.18676318 0.12306038 0.50175005 9346226
-0.18566588 0.12306038 0.50175005 9412017
-0.18466051 0.12312169 0.50200003 9215405
-0.18365404 0.123183 0.50225002 9411497
-0.18255562 0.123183 0.50225002 9412267
-0.18154752 0.12324432 0.5025 9346474
-0.18044856 0.12324432 0.5025 9214888
-0.1793496 0.12324432 0.5025 9346474
-0.17683174 0.12226328 0.49850002 9280683
-0.17574154 0.12226328 0.49850002 9608112
-0.17465132 0.12226328 0.49850002 13162983
-0.17364815 0.12232459 0.49875003 13360880
-0.17255738 0.12232459 0.49875003 9543085
-0.17146662 0.12232459 0.49875003 9542571
-0.17037587 0.12232459 0.49875003 9674155
-0.16920024 0.12226328 0.49850002 9149610
-0.16802573 0.12220196 0.49825004 9149610
-0.16660102 0.1219567 0.49725002 9280683
-0.16534711 0.12183407 0.49675003 9477294
-0.16285539 0.1207917 0.49250004 9214638
-0.16177829 0.1207917 0.49250004 9411247
-0.16061962 0.12073039 0.49225003 9477294
-0.15946203 0.12066907 0.49200001 9674421
-0.15838604 0.12066907 0.49200001 9609659
-0.15723012 0.12060776 0.49175003 11913699
-0.15599589 0.12048513 0.49125004 13491444
-0.15484269 0.12042381 0.49100003 14280949
-0.15369059 0.12036249 0.49075001 14216691
-0.15261731 0.12036249 0.49075001 13822708
-0.15146686 0.12030118 0.49050003 13558772
-0.15031748 0.12023986 0.49025002 12373737
-0.14916921 0.12017854 0.49000001 10004417
-0.14802203 0.12011723 0.48975003 9544886
-0.14680092 0.1199946 0.48925003 9412269
-0.14558201 0.11987197 0.48875001 9477294
-0.14429137 0.11968803 0.48800004 9543087
-0.14300399 0.11950407 0.48725003 9543085
-0.14186554 0.11944275 0.48700002 9543083
-0.14072821 0.11938144 0.48675004 9805741
-0.1396637 0.11938144 0.48675004 9543087
-0.13859917 0.11938144 0.48675004 9412017
-0.13746402 0.11932012 0.48650002 9412271
-0.13632996 0.11925881 0.48625001 9411499
-0.13512744 0.11913618 0.48575002 9608364
-0.13372013 0.1188296 0.48450002 9477294
-0.13252361 0.11870697 0.48400003 9412017
-0.1313972 0.11864565 0.48375002 9412271
-0.13020454 0.11852302 0.48325002 9412271
-0.12908086 0.11846171 0.48300001 9412271
-0.12789202 0.11833908 0.48250002 9543855
-0.12670536 0.11821645 0.48200002 9412269
-0.12558606 0.11815513 0.48175001 9412271
-0.12453248 0.11815513 0.48175001 9543857
-0.12347889 0.11815513 0.48175001 9542833
-0.12242531 0.11815513 0.48175001 9936564
-0.12137173 0.11815513 0.48175001 9543087
-0.12025572 0.11809382 0.48150003 9346989
-0.11914079 0.1180325 0.48125002 9675439
-0.11802696 0.11797119 0.48100004 9805743
-0.11685342 0.11784855 0.48050001 9805745
-0.11574233 0.11778724 0.48025003 9871538
-0.11463232 0.11772592 0.48000002 9805491
-0.11358257 0.11772592 0.48000002 9740212
-0.1124742 0.11766461 0.47975004 9543603
-0.11136693 0.11760329 0.47950003 9675956
-0.11026075 0.11754198 0.47925001 9740466
-0.10915567 0.11748066 0.47900003 9740464
-0.10799524 0.11735802 0.47850001 9675441
-0.10678115 0.11717408 0.47775003 9675189
-0.10568098 0.11711276 0.47750002 9544116
-0.1046367 0.11711276 0.47750002 9675956
-0.10359241 0.11711276 0.47750002 9675443
-0.10254812 0.11711276 0.47750002 9543857
-0.10150383 0.11711276 0.47750002 9544116
-0.10045955 0.11711276 0.47750002 9610163
-0.099363215 0.11705144 0.47725001 9675441
-0.098319471 0.11705144 0.47725001 9937329
-0.097173817 0.11692882 0.47675002 9937331
-0.096080765 0.11686751 0.47650003 10003122
-0.094988808 0.11680619 0.47625002 9740464
-0.093897931 0.11674487 0.47600001 9675189
-0.092856921 0.11674487 0.47600001 9806777
-0.091815919 0.11674487 0.47600001 9675189
-0.090822592 0.11680619 0.47625002 9806005
-0.089781038 0.11680619 0.47625002 9806005
-0.088739485 0.11680619 0.47625002 9871798
-0.087697931 0.11680619 0.47625002 9871798
-0.086656384 0.11680619 0.47625002 9872052
-0.085569881 0.11674487 0.47600001 9675443
-0.084528878 0.11674487 0.47600001 9610163
-0.083487868 0.11674487 0.47600001 9675441
-0.045474853 0.070635557 0.28800002 8487514
-0.044767145 0.070512921 0.28750002 8421203
-0.044023246 0.070328973 0.28675002 8290637
-0.042828605 0.069409244 0.28300002 8158785
-0.041874096 0.068857402 0.28075001 8091963
-0.040488541 0.06756977 0.2755 7235369
-0.039705057 0.067263193 0.27425 8945446
-0.039069626 0.067201883 0.27400002 9602327
-0.038470391 0.067201883 0.27400002 10062095
-0.037836604 0.067140564 0.27375001 10259728
-0.037237916 0.067140564 0.27375001 10391302
-0.036605768 0.067079253 0.27350003 10718730
-0.036007628 0.067079253 0.27350003 10717967
-0.035409488 0.067079253 0.27350003 10848783
-0.034843165 0.067140564 0.27375001 10848783
-0.034244474 0.067140564 0.27375001 10783492
-0.033645786 0.067140564 0.27375001 10783490
-0.033016924 0.067079253 0.27350003 10914826
-0.03241878 0.067079253 0.27350003 10915348
-0.031791553 0.067017935 0.27325001 11111957
-0.031165415 0.066956617 0.273 11176982
-0.030540379 0.066895306 0.27275002 11177488
-0.02991643 0.066833988 0.27250001 10914828
-0.029293578 0.066772677 0.27225003 10849033
-0.028671816 0.066711359 0.27200001 11046152
-0.028076956 0.066711359 0.27200001 11046412
-0.027482094 0.066711359 0.27200001 10981389
-0.026887234 0.066711359 0.27200001 10981643
-0.026268207 0.06665004 0.27175 10915850
-0.025673894 0.06665004 0.27175 10784262
-0.025079578 0.06665004 0.27175 10981389
-0.024462743 0.06658873 0.27150002 11046412
-0.023846995 0.066527411 0.27125001 11178000
-0.023232345 0.066466101 0.27100003 10981389
-0.022618786 0.066404775 0.27075002 10849283
-0.022006318 0.066343457 0.2705 10915078
-0.021394948 0.066282146 0.27025002 11112205
-0.020784669 0.066220827 0.27000001 11243277
-0.020175483 0.066159509 0.26975 11177484
-0.019585542 0.066159509 0.26975 10849287
-0.018978 0.066098198 0.26950002 10914826
-0.01835449 0.065975569 0.26900002 11177486
-0.017749678 0.065914251 0.26875001 11177484
-0.01714596 0.065852933 0.2685 11046412
-0.016558753 0.065852933 0.2685 10915078
-0.015971547 0.065852933 0.2685 11046152
-0.015384342 0.065852933 0.2685 11045900
-0.014797136 0.065852933 0.2685 10980359
-0.0141967 0.065791622 0.26825002 11243527
-0.013610041 0.065791622 0.26825002 11046150
-0.013011243 0.065730304 0.26800001 10914826
-0.012413541 0.065668993 0.26775002 11243279
-0.01181693 0.065607674 0.26750001 11045385
-0.011221414 0.065546356 0.26725 10980359
-0.010626991 0.065485045 0.26700002 11046412
-0.010033661 0.065423727 0.26675001 10783244
-0.009441427 0.065362416 0.26650003 10979594
-0.0088585941 0.065362416 0.26650003 11110662
-0.0082679987 0.065301098 0.26625001 10979592
-0.007685713 0.065301098 0.26625001 10914312
-0.0071034273 0.065301098 0.26625001 10848519
-0.0065211421 0.065301098 0.26625001 10848519
-0.0059332796 0.06523978 0.266 10914312
-0.005346512 0.065178469 0.26575002 10717447
-0.0047608367 0.065117151 0.26550001 10586115
-0.0041762558 0.06505584 0.26525003 10782726
-0.0035961575 0.06505584 0.26525003 10782728
-0.0030132162 0.064994521 0.26500002 10782730
-0.0024336644 0.064994521 0.26500002 10782730
-0.0018541127 0.064994521 0.26500002 10651404
-0.0012757634 0.06505584 0.26525003 10716933
-0.00069566496 0.06505584 0.26525003 10586113
-0.00011556649 0.06505584 0.26525003 10455045
0.000464532 0.06505584 0.26525003 10520588
0.0010456149 0.065117151 0.26550001 10782730
0.0016262601 0.065117151 0.26550001 10782728
0.0022089835 0.065178469 0.26575002 10455047
0.0027901754 0.065178469 0.26575002 10455058
0.0033713675 0.065178469 0.26575002 10454547
0.0039488408 0.065117151 0.26550001 10520340
0.0045294859 0.065117151 0.26550001 10716949
0.0051053199 0.06505584 0.26525003 10520086
0.0056854184 0.06505584 0.26525003 10520088
0.0062655169 0.06505584 0.26525003 10586394
0.0068391631 0.064994521 0.26500002 10652187
0.0074257134 0.06505584 0.26525003 10717467
0.0080058118 0.06505584 0.26525003 10849314
0.0085859103 0.06505584 0.26525003 10717728
0.0091660088 0.06505584 0.26525003 10652187
0.0097461073 0.06505584 0.26525003 10652187
0.010326206 0.06505584 0.26525003 10455578
0.010906304 0.06505584 0.26525003 10521371
0.011486403 0.06505584 0.26525003 10586392
0.012066501 0.06505584 0.26525003 10717465
0.0126466 0.06505584 0.26525003 10717467
0.013239164 0.065117151 0.26550001 10585881
0.013819809 0.065117151 0.26550001 10650650
0.014400454 0.065117151 0.26550001 10650902
0.014995207 0.065178469 0.26575002 10585363
0.015576399 0.065178469 0.26575002 10388234
0.016172789 0.06523978 0.266 10454795
0.016770275 0.065301098 0.26625001 10454795
0.017368855 0.065362416 0.26650003 10454277
0.017968526 0.065423727 0.26675001 10454277
0.018569293 0.065485045 0.26700002 10454795
0.019153219 0.065485045 0.26700002 10585359
0.019755622 0.065546356 0.26725 10520340
0.020359125 0.065607674 0.26750001 10389265
0.020944143 0.065607674 0.26750001 10520340
0.021569403 0.065730304 0.26800001 10455060
0.022176184 0.065791622 0.26825002 10257677
0.022762844 0.065791622 0.26825002 10585613
0.023371262 0.065852933 0.2685 10585613
0.023980778 0.065914251 0.26875001 10520336
0.02456853 0.065914251 0.26875001 10520338
0.025179686 0.065975569 0.26900002 10257677
0.025791932 0.06603688 0.26925001 10456078
0.026405275 0.066098198 0.26950002 10324744
0.027019706 0.066159509 0.26975 10521103
0.027635237 0.066220827 0.27000001 10520590
0.028251858 0.066282146 0.27025002 10586383
0.028869573 0.066343457 0.2705 10521621
0.029488381 0.066404775 0.27075002 10587164
0.030108284 0.066466101 0.27100003 10718496
0.030729279 0.066527411 0.27125001 10850084
0.031322498 0.066527411 0.27125001 10850347
0.031945135 0.06658873 0.27150002 10981679
0.032538902 0.06658873 0.27150002 10915888
0.033163175 0.06665004 0.27175 10981681
0.033757489 0.06665004 0.27175 11047988
0.034351803 0.06665004 0.27175 10982195
0.034946118 0.06665004 0.27175 11180092
0.035540432 0.06665004 0.27175 11246148
0.036134746 0.06665004 0.27175 11443529
0.036762848 0.066711359 0.27200001 11378767
0.037357714 0.066711359 0.27200001 11574098
0.037952572 0.066711359 0.27200001 11771990
0.038582861 0.066772677 0.27225003 11378767
0.039178271 0.066772677 0.27225003 11313746
0.039810199 0.066833988 0.27250001 11117142
0.040406153 0.066833988 0.27250001 11116375
0.041039724 0.066895306 0.27275002 10787664
0.041674387 0.066956617 0.273 10852425
0.042310148 0.067017935 0.27325001 10524228
0.042907741 0.067017935 0.27325001 10261054
0.043545142 0.067079253 0.27350003 10063927
0.044143282 0.067079253 0.27350003 9800755
0.044782318 0.067140564 0.27375001 9800503
0.045381006 0.067140564 0.27375001 9472317
0.045979694 0.067140564 0.27375001 8155942
0.046578377 0.067140564 0.27375001 8091180
0.047177069 0.067140564 0.27375001 8618305
0.048081171 0.06756977 0.2755 8421953
0.049523063 0.068734773 0.28025001 8290887
0.050896276 0.069777131 0.2845 8159816
0.051835373 0.070206344 0.28625003 8094291
0.052507218 0.070267655 0.28650001 8094312
0.053180154 0.070328973 0.28675002 8621710
0.092836231 0.11466014 0.46750003 8950171
0.094009228 0.11484409 0.46825004 8950432
0.09538845 0.1152733 0.47000003 8818846
0.096467614 0.11533461 0.47025001 8884639
0.097547881 0.11539593 0.47050002 8884639
0.098576866 0.11539593 0.47050002 8950432
0.099605836 0.11539593 0.47050002 8950432
0.10068829 0.11545724 0.47075003 8753567
0.10171781 0.11545724 0.47075003 8753821
0.10269278 0.11539593 0.47050002 8950432
0.10372175 0.11539593 0.47050002 8819360
0.10469507 0.11533461 0.47025001 8819614
0.10566729 0.1152733 0.47000003 8884639
0.10663842 0.11521198 0.46975002 9081505
0.10760847 0.11515067 0.46950004 8884639
0.10863525 0.11515067 0.46950004 8753567
0.10960365 0.11508935 0.46925002 8753567
0.11151399 0.11600909 0.47300002 8819360
0.11260793 0.1160704 0.47325003 8753567
0.11370295 0.11613172 0.47350001 8819360
0.11473848 0.11613172 0.47350001 8623005
0.11577402 0.11613172 0.47350001 8753821
0.11680956 0.11613172 0.47350001 8819100
0.11772066 0.11600909 0.47300002 8622751
0.11869234 0.11594777 0.47275001 8556960
0.11972624 0.11594777 0.47275001 8687776
0.12076014 0.11594777 0.47275001 8687260
0.12185844 0.11600909 0.47300002 8884639
0.12295784 0.1160704 0.47325003 8687262
0.12405833 0.11613172 0.47350001 8818848
0.12509386 0.11613172 0.47350001 8687774
0.12606281 0.1160704 0.47325003 8622751
0.12703067 0.11600909 0.47300002 8425372
0.12799743 0.11594777 0.47275001 8557723
0.1289631 0.11588646 0.47250003 8556440
0.12992765 0.11582514 0.47225001 8818846
0.13096046 0.11582514 0.47225001 8490397
0.13206314 0.11588646 0.47250003 8425372
0.13309649 0.11588646 0.47250003 8688026
0.13420081 0.11594777 0.47275001 8752794
0.13530624 0.11600909 0.47300002 8752540
0.13641274 0.1160704 0.47325003 8621469
0.13744773 0.1160704 0.47325003 8490395
0.13855587 0.11613172 0.47350001 8621721
0.13959141 0.11613172 0.47350001 8686999
0.14062695 0.11613172 0.47350001 8621467
0.14173728 0.11619303 0.47375003 8293786
0.14277336 0.11619303 0.47375003 8228506
0.14403713 0.11637698 0.47450003 8359833
0.14522773 0.11649961 0.47500002 8424856
0.14634353 0.11656093 0.47525004 8359063
0.14738289 0.11656093 0.47525004 8490133
0.14842226 0.11656093 0.47525004 8555928
0.14946163 0.11656093 0.47525004 8031897
0.15050098 0.11656093 0.47525004 8424856
0.15146063 0.11649961 0.47500002 8489622
0.15241918 0.11643829 0.47475001 8424856
0.15329584 0.11631566 0.47425002 8162965
0.15425168 0.11625435 0.47400004 8294038
0.1552064 0.11619303 0.47375003 8424342
0.15624247 0.11619303 0.47375003 8621721
0.15736157 0.11625435 0.47400004 8227477
0.15848173 0.11631566 0.47425002 8227993
0.159603 0.11637698 0.47450003 8162967
0.16072536 0.11643829 0.47475001 8424856
0.16176364 0.11643829 0.47475001 8293270
0.16288765 0.11649961 0.47500002 8293016
0.16401275 0.11656093 0.47525004 8096409
0.16505212 0.11656093 0.47525004 8293016
0.16609147 0.11656093 0.47525004 8227223
0.16713084 0.11656093 0.47525004 8293270
0.1681702 0.11656093 0.47525004 8227477
0.16929857 0.11662224 0.47550002 8227477
0.17042805 0.11668356 0.47575003 8096659
0.17155862 0.11674487 0.47600001 8227475
0.17278093 0.11686751 0.47650003 8293016
0.17400542 0.11699013 0.47700003 8096407
0.17514035 0.11705144 0.47725001 7899282
0.17627639 0.11711276 0.47750002 7899795
0.17732067 0.11711276 0.47750002 8096659
0.17836495 0.11711276 0.47750002 7965075
0.1793153 0.11705144 0.47725001 7833748
0.18026458 0.11699013 0.47700003 7964821
0.18121274 0.11692882 0.47675002 8227223
0.18215983 0.11686751 0.47650003 7965073
0.18320192 0.11686751 0.47650003 7899541
0.18424402 0.11686751 0.47650003 8096407
0.18548054 0.11699013 0.47700003 8095891
0.18662149 0.11705144 0.47725001 7899028
0.18786184 0.11717408 0.47775003 8096661
0.18900552 0.11723539 0.47800002 7899028
0.19015031 0.11729671 0.47825003 7833237
0.19129618 0.11735802 0.47850001 7767957
0.19234265 0.11735802 0.47850001 7702162
0.19338912 0.11735802 0.47850001 7833748
0.1944356 0.11735802 0.47850001 7964305
0.19548206 0.11735802 0.47850001 8030096
0.19642587 0.11729671 0.47825003 7964303
0.1974718 0.11729671 0.47825003 7899282
0.19851772 0.11729671 0.47825003 7964305
0.19966796 0.11735802 0.47850001 8095377
0.20071444 0.11735802 0.47850001 8161170
0.20186633 0.11741934 0.47875002 8160916
0.20291334 0.11741934 0.47875002 7964051
0.20417337 0.11754198 0.47925001 7833235
0.20532854 0.11760329 0.47950003 8029582
0.20637722 0.11760329 0.47950003 7701901
0.20753403 0.11766461 0.47975004 7832465
0.20858324 0.11766461 0.47975004 8095377
0.2095232 0.11760329 0.47950003 8029584
0.21057186 0.11760329 0.47950003 7833235
0.21151017 0.11754198 0.47925001 7833748
0.21266916 0.11760329 0.47950003 7767696
0.21382926 0.11766461 0.47975004 7833235
0.21510242 0.11778724 0.48025003 7833235
0.21637776 0.11790987 0.48075002 7832719
0.21754223 0.11797119 0.48100004 7701903
0.21870777 0.1180325 0.48125002 7767955
0.21987443 0.11809382 0.48150003 7636369
0.22104216 0.11815513 0.48175001 7702164
0.22209574 0.11815513 0.48175001 7701649
0.22326513 0.11821645 0.48200002 7964305
0.22431925 0.11821645 0.48200002 7832719
0.22549029 0.11827777 0.48225003 7832465
0.22771938 0.11889092 0.48475003 7766672
0.22877952 0.11889092 0.48475003 7702162
0.22983967 0.11889092 0.48475003 7767694
0.23078072 0.1188296 0.48450002 7701901
0.23172067 0.11876828 0.48425001 7439242
0.23265956 0.11870697 0.48400003 7438983
0.23359732 0.11864565 0.48375002 7570828
0.23465529 0.11864565 0.48375002 7702155
0.23559144 0.11858434 0.48350003 7766924
0.23664886 0.11858434 0.48350003 7898512
0.23770626 0.11858434 0.48350003 7766924
0.23876366 0.11858434 0.48350003 7702414
0.23982108 0.11858434 0.48350003 7702155
0.24100302 0.11864565 0.48375002 7701901
0.24218608 0.11870697 0.48400003 7767694
0.24349585 0.1188296 0.48450002 7767696
0.24455546 0.1188296 0.48450002 7897744
0.24574178 0.11889092 0.48475003 7767442
0.2470565 0.11901355 0.48525003 7701649
0.24824555 0.11907487 0.48550004 7636110
0.24982086 0.11932012 0.48650002 7636108
0.25152946 0.11962671 0.48775002 7242887
0.2527256 0.11968803 0.48800004 7505805
0.25379288 0.11968803 0.48800004 7440012
0.25499067 0.11974934 0.48825002 7440525
0.25605848 0.11974934 0.48825002 7176840
0.25712624 0.11974934 0.48825002 7570830
0.25832626 0.11981066 0.48850003 7635856
0.25939462 0.11981066 0.48850003 7636108
0.26059625 0.11987197 0.48875001 7701901
0.26500729 0.11993328 0.48900002 7636369
0.26607674 0.11993328 0.48900002 7897998
0.26728275 0.1199946 0.48925003 8160655
0.27711117 0.12054644 0.49150002 7440014
0.27747861 0.12023986 0.49025002 7243146
0.27855077 0.12023986 0.49025002 7637645
0.27962294 0.12023986 0.49025002 7832971
-0.1957366 0.12428057 0.50225002 9738415
-0.19454132 0.12421872 0.50200003 10726843
-0.19334713 0.12415686 0.50175005 9345444
-0.19215398 0.12409499 0.50150001 9477292
-0.19105721 0.12409499 0.50150001 9543085
-0.18996044 0.12409499 0.50150001 9083306
-0.18886366 0.12409499 0.50150001 9280685
-0.18776689 0.12409499 0.50150001 9542833
-0.18667012 0.12409499 0.50150001 9476526
-0.18557334 0.12409499 0.50150001 9412271
-0.18447657 0.12409499 0.50150001 9214890
-0.18347122 0.12415686 0.50175005 9411501
-0.1823739 0.12415686 0.50175005 9477040
-0.18136689 0.12421872 0.50200003 9214638
-0.1803588 0.12428057 0.50225002 9280685
-0.17792195 0.12335265 0.49850002 9214892
-0.17683174 0.12335265 0.49850002 9346737
-0.17574154 0.12335265 0.49850002 10397115
-0.17465132 0.12335265 0.49850002 14082290
-0.17356111 0.12335265 0.49850002 12703465
-0.17247088 0.12335265 0.49850002 9279409
-0.17138067 0.12335265 0.49850002 9345706
-0.17020507 0.12329078 0.49825004 9214890
-0.16903055 0.12322892 0.49800003 9280685
-0.16777281 0.1231052 0.49750003 9214892
-0.1664335 0.12291961 0.49675003 9083819
-0.16518068 0.12279589 0.49625003 9083819
-0.16285539 0.12186796 0.49250004 9477294
-0.16169615 0.1218061 0.49225003 9542319
-0.16053803 0.12174424 0.49200001 9477042
-0.15938102 0.12168238 0.49175003 9411249
-0.15830557 0.12168238 0.49175003 10071491
-0.15715018 0.12162051 0.49150002 12112360
-0.15599589 0.12155866 0.49125004 13558261
-0.15484269 0.12149679 0.49100003 14215156
-0.15369059 0.12143493 0.49075001 14674677
-0.15253957 0.12137306 0.49050003 14018290
-0.15146686 0.12137306 0.49050003 13164530
-0.15031748 0.1213112 0.49025002 10728138
-0.14916921 0.12124934 0.49000001 9740982
-0.14802203 0.12118748 0.48975003 9543603
-0.14680092 0.12106376 0.48925003 9543857
-0.14558201 0.12094003 0.48875001 9543087
-0.14429137 0.12075445 0.48800004 9674159
-0.14300399 0.12056886 0.48725003 9543087
-0.14186554 0.12050699 0.48700002 9411499
-0.14072821 0.12044514 0.48675004 9411501
-0.1396637 0.12044514 0.48675004 9477040
-0.13852799 0.12038328 0.48650002 9477294
-0.13746402 0.12038328 0.48650002 9674673
-0.13632996 0.12032141 0.48625001 9543087
-0.13512744 0.12019769 0.48575002 9477294
-0.13365112 0.11982652 0.48425001 9477292
-0.13245516 0.11970279 0.48375002 9412269
-0.1313293 0.11964093 0.48350003 9412271
-0.13013718 0.11951721 0.48300001 9412271
-0.12888043 0.11933163 0.48225003 9543857
-0.12749444 0.11902232 0.48100004 9674671
-0.12644249 0.11902232 0.48100004 9477294
-0.12539056 0.11902232 0.48100004 9543603
-0.12440324 0.11908417 0.48125002 9412017
-0.12335073 0.11908417 0.48125002 9346224
-0.12229825 0.11908417 0.48125002 9674673
-0.12124576 0.11908417 0.48125002 9937329
-0.12019327 0.11908417 0.48125002 9674671
-0.1190789 0.11902232 0.48100004 9674673
-0.11796562 0.11896046 0.48075002 9871536
-0.11685342 0.11889859 0.48050001 9740464
-0.11574233 0.11883673 0.48025003 9871538
-0.11463232 0.11877486 0.48000002 9871538
-0.11352341 0.11871301 0.47975004 9674419
-0.11241559 0.11865114 0.47950003 9674419
-0.11130886 0.11858927 0.47925001 9543603
-0.11020324 0.11852742 0.47900003 9675443
-0.10904172 0.11840369 0.47850001 9740464
-0.10782598 0.11821811 0.47775003 9872048
-0.10672527 0.11815625 0.47750002 9871536
-0.10562565 0.11809438 0.47725001 9740466
-0.10458191 0.11809438 0.47725001 9609909
-0.10353817 0.11809438 0.47725001 9675956
-0.10249443 0.11809438 0.47725001 9741236
-0.10145069 0.11809438 0.47725001 9675443
-0.10040695 0.11809438 0.47725001 9872052
-0.099363215 0.11809438 0.47725001 9937329
-0.098267972 0.11803252 0.47700003 9937327
-0.097173817 0.11797066 0.47675002 9871536
-0.096080765 0.1179088 0.47650003 9872050
