# .PCD v0.7 - Point Cloud Data file format
VERSION 0.7
FIELDS x y z rgb
SIZE 4 4 4 4
TYPE F F F U
COUNT 1 1 1 1
WIDTH 1126
HEIGHT 1
VIEWPOINT 0 0 0 1 0 0 0
POINTS 1126
DATA ascii
0.053226516 0.071017466 0.287 6382401
0.053901095 0.071079336 0.28725001 6185043
0.054576766 0.071141198 0.28750002 5988186
-0.17013623 0.13193101 0.52850002 10001306
-0.16890047 0.13186862 0.52825004 14344927
-0.16766581 0.13180619 0.528 10397087
-0.16651107 0.13180619 0.528 10066582
-0.16535635 0.13180619 0.528 9935766
-0.1642016 0.13180619 0.528 10265248
-0.16304688 0.13180619 0.528 11975868
-0.16196881 0.13186862 0.52825004 14279134
-0.16088964 0.13193101 0.52850002 10463140
-0.15973382 0.13193101 0.52850002 10001306
-0.15857801 0.13193101 0.52850002 9474445
-0.15742218 0.13193101 0.52850002 9079177
-0.13848107 0.12525333 0.50175005 10132375
-0.13731527 0.12519093 0.50150001 9409420
-0.1362185 0.12519093 0.50150001 9475215
-0.13505436 0.12512852 0.50125003 9343629
-0.13389134 0.12506612 0.50100005 9475215
-0.13266312 0.12494129 0.50050002 9278604
-0.13156854 0.12494129 0.50050002 9475213
-0.13040878 0.12487889 0.50025004 9540236
-0.12931475 0.12487889 0.50025004 9409422
-0.1281566 0.12481647 0.5 9409422
-0.12693606 0.12469167 0.49950004 9343629
-0.12571768 0.12456684 0.49900001 9343629
-0.12443907 0.12437962 0.49825004 9935766
-0.12322561 0.1242548 0.49775001 9212811
-0.12146226 0.12356831 0.49500003 9147018
-0.12025809 0.12344349 0.49450001 9212041
-0.11887538 0.12313145 0.49325001 9474443
-0.11767724 0.12300663 0.49275002 9408650
-0.11612634 0.12250737 0.49075001 9342859
-0.11487724 0.12232015 0.49000001 9408650
-0.11374755 0.12225774 0.48975003 9080455
-0.11256145 0.12213293 0.48925003 9211271
-0.11137751 0.1220081 0.48875001 9212041
-0.11013936 0.12182088 0.48800004 9212041
-0.10879272 0.12150884 0.48675004 9081225
-0.10728557 0.12100957 0.48475003 9212041
-0.10617064 0.12094717 0.48450002 9081227
-0.10505681 0.12088475 0.48425001 8949641
-0.10394406 0.12082235 0.48400003 9147020
-0.10283242 0.12075994 0.48375002 8949639
-0.10172188 0.12069754 0.48350003 9081740
-0.09988372 0.11976141 0.47975004 9146767
-0.098783001 0.119699 0.47950003 8883595
-0.097683385 0.11963659 0.47925001 9147020
-0.096534453 0.11951178 0.47875002 9147018
-0.095337845 0.11932455 0.47800002 8884100
-0.094144508 0.11913732 0.47725001 9147272
-0.093052007 0.11907492 0.47700003 9081227
-0.091912366 0.11895011 0.47650003 9147020
-0.090822592 0.11888769 0.47625002 9081227
-0.089733906 0.11882528 0.47600001 9081225
-0.088646322 0.11876288 0.47575003 8949639
-0.087467752 0.11857565 0.47500002 8949639
-0.086292468 0.11838843 0.47425002 9277834
-0.085165404 0.11826361 0.47375003 9277834
-0.084084921 0.1182012 0.47350001 9147018
-0.046264786 0.07214392 0.289 7368254
-0.045119576 0.071332611 0.28575 7302197
-0.044455722 0.071270213 0.28550002 7170093
-0.043524288 0.070770942 0.28350002 7236654
-0.041693568 0.068773873 0.2755 6116120
-0.041091055 0.068773873 0.2755 7365914
-0.040488541 0.068773873 0.2755 8285204
-0.039849836 0.068711475 0.27525002 8679442
-0.039247863 0.068711475 0.27525002 8745233
-0.038610794 0.068649061 0.27500001 8942098
-0.038009372 0.068649061 0.27500001 8876817
-0.037373949 0.068586655 0.27475002 8680462
-0.036773071 0.068586655 0.27475002 8746001
-0.03613928 0.068524241 0.27450001 8745233
-0.035538953 0.068524241 0.27450001 8942098
-0.034938626 0.068524241 0.27450001 8941583
-0.034338295 0.068524241 0.27450001 9071886
-0.033768695 0.068586655 0.27475002 8875794
-0.033137642 0.068524241 0.27450001 8810512
-0.032537311 0.068524241 0.27450001 8941837
-0.031907897 0.068461835 0.27425 9072399
-0.031251036 0.068337016 0.27375001 9006608
-0.030596364 0.068212204 0.27325001 8941587
-0.02997132 0.06814979 0.273 9007378
-0.029347377 0.068087392 0.27275002 8744458
-0.028724521 0.068024978 0.27250001 8876296
-0.028128568 0.068024978 0.27250001 9072653
-0.027532613 0.068024978 0.27250001 8941837
-0.02693666 0.068024978 0.27250001 9072905
-0.02631654 0.067962572 0.27225003 8942089
-0.025721135 0.067962572 0.27225003 8941835
-0.025079578 0.067837752 0.27175 8941835
-0.024462743 0.067775346 0.27150002 8744204
-0.02382502 0.067650534 0.27100003 8941585
-0.023189478 0.067525715 0.2705 9073171
-0.022556128 0.067400895 0.27000001 8941585
-0.021945301 0.067338482 0.26975 8875794
-0.02131578 0.067213669 0.26925001 8941587
-0.020707689 0.067151263 0.26900002 8875792
-0.02011939 0.067151263 0.26900002 8744206
-0.019512936 0.067088857 0.26875001 9006610
-0.018907579 0.067026444 0.2685 8744208
-0.018320372 0.067026444 0.2685 8678674
-0.017716657 0.066964038 0.26825002 8875540
-0.017129997 0.066964038 0.26825002 8875024
-0.016527919 0.066901632 0.26800001 8743954
-0.015941806 0.066901632 0.26800001 8612368
-0.015341369 0.066839226 0.26775002 8678161
-0.014742026 0.066776812 0.26750001 8547088
-0.014143776 0.066714406 0.26725 8612881
-0.013533936 0.066589586 0.26675001 8613135
-0.01293842 0.066527188 0.26650003 8547340
-0.012343996 0.066464774 0.26625001 8744208
-0.011761711 0.066464774 0.26625001 8546829
-0.011168928 0.066402361 0.266 8678415
-0.010587189 0.066402361 0.266 8612368
-0.010005451 0.066402361 0.266 8612622
-0.0094237123 0.066402361 0.266 8678161
-0.0088336635 0.066339962 0.26575002 8480782
-0.0082524717 0.066339962 0.26575002 8546575
-0.0076712798 0.066339962 0.26575002 8480782
-0.0070834178 0.066277549 0.26550001 8480784
-0.0065088957 0.066339962 0.26575002 8612370
-0.0059277038 0.066339962 0.26575002 8218639
-0.0053515411 0.066402361 0.266 8218637
-0.0047742855 0.066464774 0.26625001 8349963
-0.0041920003 0.066464774 0.26625001 8217610
-0.0036131043 0.066527188 0.26650003 8087053
-0.0030302722 0.066527188 0.26650003 8021262
-0.0024474401 0.066527188 0.26650003 8152080
-0.0018646077 0.066527188 0.26650003 8152334
-0.0012829778 0.066589586 0.26675001 7823881
-0.00070025463 0.066652 0.26700002 8021262
-0.00011632895 0.066652 0.26700002 7823879
0.00046715891 0.066589586 0.26675001 8021008
0.0010505378 0.066589586 0.26675001 8020746
0.0016339166 0.066589586 0.26675001 8152071
0.0022152178 0.066527188 0.26650003 8020231
0.002795425 0.066464774 0.26625001 8217873
0.0033777105 0.066464774 0.26625001 8086287
0.0039562774 0.066402361 0.266 8151567
0.0045380159 0.066402361 0.266 8085776
0.0051149433 0.066339962 0.26575002 8152080
0.0056961356 0.066339962 0.26575002 8086801
0.0062773274 0.066339962 0.26575002 8349975
0.006864971 0.066402361 0.266 8086801
0.0074467091 0.066402361 0.266 8349975
0.0080284476 0.066402361 0.266 8415514
0.0086101862 0.066402361 0.266 8481561
0.0091919256 0.066402361 0.266 8350745
0.0097736642 0.066402361 0.266 8481561
0.010355403 0.066402361 0.266 8547352
0.010937141 0.066402361 0.266 8612372
0.01151888 0.066402361 0.266 8612118
0.012100618 0.066402361 0.266 8677911
0.012682358 0.066402361 0.266 8677911
0.013251631 0.066339962 0.26575002 8612631
0.013832822 0.066339962 0.26575002 8350227
0.014400454 0.066277549 0.26550001 8350227
0.014981099 0.066277549 0.26550001 8547090
0.015547093 0.066215143 0.26525003 8546575
0.016127191 0.066215143 0.26525003 8218375
0.01670729 0.066215143 0.26525003 8546829
0.017287387 0.066215143 0.26525003 8283657
0.017884325 0.066277549 0.26550001 8218637
0.018482357 0.066339962 0.26575002 8218637
0.019081483 0.066402361 0.266 8349709
0.019700183 0.066527188 0.26650003 8349711
0.020302042 0.066589586 0.26675001 8349711
0.020885421 0.066589586 0.26675001 8152071
0.021488922 0.066652 0.26700002 8218123
0.022093512 0.066714406 0.26725 8415502
0.022699201 0.066776812 0.26750001 8217862
0.023305982 0.066839226 0.26775002 8283657
0.023913855 0.066901632 0.26800001 8349963
0.024499966 0.066901632 0.26800001 8218891
0.025109483 0.066964038 0.26825002 8152584
0.02569614 0.066964038 0.26825002 8218637
0.026307294 0.067026444 0.2685 8218637
0.026919542 0.067088857 0.26875001 8087053
0.027507296 0.067088857 0.26875001 8415504
0.028121185 0.067151263 0.26900002 8284432
0.028762847 0.067276083 0.26950002 8284434
0.029406695 0.067400895 0.27000001 8416020
0.030024957 0.067463309 0.27025002 8350223
0.030672636 0.067588121 0.27075002 8350995
0.03126476 0.067588121 0.27075002 8219411
0.031886306 0.067650534 0.27100003 8416018
0.032478977 0.067650534 0.27100003 8612631
0.033102158 0.06771294 0.27125001 8679190
0.033695377 0.06771294 0.27125001 8613915
0.0342886 0.06771294 0.27125001 8613917
0.034881823 0.06771294 0.27125001 8810526
0.035507739 0.067775346 0.27150002 8613663
0.036101505 0.067775346 0.27150002 8613663
0.036729056 0.067837752 0.27175 8744481
0.037357714 0.067900166 0.27200001 8744733
0.037987456 0.067962572 0.27225003 8613915
0.038618289 0.068024978 0.27250001 8416536
0.039250221 0.068087392 0.27275002 8285463
0.039883245 0.06814979 0.273 8154649
0.040480293 0.06814979 0.273 8285463
0.041077338 0.06814979 0.273 8678938
0.041712552 0.068212204 0.27325001 8481813
0.042310148 0.068212204 0.27325001 8285204
0.042907741 0.068212204 0.27325001 8416790
0.043545142 0.068274617 0.27350003 8416020
0.044143282 0.068274617 0.27350003 8154131
0.044741426 0.068274617 0.27350003 8154129
0.045339566 0.068274617 0.27350003 8088856
0.045937706 0.068274617 0.27350003 7957018
0.046535846 0.068274617 0.27350003 7628055
0.04713399 0.068274617 0.27350003 6312722
0.04773213 0.068274617 0.27350003 5984532
0.04833027 0.068274617 0.27350003 6577191
0.049465101 0.069023512 0.27650002 6511909
0.050658327 0.069834821 0.27975002 6511657
0.05181995 0.070583716 0.28275001 6249519
0.053226516 0.071644656 0.287 6185013
0.053854179 0.071644656 0.287 6184770
0.054529306 0.071707062 0.28725001 6250586
0.39614505 0.15183924 0.60825002 2700336
0.39633173 0.15140238 0.60650003 3027501
0.39733028 0.15127756 0.60600001 3290673
-0.17137307 0.13314889 0.52875 9868695
-0.1689804 0.13308595 0.52850002 14278621
-0.1677452 0.13302299 0.52825004 10594213
-0.16658993 0.13302299 0.52825004 10001308
-0.16535635 0.13296004 0.528 9870492
-0.1642016 0.13296004 0.528 9936285
-0.16312408 0.13302299 0.52825004 13752277
-0.16196881 0.13302299 0.52825004 13226699
-0.16081354 0.13302299 0.52825004 10396834
-0.15965827 0.13302299 0.52825004 9804180
-0.158503 0.13302299 0.52825004 9212043
-0.15734772 0.13302299 0.52825004 9013894
-0.13957839 0.12634982 0.50175005 9080974
-0.13848107 0.12634982 0.50175005 10001559
-0.13738373 0.12634982 0.50175005 9212811
-0.1362185 0.12628685 0.50150001 9278604
-0.13512172 0.12628685 0.50150001 9278606
-0.13395815 0.12622391 0.50125003 9278606
-0.13279566 0.12616095 0.50100005 9475215
-0.13163425 0.12609799 0.50075001 9606029
-0.13047396 0.12603503 0.50050002 9343629
-0.12931475 0.12597209 0.50025004 9212813
-0.12809253 0.12584616 0.49975002 9081740
-0.12693606 0.12578322 0.49950004 9278353
-0.1256547 0.12559435 0.49875003 9343376
-0.12437663 0.12540549 0.49800003 10067352
-0.12322561 0.12534253 0.49775001 9343627
-0.12133957 0.12452412 0.49450001 9081227
-0.12001491 0.12427231 0.49350002 9212043
-0.11863437 0.12395754 0.49225003 9342857
-0.11725931 0.12364276 0.49100003 9342859
-0.11600803 0.1234539 0.49025002 9212043
-0.11481863 0.12332799 0.48975003 9342857
-0.11368949 0.12326504 0.48950002 9277834
-0.11250392 0.12313913 0.48900002 9212041
-0.11132056 0.12301322 0.48850003 9014662
-0.11013936 0.12288731 0.48800004 8949641
-0.1083457 0.1220689 0.48475003 8949641
-0.10728557 0.1220689 0.48475003 9212041
-0.10617064 0.12200594 0.48450002 9080457
-0.10505681 0.12194298 0.48425001 9277836
-0.10394406 0.12188003 0.48400003 9081225
-0.10283242 0.12181707 0.48375002 8949639
-0.10166927 0.12169117 0.48325002 9147018
-0.09988372 0.12080981 0.47975004 9147533
-0.098783001 0.12074685 0.47950003 8818315
-0.097683385 0.12068389 0.47925001 9080974
-0.096534453 0.12055799 0.47875002 9147018
-0.095437571 0.12049503 0.47850001 9016199
-0.094193831 0.12024321 0.47750002 9081225
-0.093052007 0.12011731 0.47700003 9081225
-0.091960587 0.12005435 0.47675002 9147020
-0.090870269 0.1199914 0.47650003 9081227
-0.089781038 0.11992844 0.47625002 9212043
-0.088692904 0.11986548 0.47600001 9014664
-0.087513797 0.11967663 0.47525004 9147020
-0.086246982 0.11936186 0.47400004 9277834
-0.085165404 0.1192989 0.47375003 9081225
-0.048063364 0.073593885 0.29225001 7631437
-0.046937395 0.072838433 0.28925002 7630662
-0.046304811 0.072838433 0.28925002 7367740
-0.045080107 0.071894109 0.28550002 7367218
-0.044377867 0.071768202 0.28500003 7235119
-0.042603139 0.069879562 0.2775 5457686
-0.041655738 0.069312975 0.27525002 7299867
-0.041053768 0.069312975 0.27525002 8088854
-0.040451802 0.069312975 0.27525002 8679188
-0.039849836 0.069312975 0.27525002 8811026
-0.039212216 0.069250017 0.27500001 9073682
-0.038610794 0.069250017 0.27500001 9138964
-0.037974823 0.069187067 0.27475002 9007376
-0.037373949 0.069187067 0.27475002 8942862
-0.036739606 0.06912411 0.27450001 8877071
-0.036106367 0.069061153 0.27425 9073936
-0.035506584 0.069061153 0.27425 9008143
-0.034906805 0.069061153 0.27425 8942089
-0.034307022 0.069061153 0.27425 9072651
-0.033707239 0.069061153 0.27425 9072399
-0.03310746 0.069061153 0.27425 9138194
-0.032478046 0.068998203 0.27400002 8875792
-0.031849723 0.068935245 0.27375001 9006606
-0.031193957 0.068809338 0.27325001 8744206
-0.030540379 0.068683431 0.27275002 8942100
-0.02991643 0.068620473 0.27250001 8744206
-0.029320477 0.068620473 0.27250001 8941837
-0.028698171 0.068557523 0.27225003 8876557
-0.028102763 0.068557523 0.27225003 8876044
-0.027507355 0.068557523 0.27225003 8941583
-0.026911948 0.068557523 0.27225003 8809481
-0.02631654 0.068557523 0.27225003 9072399
-0.025697514 0.068494566 0.27200001 8875790
-0.025079578 0.068431608 0.27175 8942098
-0.024440216 0.068305701 0.27125001 8810510
-0.023803039 0.068179794 0.27075002 8876303
-0.023168048 0.068053886 0.27025002 8941837
-0.022535242 0.067927971 0.26975 8875272
-0.021904625 0.067802064 0.26925001 8875792
-0.021295989 0.067739114 0.26900002 8810512
-0.020688443 0.067676157 0.26875001 8547854
-0.020081991 0.067613199 0.2685 8744206
-0.019476634 0.067550249 0.26825002 8941587
-0.018889975 0.067550249 0.26825002 8678928
-0.018286256 0.067487292 0.26800001 8678928
-0.017700145 0.067487292 0.26800001 8809231
-0.017098067 0.067424342 0.26775002 8743438
-0.016512502 0.067424342 0.26775002 8612622
-0.015912063 0.067361385 0.26750001 8875024
-0.015312719 0.067298427 0.26725 8547088
-0.014714472 0.067235477 0.26700002 8547342
-0.014117314 0.06717252 0.26675001 8743956
-0.013521252 0.06710957 0.26650003 8743184
-0.012926282 0.067046613 0.26625001 8612622
-0.012332406 0.066983655 0.266 8481547
-0.011750666 0.066983655 0.266 8613135
-0.011168928 0.066983655 0.266 8350223
-0.010587189 0.066983655 0.266 8546829
-0.0099960482 0.066920705 0.26575002 8415502
-0.0094148554 0.066920705 0.26575002 8415504
-0.0088336635 0.066920705 0.26575002 8349711
-0.0082524717 0.066920705 0.26575002 8349713
-0.0076712798 0.066920705 0.26575002 8086801
-0.007090088 0.066920705 0.26575002 8021262
-0.0065088957 0.066920705 0.26575002 8217873
-0.0059332796 0.066983655 0.266 8151821
-0.0053565712 0.067046613 0.26625001 7954438
-0.0047787689 0.06710957 0.26650003 8020746
-0.0041959365 0.06710957 0.26650003 7954188
-0.0036131043 0.06710957 0.26650003 7954442
-0.0030331146 0.06717252 0.26675001 7560197
-0.0024497358 0.06717252 0.26675001 7691016
-0.001868106 0.067235477 0.26700002 7821832
-0.0012877876 0.067424342 0.26775002 7821832
-0.00070156594 0.067361385 0.26750001 7559691
-0.00011643786 0.067298427 0.26725 7494152
0.00046759675 0.067235477 0.26700002 7755787
0.0010515224 0.067235477 0.26700002 7624971
0.0016339166 0.06717252 0.26675001 7756811
0.0022193738 0.067235477 0.26700002 7493121
0.002808549 0.067361385 0.26750001 7625736
0.003403083 0.067550249 0.26825002 7821580
0.0039971787 0.067676157 0.26875001 7624201
0.0045891972 0.067739114 0.26900002 7756041
0.0051774969 0.067739114 0.26900002 7756293
0.0057657966 0.067739114 0.26900002 7493891
0.0063481908 0.067676157 0.26875001 7559430
0.0069294912 0.067613199 0.2685 7691016
0.0074677058 0.06717252 0.26675001 7887627
0.0080435397 0.06710957 0.26650003 8020242
0.0086263716 0.06710957 0.26650003 7955217
0.0092092045 0.06710957 0.26650003 8480793
0.0097828498 0.067046613 0.26625001 8218389
0.010365136 0.067046613 0.26625001 8547352
0.010947421 0.067046613 0.26625001 8547100
0.011529706 0.067046613 0.26625001 8678174
0.012111992 0.067046613 0.26625001 8547100
0.012694278 0.067046613 0.26625001 8415768
0.013264096 0.066983655 0.266 8415254
0.013845835 0.066983655 0.266 8349973
0.014414014 0.066920705 0.26575002 8153366
0.014981099 0.066857748 0.26550001 8414739
0.015547093 0.066794798 0.26525003 8545807
0.016127191 0.066794798 0.26525003 8218377
0.01670729 0.066794798 0.26525003 8481295
0.017287387 0.066794798 0.26525003 8415504
0.017884325 0.066857748 0.26550001 8218639
0.018464969 0.066857748 0.26550001 8349709
0.019081483 0.066983655 0.266 8283657
0.019681701 0.067046613 0.26625001 8218377
0.020263989 0.067046613 0.26625001 8349709
0.020865848 0.06710957 0.26650003 8218639
0.021448681 0.06710957 0.26650003 8087053
0.022052178 0.06717252 0.26675001 8218639
0.022635559 0.06717252 0.26675001 8218637
0.023262458 0.067298427 0.26725 8349709
0.023869239 0.067361385 0.26750001 8086789
0.024477113 0.067424342 0.26775002 8087305
0.02506268 0.067424342 0.26775002 8087053
0.025672192 0.067487292 0.26800001 8218125
0.0262828 0.067550249 0.26825002 8415504
0.026869459 0.067550249 0.26825002 8415504
0.027481707 0.067613199 0.2685 8217614
0.028095048 0.067676157 0.26875001 8414993
0.028709484 0.067739114 0.26900002 8415506
0.029352238 0.067865022 0.26950002 8086801
0.029997181 0.067990929 0.27000001 8481299
0.030615993 0.068053886 0.27025002 8350225
0.03123589 0.068116836 0.2705 8284684
0.031856891 0.068179794 0.27075002 8547342
0.032449014 0.068179794 0.27075002 8678678
0.033041142 0.068179794 0.27075002 8744733
0.033664327 0.068242751 0.27100003 8351004
0.034256998 0.068242751 0.27100003 8678940
0.034849674 0.068242751 0.27100003 8547606
0.035475042 0.068305701 0.27125001 8613915
0.036068261 0.068305701 0.27125001 8613663
0.036729056 0.068431608 0.27175 8547354
0.037357714 0.068494566 0.27200001 8548376
0.037987456 0.068557523 0.27225003 8482842
0.038618289 0.068620473 0.27250001 8482844
0.039214242 0.068620473 0.27250001 8351258
0.039846726 0.068683431 0.27275002 8285463
0.040480293 0.068746381 0.273 8351256
0.041077338 0.068746381 0.273 8416538
0.041674387 0.068746381 0.273 8351510
0.042310148 0.068809338 0.27325001 8219922
0.042907741 0.068809338 0.27325001 8351256
0.043505333 0.068809338 0.27325001 8284950
0.044143282 0.068872295 0.27350003 8285717
0.044741426 0.068872295 0.27350003 8088334
0.045339566 0.068872295 0.27350003 8088336
0.045937706 0.068872295 0.27350003 8088856
0.046535846 0.068872295 0.27350003 7431955
0.04713399 0.068872295 0.27350003 7103508
0.04773213 0.068872295 0.27350003 6314001
0.04833027 0.068872295 0.27350003 5786642
0.04892841 0.068872295 0.27350003 6248485
0.050069802 0.069627747 0.27650002 6315302
0.051315952 0.070509106 0.28 6512429
0.052484687 0.071264565 0.28300002 6315566
0.053244337 0.07145343 0.28375003 6185009
0.054149639 0.071831152 0.28525001 6053702
0.054533456 0.07151638 0.28400001 5856600
0.39565659 0.15297958 0.60750002 3355443
0.39633173 0.15272777 0.60650003 3289650
-0.17021669 0.13430437 0.52875 12039864
-0.16906033 0.13430437 0.52875 13883867
-0.16782458 0.13424088 0.52850002 10725031
-0.16666876 0.13424088 0.52850002 9869720
-0.16551295 0.13424088 0.52850002 10001308
-0.16427937 0.13417739 0.52825004 10330271
-0.16312408 0.13417739 0.52825004 12501440
-0.16196881 0.13417739 0.52825004 12304314
-0.16081354 0.13417739 0.52825004 10527903
-0.15965827 0.13417739 0.52825004 9804180
-0.158503 0.13417739 0.52825004 8883848
-0.15727323 0.13411388 0.528 8818055
-0.13957839 0.12744629 0.50175005 9212813
-0.13848107 0.12744629 0.50175005 9607571
-0.13738373 0.12744629 0.50175005 9147533
-0.13628641 0.12744629 0.50175005 9278606
-0.13512172 0.12738279 0.50150001 9344399
-0.13402495 0.12738279 0.50150001 9475215
-0.13286191 0.12731929 0.50125003 9475215
-0.13163425 0.12719229 0.50075001 9540238
-0.13047396 0.12712878 0.50050002 9540238
-0.12925011 0.12700178 0.5 9409422
-0.12809253 0.12693828 0.49975002 9475215
-0.12680899 0.12674777 0.49900001 9277836
-0.12559171 0.12662077 0.49850002 10000536
-0.12431419 0.12643027 0.49775001 9803927
-0.12316373 0.12636678 0.49750003 9212813
-0.12121688 0.12547776 0.49400002 9343627
-0.11971091 0.12503326 0.49225003 9212041
-0.11845362 0.12484276 0.49150002 9080457
-0.11713991 0.12458875 0.49050003 9080974
-0.11594886 0.12446175 0.49000001 9212043
-0.11481863 0.12439825 0.48975003 9145478
-0.11363143 0.12427125 0.48925003 9211271
-0.1124464 0.12414424 0.48875001 9147018
-0.11132056 0.12408075 0.48850003 8949641
-0.10957512 0.12331873 0.48550004 9015947
-0.1083457 0.12312823 0.48475003 8884361
-0.10723023 0.12306473 0.48450002 8949639
-0.10617064 0.12306473 0.48450002 9212041
-0.10505681 0.12300123 0.48425001 9014664
-0.10394406 0.12293772 0.48400003 9147020
-0.10283242 0.12287422 0.48375002 8949639
-0.10166927 0.12274722 0.48325002 9081227
-0.09988372 0.12185822 0.47975004 9147533
-0.098783001 0.12179471 0.47950003 9147533
-0.097683385 0.12173121 0.47925001 9147018
-0.096584864 0.12166771 0.47900003 9015945
-0.095437571 0.1215407 0.47850001 8949639
-0.094292462 0.1214137 0.47800002 9212043
-0.093100771 0.1212232 0.47725001 9277836
-0.091960587 0.1210962 0.47675002 8949639
-0.090870269 0.1210327 0.47650003 8818566
-0.089781038 0.1209692 0.47625002 9081227
-0.088692904 0.1209057 0.47600001 9212041
-0.087605864 0.1208422 0.47575003 9277836
-0.086246982 0.12039769 0.47400004 9212041
-0.085120462 0.12027068 0.47350001 8883846
-0.046937395 0.073470533 0.28925002 7630658
-0.046304811 0.073470533 0.28925002 7498806
-0.04504063 0.07245452 0.28525001 7498806
-0.043677162 0.071248002 0.28050002 5852696
-0.042219326 0.069850981 0.27500001 7235103
-0.0416179 0.069850981 0.27500001 7892758
-0.041016482 0.069850981 0.27500001 8418069
-0.04041506 0.069850981 0.27500001 8679440
-0.039813638 0.069850981 0.27500001 8877071
-0.039212216 0.069850981 0.27500001 8811794
-0.038575694 0.06978748 0.27475002 8680462
-0.037974823 0.06978748 0.27475002 9008655
-0.037339941 0.069723979 0.27450001 9139729
-0.036706146 0.069660477 0.27425 9073936
-0.036106367 0.069660477 0.27425 9139216
-0.035474222 0.069596976 0.27400002 9073423
-0.034874987 0.069596976 0.27400002 9008141
-0.034275748 0.069596976 0.27400002 8941835
-0.033645786 0.069533475 0.27375001 9007376
-0.033047102 0.069533475 0.27375001 9072399
-0.03241878 0.069469981 0.27350003 8941583
-0.031791553 0.069406472 0.27325001 8942098
-0.031136878 0.069279477 0.27275002 8942096
-0.030512385 0.069215968 0.27250001 8942096
-0.029888986 0.069152474 0.27225003 8875792
-0.029293578 0.069152474 0.27225003 8941587
-0.028671816 0.069088973 0.27200001 8744208
-0.028076956 0.069088973 0.27200001 8744206
-0.027482094 0.069088973 0.27200001 8744204
-0.026887234 0.069088973 0.27200001 8876305
-0.026292372 0.069088973 0.27200001 8941583
-0.025673894 0.069025464 0.27175 8875792
-0.025056507 0.068961971 0.27150002 8941587
-0.024440216 0.068898469 0.27125001 8744206
-0.023803039 0.068771467 0.27075002 8875790
-0.023146614 0.068580963 0.27000001 8744458
-0.022514358 0.06845396 0.26950002 9006606
-0.021884289 0.068326965 0.26900002 8876303
-0.021276196 0.068263456 0.26875001 8876307
-0.020649953 0.068136461 0.26825002 8678926
-0.020044595 0.068072952 0.26800001 8678926
-0.019458482 0.068072952 0.26800001 8678928
-0.018854767 0.068009458 0.26775002 8547088
-0.0182692 0.068009458 0.26775002 8547088
-0.017667122 0.067945957 0.26750001 8678674
-0.017082103 0.067945957 0.26750001 8678674
-0.016481664 0.067882448 0.26725 8678161
-0.015882323 0.067818955 0.26700002 8744208
-0.015298396 0.067818955 0.26700002 8613135
-0.014700693 0.067755453 0.26675001 8612368
-0.014104084 0.067691952 0.26650003 8678415
-0.013508568 0.067628451 0.26625001 8612872
-0.012914144 0.067564949 0.266 8678415
-0.012332406 0.067564949 0.266 8481295
-0.011739624 0.067501448 0.26575002 8415756
-0.011158432 0.067501448 0.26575002 8284432
-0.01057724 0.067501448 0.26575002 8284434
-0.0099960482 0.067501448 0.26575002 8021262
-0.0094148554 0.067501448 0.26575002 7693067
-0.0088336635 0.067501448 0.26575002 7692813
-0.0082524717 0.067501448 0.26575002 7691279
-0.0076712798 0.067501448 0.26575002 7560205
-0.007090088 0.067501448 0.26575002 7428621
-0.0065150186 0.067564949 0.266 7624971
-0.005950009 0.067755453 0.26675001 7492867
-0.00537166 0.067818955 0.26700002 7624453
-0.0047877342 0.067818955 0.26700002 7492608
-0.0042038085 0.067818955 0.26700002 7493637
-0.0036198832 0.067818955 0.26700002 7493637
-0.0030444856 0.068009458 0.26775002 7362053
-0.002470399 0.068326965 0.26900002 7493385
-0.0018943434 0.068771467 0.27075002 7756041
-0.001303419 0.068834968 0.27100003 7821321
-0.00071008963 0.068771467 0.27075002 7559178
-0.00011796278 0.068771467 0.27075002 7559178
0.00047372628 0.068707965 0.2705 7624201
0.001066291 0.068771467 0.27075002 7624201
0.0016599492 0.068834968 0.27100003 7624971
0.002256779 0.068961971 0.27150002 7492867
0.0028584206 0.069152474 0.27225003 7690246
0.0034569993 0.069215968 0.27250001 7755276
0.0040566721 0.069279477 0.27275002 7426824
0.004653173 0.069279477 0.27275002 7624201
0.0052448618 0.069215968 0.27250001 7427074
0.0058408161 0.069215968 0.27250001 7624453
0.0064308653 0.069152474 0.27225003 7492867
0.007013368 0.069025464 0.27175 7690246
0.0075306953 0.068326965 0.26900002 7427328
0.0080888122 0.068072952 0.26800001 7427328
0.0086506475 0.067882448 0.26725 7427076
0.0092178425 0.067755453 0.26675001 7492354
0.0098012211 0.067755453 0.26675001 7822086
0.010374868 0.067691952 0.26650003 7821834
0.010967979 0.067755453 0.26675001 7756809
0.011540533 0.067691952 0.26650003 7822350
0.012123365 0.067691952 0.26650003 8020760
0.012706198 0.067691952 0.26650003 8349725
0.01328903 0.067691952 0.26650003 8284702
0.013858848 0.067628451 0.26625001 8284702
0.014427573 0.067564949 0.266 8350241
0.014995207 0.067501448 0.26575002 8415004
0.015561745 0.067437947 0.26550001 8480280
0.016142391 0.067437947 0.26550001 8086803
0.01670729 0.067374453 0.26525003 8349459
0.017303679 0.067437947 0.26550001 8283407
0.017884325 0.067437947 0.26550001 8480786
0.018482357 0.067501448 0.26575002 8217864
0.019081483 0.067564949 0.266 8086276
0.01966322 0.067564949 0.266 8481036
0.020263989 0.067628451 0.26625001 8283657
0.020846274 0.067628451 0.26625001 8415243
0.021428559 0.067628451 0.26625001 8152330
0.022010844 0.067628451 0.26625001 8218639
0.022593131 0.067628451 0.26625001 8218123
0.023197176 0.067691952 0.26650003 8414991
0.023824625 0.067818955 0.26700002 8283403
0.024431402 0.067882448 0.26725 8218123
0.025039278 0.067945957 0.26750001 8283405
0.025648246 0.068009458 0.26775002 8349711
0.026233813 0.068009458 0.26775002 8087051
0.026844418 0.068072952 0.26800001 8284430
0.027430531 0.068072952 0.26800001 8218641
0.028042778 0.068136461 0.26825002 8284434
0.028656119 0.068199955 0.2685 8350227
0.029297784 0.068326965 0.26900002 8284180
0.029941631 0.06845396 0.26950002 8415768
0.030587669 0.068580963 0.27000001 8481813
0.031207025 0.068644464 0.27025002 8416020
0.031827472 0.068707965 0.2705 8481813
0.032419052 0.068707965 0.2705 8547606
0.033010632 0.068707965 0.2705 8416536
0.033602212 0.068707965 0.2705 8548637
0.034193791 0.068707965 0.2705 8613917
0.034817524 0.068771467 0.27075002 8678938
0.035409652 0.068771467 0.27075002 8744733
0.03603502 0.068834968 0.27100003 8547354
0.036695272 0.068961971 0.27150002 8416538
0.037323374 0.069025464 0.27175 8613917
0.037952572 0.069088973 0.27200001 8481559
0.038582861 0.069152474 0.27225003 8547352
0.039214242 0.069215968 0.27250001 8153879
0.039810199 0.069215968 0.27250001 8088854
0.040443227 0.069279477 0.27275002 8219924
0.041039724 0.069279477 0.27275002 8416790
0.041674387 0.069342971 0.273 8219922
0.042271435 0.069342971 0.273 8481813
0.042907741 0.069406472 0.27325001 8285204
0.043505333 0.069406472 0.27325001 8154129
0.04410293 0.069406472 0.27325001 8219409
0.044741426 0.069469981 0.27350003 8219411
0.045339566 0.069469981 0.27350003 8219157
0.045937706 0.069469981 0.27350003 8087571
0.046535846 0.069469981 0.27350003 8088086
0.04713399 0.069469981 0.27350003 7824914
0.04773213 0.069469981 0.27350003 7233806
0.04833027 0.069469981 0.27350003 6116622
0.048973132 0.069533475 0.27375001 5591059
0.049571816 0.069533475 0.27375001 5988134
0.050720319 0.070295483 0.27675 6118950
0.051974677 0.071184501 0.28025001 6316077
0.053103603 0.071883008 0.28300002 6119220
0.053769976 0.071946509 0.28325 5987130
0.054341439 0.071883008 0.28300002 5987664
-0.17037767 0.13558796 0.52925003 13093577
-0.16914028 0.13552393 0.52900004 13753564
-0.16798337 0.13552393 0.52900004 10133666
-0.1667476 0.13545987 0.52875 9935513
-0.16559123 0.13545987 0.52875 10001306
-0.16443485 0.13545987 0.52875 10198687
-0.16320129 0.13539582 0.52850002 13553358
-0.16204546 0.13539582 0.52850002 13488337
-0.16088964 0.13539582 0.52850002 10396064
-0.15965827 0.13533178 0.52825004 9671824
-0.158503 0.13533178 0.52825004 9145480
-0.13957839 0.12854278 0.50175005 9672594
-0.13848107 0.12854278 0.50175005 9671824
-0.13738373 0.12854278 0.50175005 9343629
-0.13628641 0.12854278 0.50175005 9344399
-0.1351891 0.12854278 0.50175005 9410192
-0.13402495 0.12847872 0.50150001 9409422
-0.13286191 0.12841468 0.50125003 9409422
-0.13169998 0.12835063 0.50100005 9409422
-0.13047396 0.12822254 0.50050002 9212813
-0.12925011 0.12809443 0.5 9278606
-0.12796438 0.1279023 0.49925002 9146767
-0.12674546 0.12777421 0.49875003 9212813
-0.12540276 0.12751801 0.49775001 9935766
-0.12418931 0.12738992 0.49725002 9410192
-0.12303994 0.12732588 0.49700001 9146767
-0.11839338 0.12585279 0.49125004 9080204
-0.11713991 0.12566064 0.49050003 9081227
-0.11594886 0.12553255 0.49000001 9277834
-0.11476002 0.12540446 0.48950002 9342857
-0.11357336 0.12527636 0.48900002 9342857
-0.1124464 0.12521231 0.48875001 9211273
-0.11126358 0.12508422 0.48825002 9211790
-0.10946227 0.1242516 0.48500001 9080974
-0.1083457 0.12418757 0.48475003 9081227
-0.10723023 0.12412351 0.48450002 9081227
-0.10617064 0.12412351 0.48450002 9147020
-0.10505681 0.12405946 0.48425001 8949641
-0.10394406 0.12399542 0.48400003 8949641
-0.10283242 0.12393137 0.48375002 9081740
-0.10156408 0.12367518 0.48275003 9147020
-0.09988372 0.12290662 0.47975004 9147020
-0.098783001 0.12284257 0.47950003 9212813
-0.097683385 0.12277852 0.47925001 9147020
-0.096584864 0.12271447 0.47900003 9147020
-0.095487431 0.12265043 0.47875002 9277836
-0.094341777 0.12252233 0.47825003 9277834
-0.093149543 0.12233019 0.47750002 9212295
-0.092008814 0.1222021 0.47700003 9212295
-0.090917945 0.12213805 0.47675002 9081225
-0.089828171 0.12207401 0.47650003 9080455
-0.088739485 0.12200996 0.47625002 9211271
-0.087651893 0.1219459 0.47600001 9277836
-0.086337961 0.12156162 0.47450003 9081225
-0.048827495 0.07506334 0.29300001 7434056
-0.048063364 0.074871197 0.29225001 7106113
-0.046937395 0.074102633 0.28925002 7236664
-0.046304811 0.074102633 0.28925002 7433265
-0.044409033 0.07205312 0.28125 5655317
-0.042781822 0.0703879 0.27475002 7431455
-0.042180948 0.0703879 0.27475002 7826965
-0.04158007 0.0703879 0.27475002 8089869
-0.040979195 0.0703879 0.27475002 8680723
-0.04041506 0.070451938 0.27500001 8679692
-0.039777447 0.0703879 0.27475002 9007889
-0.039176568 0.0703879 0.27475002 9139729
-0.038575694 0.0703879 0.27475002 8942862
-0.037940267 0.070323847 0.27450001 8746253
-0.037339941 0.070323847 0.27450001 9008395
-0.036706146 0.070259795 0.27425 9073421
-0.036073454 0.070195757 0.27400002 9139216
-0.035474222 0.070195757 0.27400002 8941837
-0.034843165 0.070131704 0.27375001 8942350
-0.034244474 0.070131704 0.27375001 8875274
-0.033615064 0.070067659 0.27350003 9270032
-0.032986742 0.070003614 0.27325001 9006858
-0.032359511 0.069939561 0.273 9007376
-0.031733379 0.069875516 0.27275002 9007380
-0.031108337 0.069811471 0.27250001 9072399
-0.030484393 0.069747426 0.27225003 8941583
-0.029861538 0.069683373 0.27200001 8941583
-0.029239777 0.069619328 0.27175 8941585
-0.028645461 0.069619328 0.27175 8941585
-0.028051149 0.069619328 0.27175 9072399
-0.027456835 0.069619328 0.27175 9006610
-0.026862521 0.069619328 0.27175 8875022
-0.026268207 0.069619328 0.27175 9138196
-0.025650276 0.069555283 0.27150002 8875540
-0.025056507 0.069555283 0.27150002 8875794
-0.024417691 0.069427192 0.27100003 9006608
-0.023803039 0.06936314 0.27075002 8941585
-0.023146614 0.069170997 0.27000001 8875790
-0.022493472 0.068978854 0.26925001 8941583
-0.021863949 0.068850763 0.26875001 8744458
-0.021236613 0.068722665 0.26825002 8875020
-0.020630706 0.06865862 0.26800001 8744204
-0.020025898 0.068594575 0.26775002 8744204
-0.019422179 0.068530522 0.26750001 8612620
-0.018837161 0.068530522 0.26750001 8875794
-0.018235082 0.068466477 0.26725 8744206
-0.01765061 0.068466477 0.26725 8875024
-0.017050173 0.068402432 0.26700002 8875024
-0.016466247 0.068402432 0.26700002 8743438
-0.015867449 0.068338379 0.26675001 8743438
-0.015284072 0.068338379 0.26675001 8743438
-0.014686917 0.068274342 0.26650003 8546829
-0.014090853 0.068210289 0.26625001 8744208
-0.013495883 0.068146236 0.266 8547342
-0.012914144 0.068146236 0.266 8481036
-0.012320816 0.068082199 0.26575002 8414991
-0.011739624 0.068082199 0.26575002 8021262
-0.011158432 0.068082199 0.26575002 7889170
-0.01057724 0.068082199 0.26575002 7954963
-0.0099960482 0.068082199 0.26575002 7627022
-0.0094148554 0.068082199 0.26575002 7756809
-0.0088336635 0.068082199 0.26575002 7559182
-0.0082524717 0.068082199 0.26575002 7295756
-0.0076712798 0.068082199 0.26575002 7296010
-0.0071234372 0.068402432 0.26700002 7624201
-0.0065823733 0.068850763 0.26875001 7295236
-0.0060169254 0.069106944 0.26975 7493385
-0.0054320158 0.069170997 0.27000001 7362053
-0.0048504947 0.069299087 0.2705 7492354
-0.0042628506 0.06936314 0.27075002 7492356
-0.0036741137 0.069427192 0.27100003 7361283
-0.0030842824 0.06949123 0.27125001 7426822
-0.0024956539 0.069619328 0.27175 7426563
-0.0019153333 0.070131704 0.27375001 7492869
-0.0013178479 0.070195757 0.27400002 7426822
-0.00071861339 0.070195757 0.27400002 7360770
-0.00011948768 0.070259795 0.27425 7426563
0.00048073148 0.070323847 0.27450001 7558149
0.0010810596 0.070323847 0.27450001 7558149
0.001682919 0.0703879 0.27475002 7688451
0.0022900279 0.070580035 0.2755 7492615
0.0029004174 0.070772178 0.27625 7623172
0.0035077445 0.070836224 0.27650002 7622918
0.0041161645 0.070900269 0.27675 7295236
0.0047171484 0.070836224 0.27650002 7361283
0.0053170389 0.070772178 0.27625 7295488
0.005915836 0.070708133 0.27600002 7558147
0.0065017287 0.07051599 0.27525002 7294977
0.0070843403 0.070323847 0.27450001 7426309
0.0076426752 0.069939561 0.273 7426816
0.0082095414 0.069683373 0.27200001 7296258
0.0087963091 0.069619328 0.27175 7426822
0.0093733454 0.06949123 0.27125001 7360516
0.009948194 0.06936314 0.27075002 7426822
0.010520856 0.069235049 0.27025002 7229184
0.011081052 0.069042906 0.26950002 7754244
0.011605488 0.06865862 0.26800001 7688965
0.012157482 0.068466477 0.26725 7492354
0.012730036 0.068402432 0.26700002 7689735
0.013301495 0.068338379 0.26675001 7755526
0.013871862 0.068274342 0.26650003 7361283
0.014454694 0.068274342 0.26650003 7755274
0.015009312 0.068146236 0.266 8149262
0.015576399 0.068082199 0.26575002 8150797
0.016142391 0.068018146 0.26550001 7955217
0.016723035 0.068018146 0.26550001 8152082
0.017303679 0.068018146 0.26550001 8217873
0.017901167 0.068082199 0.26575002 8151821
0.018499743 0.068146236 0.266 8218387
0.019081483 0.068146236 0.266 8415504
0.019681701 0.068210289 0.26625001 8348680
0.020263989 0.068210289 0.26625001 8413706
0.020846274 0.068210289 0.26625001 8414219
0.021428559 0.068210289 0.26625001 8218123
0.022010844 0.068210289 0.26625001 8152330
0.022593131 0.068210289 0.26625001 8414989
0.023175415 0.068210289 0.26625001 8217610
0.023780011 0.068274342 0.26650003 8217864
0.024385694 0.068338379 0.26675001 8283657
0.024992477 0.068402432 0.26700002 8414989
0.025600348 0.068466477 0.26725 8218125
0.026209317 0.068530522 0.26750001 8218641
0.026794335 0.068530522 0.26750001 8087055
0.027404943 0.068594575 0.26775002 8153618
0.027990509 0.068594575 0.26775002 8087823
0.028602757 0.06865862 0.26800001 8153618
0.029243324 0.068786711 0.2685 8284432
0.029913856 0.068978854 0.26925001 8218127
0.030559346 0.069106944 0.26975 8481813
0.031178154 0.069170997 0.27000001 8350745
0.031768642 0.069170997 0.27000001 8284698
0.032389089 0.069235049 0.27025002 8285213
0.032980125 0.069235049 0.27025002 8547870
0.033571158 0.069235049 0.27025002 8547870
0.03416219 0.069235049 0.27025002 8548124
0.034753226 0.069235049 0.27025002 8547870
0.035376955 0.069299087 0.2705 8481309
0.035968531 0.069299087 0.2705 8547870
0.036627695 0.069427192 0.27100003 8350743
0.037289042 0.069555283 0.27150002 8350745
0.037917688 0.069619328 0.27175 8416286
0.03854743 0.069683373 0.27200001 8547100
0.039178271 0.069747426 0.27225003 8416536
0.03977368 0.069747426 0.27225003 8482842
0.040406153 0.069811471 0.27250001 8416790
0.041002106 0.069811471 0.27250001 8547604
0.041636225 0.069875516 0.27275002 8548372
0.042271435 0.069939561 0.273 8547604
0.042868484 0.069939561 0.273 8547352
0.043505333 0.070003614 0.27325001 8416536
0.04410293 0.070003614 0.27325001 8219409
0.044700526 0.070003614 0.27325001 8285202
0.045298118 0.070003614 0.27325001 8219411
0.045937706 0.070067659 0.27350003 8153877
0.046535846 0.070067659 0.27350003 7890959
0.04713399 0.070067659 0.27350003 8022543
0.04773213 0.070067659 0.27350003 7563275
0.048374444 0.070131704 0.27375001 7104019
0.048973132 0.070131704 0.27375001 5656073
0.049617089 0.070195757 0.27400002 5789210
0.050216328 0.070195757 0.27400002 6184741
0.051325567 0.070900269 0.27675 5988134
0.052681398 0.071925029 0.28075001 6381870
0.053675059 0.072437406 0.28275001 6053427
0.054293435 0.072437406 0.28275001 6185024
0.054911803 0.072437406 0.28275001 6250581
-0.17045815 0.13680911 0.52950001 13489871
-0.16930014 0.13680911 0.52950001 12832973
-0.16806275 0.13674453 0.52925003 10001306
-0.16690528 0.13674453 0.52925003 10001559
-0.16566953 0.13667993 0.52900004 9804699
-0.1645126 0.13667993 0.52900004 9936283
-0.16327848 0.13661534 0.52875 13752530
-0.16212212 0.13661534 0.52875 12369854
-0.16088964 0.13655074 0.52850002 10197915
-0.15973382 0.13655074 0.52850002 9539728
-0.158503 0.13648616 0.52825004 9211016
-0.14283261 0.13060814 0.50550002 8554113
-0.1406056 0.12957464 0.50150001 8883078
-0.13950883 0.12957464 0.50150001 9606031
-0.13841206 0.12957464 0.50150001 9409422
-0.13731527 0.12957464 0.50150001 9212560
-0.13628641 0.12963924 0.50175005 9278353
-0.1351891 0.12963924 0.50175005 9474962
-0.13402495 0.12957464 0.50150001 9475215
-0.13286191 0.12951005 0.50125003 9409422
-0.13169998 0.12944546 0.50100005 9146767
-0.13040878 0.12925169 0.50025004 9212813
-0.12912087 0.1290579 0.49950004 9278606
-0.12783621 0.12886412 0.49875003 9081227
-0.12649132 0.12860574 0.49775001 9212813
-0.1252138 0.12841196 0.49700001 10265501
-0.12412687 0.12841196 0.49700001 9213073
-0.12297805 0.12834737 0.49675003 9080976
-0.11839338 0.12692632 0.49125004 9342859
-0.11713991 0.12673253 0.49050003 9080457
-0.11594886 0.12660334 0.49000001 8949641
-0.11476002 0.12647416 0.48950002 9277834
-0.11357336 0.12634496 0.48900002 9342857
-0.11238889 0.12621579 0.48850003 9342859
-0.11126358 0.12615119 0.48825002 9080204
-0.10946227 0.12531146 0.48500001 9080974
-0.1083457 0.12524688 0.48475003 9342857
-0.10723023 0.12518229 0.48450002 9408395
-0.10617064 0.12518229 0.48450002 9408652
-0.10505681 0.12511769 0.48425001 9343629
-0.10394406 0.12505309 0.48400003 9212043
-0.10288557 0.12505309 0.48400003 9081227
-0.10177447 0.1249885 0.48375002 9147533
-0.10003986 0.12414879 0.48050001 9081227
-0.098834507 0.12395501 0.47975004 9212813
-0.09773434 0.12389041 0.47950003 8949641
-0.096584864 0.12376123 0.47900003 9212043
-0.095487431 0.12369663 0.47875002 9277836
-0.094341777 0.12356745 0.47825003 9212043
-0.093198314 0.12343826 0.47775003 9277834
-0.092057034 0.12330907 0.47725001 9277834
-0.090917945 0.12317988 0.47675002 9212043
-0.089828171 0.12311529 0.47650003 9277836
-0.088739485 0.1230507 0.47625002 8949641
-0.087651893 0.1229861 0.47600001 8949641
-0.086565405 0.12292151 0.47575003 9212813
-0.049594909 0.075897411 0.29375002 7499849
-0.048660852 0.075445257 0.29200003 7368000
-0.048022252 0.075445257 0.29200003 7170873
-0.046937395 0.074734725 0.28925002 7236918
-0.045224231 0.072990701 0.2825 6510113
-0.04334322 0.070923708 0.27450001 6906906
-0.042742889 0.070923708 0.27450001 7695633
-0.042142563 0.070923708 0.27450001 8352276
-0.04158007 0.070988305 0.27475002 8549135
-0.040979195 0.070988305 0.27475002 8680460
-0.040378321 0.070988305 0.27475002 8746768
-0.039777447 0.070988305 0.27475002 8746253
-0.039176568 0.070988305 0.27475002 9007628
-0.038575694 0.070988305 0.27475002 9139216
-0.037940267 0.070923708 0.27450001 8876817
-0.037339941 0.070923708 0.27450001 9008655
-0.036706146 0.070859112 0.27425 9139729
-0.036073454 0.070794523 0.27400002 9073682
-0.035441853 0.070729926 0.27375001 9073423
-0.034843165 0.070729926 0.27375001 9139216
-0.034213204 0.070665337 0.27350003 9072651
-0.033584334 0.070600741 0.27325001 8876555
-0.032986742 0.070600741 0.27325001 8876555
-0.03232988 0.070471555 0.27275002 8942098
-0.031704292 0.070406958 0.27250001 8941585
-0.031079799 0.070342369 0.27225003 8876555
-0.030428404 0.070213176 0.27175 8941835
-0.029806646 0.070148587 0.27150002 8875790
-0.029212879 0.070148587 0.27150002 8876305
-0.028592758 0.070083991 0.27125001 8678926
-0.027999537 0.070083991 0.27125001 8942098
-0.027406316 0.070083991 0.27125001 8810514
-0.026837811 0.070148587 0.27150002 8875022
-0.026219876 0.070083991 0.27125001 8809229
-0.025626656 0.070083991 0.27125001 8875022
-0.025033435 0.070083991 0.27125001 8875022
-0.024395164 0.069954805 0.27075002 9006608
-0.023781059 0.069890209 0.2705 8875022
-0.023125181 0.069696426 0.26975 8940302
-0.022472588 0.069502652 0.26900002 8940302
-0.021843608 0.069373459 0.2685 8875022
-0.021216821 0.069244273 0.26800001 9006608
-0.020611463 0.069179684 0.26775002 8744206
-0.020007199 0.069115087 0.26750001 8876307
-0.019404026 0.069050491 0.26725 8612618
-0.018801952 0.068985902 0.26700002 8875794
-0.018218026 0.068985902 0.26700002 8744206
-0.017634099 0.068985902 0.26700002 8809229
-0.017050173 0.068985902 0.26700002 8677641
-0.01645083 0.068921305 0.26675001 8612620
-0.015867449 0.068921305 0.26675001 8941333
-0.015269748 0.068856716 0.26650003 8612368
-0.014686917 0.068856716 0.26650003 8547090
-0.014090853 0.06879212 0.26625001 8349713
-0.013495883 0.068727523 0.266 8414993
-0.012914144 0.068727523 0.266 8152332
-0.012332406 0.068727523 0.266 8086287
-0.011750666 0.068727523 0.266 7691277
-0.011168928 0.068727523 0.266 7690764
-0.010587189 0.068727523 0.266 7493385
-0.010014854 0.06879212 0.26625001 7756041
-0.0095034242 0.06930887 0.26825002 7624203
-0.0089333849 0.069438055 0.26875001 7296008
-0.0083533954 0.069502652 0.26900002 7426826
-0.007772312 0.069567241 0.26925001 7426311
-0.0071968054 0.069696426 0.26975 7492615
-0.0067109591 0.070794523 0.27400002 7295236
-0.0061117248 0.070794523 0.27400002 7295236
-0.0055175195 0.070859112 0.27425 7163650
-0.0049267043 0.070988305 0.27475002 7361283
-0.0043297652 0.071052894 0.27500001 7426309
-0.0037351225 0.07118208 0.2755 7426309
-0.0031411357 0.071375862 0.27625 7492102
-0.0025415721 0.071505047 0.27675 7491332
-0.0019398216 0.07163424 0.27725002 7361029
-0.0013346816 0.07169883 0.2775 7361029
-0.0007291041 0.071828023 0.27800003 7229697
-0.00012123044 0.071892612 0.27825001 7360770
0.00048773669 0.071957208 0.27850002 7492356
0.0010987818 0.072086394 0.27900001 7425792
0.0017120139 0.072215579 0.27950001 7688197
0.0023295111 0.072409362 0.28025001 7491332
0.0029476641 0.072538547 0.28075001 7623172
0.0035648325 0.072603144 0.28100002 7622918
0.0041793762 0.072603144 0.28100002 7229697
0.0047939196 0.072603144 0.28100002 7295490
0.0054084631 0.072603144 0.28100002 7360770
0.0060176477 0.072538547 0.28075001 7491586
0.0066139288 0.072344765 0.28 7295236
0.007194025 0.072021797 0.27875 7426311
0.0077826516 0.071828023 0.27800003 7360000
0.0083679976 0.07163424 0.27725002 7361283
0.008950063 0.071440458 0.27650002 7295238
0.0095374873 0.071311273 0.27600002 7228932
0.010122723 0.07118208 0.2755 7361029
0.010705774 0.071052894 0.27500001 7229697
0.011266079 0.070794523 0.27400002 7623172
0.011832835 0.070600741 0.27325001 7688451
0.01239631 0.070406958 0.27250001 7425793
0.012968427 0.070277773 0.27200001 7558149
0.013538355 0.070148587 0.27150002 7229697
0.014106096 0.070019402 0.27100003 7229184
0.014671649 0.069890209 0.2705 7622918
0.015249124 0.069825619 0.27025002 7622918
0.015781542 0.069567241 0.26925001 7690248
0.016233591 0.068985902 0.26700002 7559430
0.016770275 0.06879212 0.26625001 7428359
0.017336266 0.068727523 0.266 7691529
0.017918006 0.068727523 0.266 7954955
0.018517131 0.06879212 0.26625001 8021008
0.019099418 0.06879212 0.26625001 7758606
0.019681701 0.06879212 0.26625001 8086539
0.020283017 0.068856716 0.26650003 8348678
0.020846274 0.06879212 0.26625001 8152584
0.021428559 0.06879212 0.26625001 8152330
0.022010844 0.06879212 0.26625001 8087051
0.022571916 0.068727523 0.266 8086537
0.023153653 0.068727523 0.266 8217610
0.023757702 0.06879212 0.26625001 8349709
0.024339985 0.06879212 0.26625001 8218377
0.024945674 0.068856716 0.26650003 8021510
0.025528505 0.068856716 0.26650003 8219409
0.026135832 0.068921305 0.26675001 8021258
0.026744252 0.068985902 0.26700002 8349711
0.027353765 0.069050491 0.26725 8349713
0.027964372 0.069115087 0.26750001 8218641
0.028549394 0.069115087 0.26750001 7956239
0.029161641 0.069179684 0.26775002 8153364
0.029830528 0.069373459 0.2685 8349973
0.030502703 0.069567241 0.26925001 8285202
0.031120418 0.069631837 0.26950002 8284952
0.031739224 0.069696426 0.26975 8284700
0.032359127 0.069761023 0.27000001 8350493
0.032949615 0.069761023 0.27000001 8482592
0.0335401 0.069761023 0.27000001 8416286
0.034130588 0.069761023 0.27000001 8547872
0.034721076 0.069761023 0.27000001 8613665
0.035311561 0.069761023 0.27000001 8548387
0.03593529 0.069825619 0.27025002 8154395
0.036560111 0.069890209 0.2705 8350995
0.03722037 0.070019402 0.27100003 8548124
0.037847921 0.070083991 0.27125001 8481307
0.038511999 0.070213176 0.27175 8481559
0.039106313 0.070213176 0.27175 8416020
0.039737154 0.070277773 0.27200001 8350997
0.040369086 0.070342369 0.27225003 8416018
0.040964492 0.070342369 0.27225003 8416016
0.041598059 0.070406958 0.27250001 8481809
0.042232729 0.070471555 0.27275002 8350223
0.04282923 0.070471555 0.27275002 8547088
0.043465529 0.070536144 0.273 8350225
0.044062577 0.070536144 0.273 8350225
0.044700526 0.070600741 0.27325001 8350997
0.045298118 0.070600741 0.27325001 8154131
0.045895711 0.070600741 0.27325001 8219922
0.046535846 0.070665337 0.27350003 8088338
0.04713399 0.070665337 0.27350003 7760143
0.04773213 0.070665337 0.27350003 7629070
0.048374444 0.070729926 0.27375001 7169551
0.048973132 0.070729926 0.27375001 6906390
0.049617089 0.070794523 0.27400002 5853200
0.050262142 0.070859112 0.27425 6116120
0.050861925 0.070859112 0.27425 6511909
0.051977731 0.071569644 0.27700001 6315562
0.053437769 0.072732329 0.28150001 6250032
0.054245427 0.072990701 0.2825 6118196
0.055530172 0.073055297 0.28275001 5856600
-0.16938008 0.13803139 0.52975005 12371907
-0.16814213 0.13796625 0.52950001 9804950
-0.16698413 0.13796625 0.52950001 10197658
-0.16574782 0.13790111 0.52925003 10197915
-0.1645126 0.13783596 0.52900004 10659236
-0.16335569 0.13783596 0.52900004 14674145
-0.16096574 0.13777082 0.52875 10461340
-0.15973382 0.13770568 0.52850002 9277836
-0.158503 0.13764055 0.52825004 9079687
-0.13943928 0.13060544 0.50125003 9934994
-0.13834307 0.13060544 0.50125003 9147020
-0.13724682 0.13060544 0.50125003 9278606
-0.1362185 0.13067058 0.50150001 9278606
