# .PCD v0.7 - Point Cloud Data file format
VERSION 0.7
FIELDS x y z rgb
SIZE 4 4 4 4
TYPE F F F U
COUNT 1 1 1 1
WIDTH 1125
HEIGHT 1
VIEWPOINT 0 0 0 1 0 0 0
POINTS 1125
DATA ascii
0.1941238 -0.17923224 0.44875002 8948620
0.20521247 -0.17863312 0.44725001 9013641
0.21010312 -0.17863312 0.44725001 8752522
0.21182232 -0.17843343 0.44675002 8752009
0.21279936 -0.17843343 0.44675002 9014411
0.21377638 -0.17843343 0.44675002 8882825
0.21463326 -0.1783336 0.44650003 8817802
0.21560974 -0.1783336 0.44650003 8752011
0.21658625 -0.1783336 0.44650003 9080206
0.21853922 -0.1783336 0.44650003 9014411
-0.026433667 -0.20695059 0.52100003 9477528
-0.025306383 -0.20704988 0.52125001 9608603
-0.024166415 -0.20704988 0.52125001 9674394
-0.023037493 -0.20714921 0.52150005 9608601
-0.021949464 -0.20764571 0.52275002 9740187
-0.020865919 -0.20824154 0.52425003 10002589
-0.01971939 -0.20824154 0.52425003 10134945
-0.018572861 -0.20824154 0.52425003 10331554
-0.017426334 -0.20824154 0.52425003 10529186
-0.016272042 -0.20814225 0.52400005 9937819
-0.015061111 -0.20724849 0.52175003 8884880
-0.01390004 -0.20695059 0.52100003 9082259
0.0019346832 -0.19513336 0.49125004 9344659
0.0030090406 -0.19513336 0.49125004 9541527
0.0040833983 -0.19513336 0.49125004 9541527
0.0051577562 -0.19513336 0.49125004 9541527
0.0062352852 -0.19523264 0.49150002 9673111
0.0073101898 -0.19523264 0.49150002 9344661
0.0083808294 -0.19513336 0.49125004 9607318
0.0094359396 -0.19473612 0.49025002 9672341
0.010497393 -0.19453752 0.48975003 9542038
0.011562564 -0.19443822 0.48950002 9345429
0.012639548 -0.19453752 0.48975003 9344912
0.013710624 -0.19453752 0.48975003 9411222
0.014789246 -0.19463682 0.49000001 9280151
0.01586087 -0.19463682 0.49000001 9082259
0.016932493 -0.19463682 0.49000001 9213073
0.017994933 -0.19453752 0.48975003 9344912
0.019056277 -0.19443822 0.48950002 9213326
0.020116528 -0.19433892 0.48925003 9213326
0.021164859 -0.1941403 0.48875001 9214096
0.022211004 -0.19394168 0.48825002 9016464
0.023266884 -0.1938424 0.48800004 9147280
0.024296734 -0.19354448 0.48725003 9213073
0.025336318 -0.19334587 0.48675004 9213073
0.026360154 -0.19304796 0.48600003 9147282
0.027394818 -0.19284935 0.48550004 9147282
0.028441947 -0.19275004 0.48525003 9148050
0.029472783 -0.19255143 0.48475003 9016466
0.030485684 -0.19225352 0.48400003 9082261
0.031511597 -0.19205491 0.48350003 9278353
0.032535326 -0.19185629 0.48300001 9344146
0.033556867 -0.19165769 0.48250002 9343378
0.034594156 -0.19155839 0.48225003 9343378
0.035630349 -0.19145907 0.48200002 9344148
0.039764192 -0.19106187 0.48100004 9147533
0.044953696 -0.19076395 0.48025003 9016977
0.047054298 -0.19076395 0.48025003 9147282
0.048104595 -0.19076395 0.48025003 9278866
0.0491549 -0.19076395 0.48025003 9147280
0.0497609 -0.18907577 0.47600001 9213073
0.05080191 -0.18907577 0.47600001 9212560
0.051815689 -0.18897647 0.47575003 9344399
0.052856144 -0.18897647 0.47575003 9278604
0.053896606 -0.18897647 0.47575003 9278353
0.054937065 -0.18897647 0.47575003 9344146
0.055977523 -0.18897647 0.47575003 9278353
0.057017982 -0.18897647 0.47575003 9541525
0.058088951 -0.18907577 0.47600001 9477015
0.061860625 -0.18788412 0.47300002 12636110
0.062828586 -0.1876855 0.47250003 12241352
0.06382814 -0.1875862 0.47225001 10924465
0.064826623 -0.1874869 0.47200003 10396834
0.066926561 -0.1875862 0.47225001 9737360
0.068992175 -0.1875862 0.47225001 9213073
0.070024975 -0.1875862 0.47225001 9016464
0.070982546 -0.1873876 0.47175002 9016464
0.071937934 -0.18718898 0.47125003 9147533
0.072929844 -0.18708968 0.47100002 9081740
0.07392066 -0.18699038 0.47075003 9081487
0.074910372 -0.18689108 0.47050002 9212560
0.075898997 -0.18679176 0.47025001 9081740
0.076845638 -0.18659316 0.46975002 9016464
0.077831537 -0.18649386 0.46950004 9082259
0.078816332 -0.18639456 0.46925002 9081487
0.07924705 -0.18500428 0.46575001 9147280
0.080265641 -0.18500428 0.46575001 9081487
0.081284232 -0.18500428 0.46575001 9147280
0.082302824 -0.18500428 0.46575001 9147280
0.083321407 -0.18500428 0.46575001 9081487
0.084339999 -0.18500428 0.46575001 9081487
0.08535859 -0.18500428 0.46575001 9081487
0.086377181 -0.18500428 0.46575001 9146767
0.087348856 -0.18490498 0.46550003 9277836
0.088366896 -0.18490498 0.46550003 9080976
0.089336939 -0.18480568 0.46525002 9146767
0.090305887 -0.18470638 0.46500003 9081487
0.091322832 -0.18470638 0.46500003 9081487
0.092290133 -0.18460707 0.46475002 9080974
0.093256347 -0.18450776 0.46450001 9080974
0.094221465 -0.18440846 0.46425003 9015694
0.095185488 -0.18430915 0.46400002 9015694
0.096096583 -0.18411055 0.46350002 9146767
0.098977171 -0.18381263 0.46275002 8949388
0.099935189 -0.18371333 0.46250004 9211790
0.10094667 -0.18371333 0.46250004 9211790
0.10195816 -0.18371333 0.46250004 8883595
0.10302529 -0.18381263 0.46275002 8949388
0.10403731 -0.18381263 0.46275002 9080974
0.10504935 -0.18381263 0.46275002 8949388
0.10606138 -0.18381263 0.46275002 9211790
0.1070734 -0.18381263 0.46275002 9408399
0.10738472 -0.18262099 0.45975003 9211273
0.10839019 -0.18262099 0.45975003 9080457
0.10939565 -0.18262099 0.45975003 9080204
0.11040112 -0.18262099 0.45975003 9014664
0.11140659 -0.18262099 0.45975003 9212043
0.11241205 -0.18262099 0.45975003 9014411
0.11341752 -0.18262099 0.45975003 9211022
0.11442299 -0.18262099 0.45975003 9211020
0.11536569 -0.18252167 0.45950001 9080204
0.11637061 -0.18252167 0.45950001 9080204
0.11731168 -0.18242237 0.45925003 9211022
0.11825164 -0.18232307 0.45900002 9014413
0.11912556 -0.18212447 0.45850003 8949388
0.12006278 -0.18202515 0.45825002 8949641
0.12106497 -0.18202515 0.45825002 9014664
0.12166759 -0.18142933 0.45675004 9080457
0.12359773 -0.18133003 0.45650002 8883597
0.12466432 -0.18142933 0.45675004 8883597
0.12600714 -0.18192585 0.45800003 9080204
0.12693945 -0.18182655 0.45775002 9211020
0.12787066 -0.18172723 0.45750001 8882825
0.12865995 -0.18142933 0.45675004 9014411
0.12958787 -0.18133003 0.45650002 8818315
0.13044322 -0.18113141 0.45600003 8883595
0.13136843 -0.18103211 0.45575002 8882825
0.1352068 -0.1808335 0.45525002 8818055
0.13620242 -0.1808335 0.45525002 8818055
0.13712271 -0.18073419 0.45500001 9014411
0.13811779 -0.18073419 0.45500001 9013643
0.1391893 -0.1808335 0.45525002 9145227
0.1403389 -0.18103211 0.45575002 9014664
0.14133561 -0.18103211 0.45575002 8818055
0.14225426 -0.1809328 0.45550004 8949641
0.14309318 -0.18073419 0.45500001 8817802
0.14361325 -0.18013836 0.45350003 8882827
0.1444456 -0.17993975 0.45300001 8882827
0.14535606 -0.17984046 0.45275003 8686216
0.14634623 -0.17984046 0.45275003 8752262
0.14733638 -0.17984046 0.45275003 8883078
0.14824463 -0.17974114 0.45250002 9145480
0.14923424 -0.17974114 0.45250002 8948871
0.15030685 -0.17984046 0.45275003 8948871
0.151297 -0.17984046 0.45275003 8883078
0.15228717 -0.17984046 0.45275003 8686469
0.15327732 -0.17984046 0.45275003 9014411
0.1541823 -0.17974114 0.45250002 9079434
0.15508619 -0.17964184 0.45225003 8882825
0.16245808 -0.17904602 0.45075002 8948620
0.16353452 -0.17914532 0.45100003 9014411
0.16452084 -0.17914532 0.45100003 9013894
0.16550718 -0.17914532 0.45100003 9145223
0.16640121 -0.17904602 0.45075002 9013641
0.16738699 -0.17904602 0.45075002 8817032
0.16837278 -0.17904602 0.45075002 8948618
0.16935857 -0.17904602 0.45075002 8883078
0.17034435 -0.17904602 0.45075002 8817285
0.17133014 -0.17904602 0.45075002 8948618
0.17231593 -0.17904602 0.45075002 8752009
0.17320558 -0.1789467 0.45050001 9014411
0.17409417 -0.17884742 0.45025003 8948871
0.17507885 -0.17884742 0.45025003 8883848
0.17694992 -0.1787481 0.45000002 8818055
0.17783523 -0.1786488 0.44975004 8948871
0.17871943 -0.1785495 0.44950002 9013641
0.17950259 -0.1783509 0.44900003 8752011
0.18725392 -0.17825158 0.44875002 8883848
0.18823533 -0.17825158 0.44875002 8883595
0.18921673 -0.17825158 0.44875002 8948618
0.19019815 -0.17825158 0.44875002 9014411
0.19216096 -0.17825158 0.44875002 8883597
0.19314238 -0.17825158 0.44875002 8882827
0.20509776 -0.17755646 0.44700003 9079687
0.20630586 -0.17775506 0.44750002 9079434
0.21010312 -0.17765574 0.44725001 8817802
0.21268028 -0.17735785 0.44650003 8948618
0.21365677 -0.17735785 0.44650003 8948618
0.21646497 -0.17725854 0.44625002 9014664
0.2174409 -0.17725854 0.44625002 8883595
-0.029837603 -0.2057133 0.52075005 9608084
-0.028698731 -0.2057133 0.52075005 9477268
-0.027573086 -0.20581205 0.52100003 9608854
-0.026433667 -0.20581205 0.52100003 9673624
-0.025306383 -0.2059108 0.52125001 9804697
-0.024178008 -0.20600958 0.52150005 9804697
-0.023037493 -0.20600958 0.52150005 9674394
-0.021907475 -0.20610833 0.52175003 9871775
-0.020865919 -0.20709591 0.52425003 10003361
-0.019728793 -0.20719466 0.52450001 10200738
-0.018581718 -0.20719466 0.52450001 10529703
-0.017434644 -0.20719466 0.52450001 10134175
-0.016279805 -0.20709591 0.52425003 9278866
-0.01390004 -0.20581205 0.52100003 8818315
0.0019346832 -0.19405983 0.49125004 9476245
0.0030090406 -0.19405983 0.49125004 9476247
0.0040833983 -0.19405983 0.49125004 9476247
0.0051577562 -0.19405983 0.49125004 9541525
0.006232114 -0.19405983 0.49125004 9476245
0.0073027532 -0.19396107 0.49100003 9476247
0.0083722984 -0.1938623 0.49075001 9607833
0.0094311275 -0.19356602 0.49000001 9607318
0.010492034 -0.19336851 0.48950002 9476245
0.011562564 -0.19336851 0.48950002 9476245
0.012633095 -0.19336851 0.48950002 9476245
0.013703625 -0.19336851 0.48950002 9476247
0.014781701 -0.19346727 0.48975003 9344661
0.015852779 -0.19346727 0.48975003 9476247
0.016923856 -0.19346727 0.48975003 9344661
0.017985746 -0.19336851 0.48950002 9278866
0.019046545 -0.19326976 0.48925003 9344912
0.020106249 -0.19317099 0.48900002 9213073
0.021154035 -0.19297349 0.48850003 9278866
0.022199633 -0.19277598 0.48800004 9148050
0.023231125 -0.1924797 0.48725003 9082257
0.024259334 -0.19218342 0.48650002 9278866
0.025297279 -0.19198591 0.48600003 9147280
0.026346594 -0.19188714 0.48575002 9147280
0.027394818 -0.19178839 0.48550004 9278868
0.028441947 -0.19168963 0.48525003 9278866
0.029472783 -0.19149211 0.48475003 9278868
0.030469937 -0.19109708 0.48375002 9147282
0.031495303 -0.19089957 0.48325002 9212562
0.032535326 -0.1908008 0.48300001 9213073
0.033556867 -0.19060329 0.48250002 9278866
0.034594156 -0.19050454 0.48225003 9147282
0.035630349 -0.19040577 0.48200002 9213075
0.045980044 -0.18961571 0.48000002 9082257
0.047054298 -0.18971446 0.48025003 9147280
0.048104595 -0.18971446 0.48025003 9147280
0.049734768 -0.18793683 0.47575003 9278353
0.051788457 -0.18783806 0.47550002 9278355
0.052828368 -0.18783806 0.47550002 9344399
0.053868283 -0.18783806 0.47550002 9475215
0.054908194 -0.18783806 0.47550002 9344146
0.055948108 -0.18783806 0.47550002 9409939
0.057017982 -0.18793683 0.47575003 9805463
0.058058444 -0.18793683 0.47575003 11713977
0.060890481 -0.18704799 0.47350001 12440012
0.061827928 -0.18675171 0.47275001 12505290
0.062828586 -0.18665296 0.47250003 11779770
0.06379436 -0.18645544 0.47200003 10792105
0.064826623 -0.18645544 0.47200003 9870743
0.065858878 -0.18645544 0.47200003 9409939
0.066891134 -0.18645544 0.47200003 9344146
0.067923389 -0.18645544 0.47200003 9278353
0.068955652 -0.18645544 0.47200003 9212560
0.069950834 -0.18635669 0.47175002 9409169
0.070907317 -0.18615918 0.47125003 9343376
0.071899764 -0.18606041 0.47100002 9146767
0.072891138 -0.18596166 0.47075003 9212560
0.073881403 -0.1858629 0.47050002 9213073
0.074870571 -0.18576413 0.47025001 9212560
0.075858653 -0.18566538 0.47000003 9212560
0.076845638 -0.18556662 0.46975002 9146767
0.077831537 -0.18546787 0.46950004 9146767
0.078816332 -0.1853691 0.46925002 9081487
0.079204515 -0.18388774 0.46550003 8884878
0.080222562 -0.18388774 0.46550003 9016464
0.081240602 -0.18388774 0.46550003 9147280
0.082258649 -0.18388774 0.46550003 9081487
0.083321407 -0.18398649 0.46575001 9080974
0.084339999 -0.18398649 0.46575001 9146767
0.08535859 -0.18398649 0.46575001 9080974
0.086377181 -0.18398649 0.46575001 9146767
0.087395765 -0.18398649 0.46575001 9146767
0.088366896 -0.18388774 0.46550003 9277583
0.089336939 -0.18378897 0.46525002 9277583
0.090305887 -0.18369022 0.46500003 8883597
0.091273732 -0.18359146 0.46475002 8884880
0.09224049 -0.18349269 0.46450001 9015696
0.09320616 -0.18339394 0.46425003 9146767
0.094170727 -0.18329518 0.46400002 8884108
0.095134206 -0.18319643 0.46375003 9015694
0.096044749 -0.18299891 0.46325001 9146767
0.098870233 -0.18260388 0.46225002 9080206
0.099881165 -0.18260388 0.46225002 9080974
0.1008921 -0.18260388 0.46225002 8949388
0.10190304 -0.18260388 0.46225002 9080976
0.10291397 -0.18260388 0.46225002 8883597
0.10392491 -0.18260388 0.46225002 8949388
0.1049926 -0.18270265 0.46250004 8949388
0.10594678 -0.18260388 0.46225002 8949388
0.10649494 -0.18181381 0.46025002 9212043
0.10738472 -0.18161629 0.45975003 8883848
0.10833125 -0.18151753 0.45950001 8949388
0.10933617 -0.18151753 0.45950001 9081489
0.11034109 -0.18151753 0.45950001 9146769
0.11140659 -0.18161629 0.45975003 8949388
0.11241205 -0.18161629 0.45975003 9080457
0.11341752 -0.18161629 0.45975003 9014664
0.11436076 -0.18151753 0.45950001 9211790
0.11536569 -0.18151753 0.45950001 9212043
0.11624399 -0.18132003 0.45900002 9277836
0.11718395 -0.18122126 0.45875001 9212043
0.11812282 -0.18112251 0.45850003 9211271
0.11899565 -0.180925 0.45800003 9014664
0.12353004 -0.18023367 0.45625001 8883595
0.12452785 -0.18023367 0.45625001 9014411
0.125732 -0.18052995 0.45700002 9014411
0.12673146 -0.18052995 0.45700002 9014411
0.12773091 -0.18052995 0.45700002 9014411
0.12865995 -0.1804312 0.45675004 8883848
0.1295169 -0.18023367 0.45625001 9014664
0.1352068 -0.17983864 0.45525002 8752522
0.13620242 -0.17983864 0.45525002 8882825
0.13719805 -0.17983864 0.45525002 9014664
0.13826957 -0.17993741 0.45550004 8948618
0.13934217 -0.18003616 0.45575002 9079687
0.1403389 -0.18003616 0.45575002 8882825
0.14233233 -0.18003616 0.45575002 8752009
0.14332905 -0.18003616 0.45575002 9014411
0.14416744 -0.17983864 0.45525002 8948618
0.14452532 -0.17904858 0.45325002 8883078
0.1454363 -0.17894982 0.45300001 8883846
0.14634623 -0.17885107 0.45275003 8752775
0.14733638 -0.17885107 0.45275003 8686216
0.14832653 -0.17885107 0.45275003 8948618
0.1493167 -0.17885107 0.45275003 8948871
0.15030685 -0.17885107 0.45275003 9014664
0.151297 -0.17885107 0.45275003 8752009
0.15228717 -0.17885107 0.45275003 8752009
0.15327732 -0.17885107 0.45275003 8817802
0.15426749 -0.17885107 0.45275003 9145227
0.15517192 -0.1787523 0.45250002 9079687
0.1566302 -0.17815976 0.45100003 8948871
0.15752916 -0.17806099 0.45075002 8882825
0.16156186 -0.17815976 0.45100003 8752009
0.16263829 -0.17825851 0.45125002 8882825
0.16371582 -0.17835727 0.45150003 9013894
0.16461204 -0.17825851 0.45125002 9013637
0.16649351 -0.17815976 0.45100003 8883848
0.16738699 -0.17806099 0.45075002 8752262
0.16827939 -0.17796224 0.45050001 8817802
0.16926463 -0.17796224 0.45050001 8882825
0.17024988 -0.17796224 0.45050001 8948620
0.17123511 -0.17796224 0.45050001 8686218
0.17222035 -0.17796224 0.45050001 8752009
0.17310947 -0.17786349 0.45025003 8818055
0.17409417 -0.17786349 0.45025003 8752262
0.17498164 -0.17776473 0.45000002 8752009
0.17596579 -0.17776473 0.45000002 8818055
0.17694992 -0.17776473 0.45000002 8883848
0.17783523 -0.17766598 0.44975004 8882825
0.17871943 -0.17756721 0.44950002 8948620
0.17960252 -0.17746845 0.44925001 8817804
0.18028355 -0.17717217 0.44850001 8686216
0.18106234 -0.17697465 0.44800001 8948618
0.18410432 -0.17707342 0.44825003 9014411
0.1852911 -0.17727093 0.44875002 8818315
0.18627252 -0.17727093 0.44875002 8621706
0.18725392 -0.17727093 0.44875002 8621706
0.18823533 -0.17727093 0.44875002 8752524
0.19117956 -0.17727093 0.44875002 8818055
0.19205391 -0.17717217 0.44850001 8817804
0.20400602 -0.17648086 0.44675002 8948871
0.20509776 -0.17657962 0.44700003 8817802
0.2092419 -0.17677714 0.44750002 8883595
0.21353713 -0.17628336 0.44625002 8818315
0.24109711 -0.17717217 0.44850001 8621189
-0.029837603 -0.2045753 0.52075005 9477528
-0.027573086 -0.2046735 0.52100003 9543323
-0.02644635 -0.20477171 0.52125001 9674394
-0.025318522 -0.20486993 0.52150005 9608601
-0.024178008 -0.20486993 0.52150005 10002589
-0.023048537 -0.20496814 0.52175003 9936283
-0.021917973 -0.20506634 0.52200001 10199970
-0.020865919 -0.20595026 0.52425003 10200740
-0.019728793 -0.20604846 0.52450001 10529703
-0.018581718 -0.20604846 0.52450001 9937566
-0.017434644 -0.20604846 0.52450001 9344148
0.0019356677 -0.19308449 0.49150002 9607571
0.0030105719 -0.19308449 0.49150002 9542291
0.0040833983 -0.19298629 0.49125004 9344659
0.0051577562 -0.19298629 0.49125004 9476247
0.006228942 -0.19288808 0.49100003 9345431
0.0072990344 -0.19278987 0.49075001 9213845
0.0083680339 -0.19269165 0.49050003 9344661
0.0094311275 -0.19249523 0.49000001 9541527
0.010492034 -0.1922988 0.48950002 9541527
0.011562564 -0.1922988 0.48950002 9344146
0.012633095 -0.1922988 0.48950002 9476245
0.013703625 -0.1922988 0.48950002 9148050
0.014774155 -0.1922988 0.48950002 9344659
0.015844686 -0.1922988 0.48950002 9344912
0.016915217 -0.1922988 0.48950002 9344146
0.017985746 -0.1922988 0.48950002 9213073
0.020095969 -0.19200416 0.48875001 9148050
0.021132383 -0.19170953 0.48800004 9148052
0.022176886 -0.19151311 0.48750001 9148052
0.023207285 -0.19121848 0.48675004 9213073
0.024246868 -0.19102205 0.48625001 9213075
0.025284264 -0.19082563 0.48575002 9016466
0.026333036 -0.19072743 0.48550004 9213073
0.02738071 -0.1906292 0.48525003 9278353
0.028427292 -0.19053099 0.48500001 9147280
0.029472783 -0.19043279 0.48475003 9213073
0.030469937 -0.19003993 0.48375002 9213073
0.031479008 -0.18974529 0.48300001 9213075
0.032518487 -0.18964709 0.48275003 9147282
0.033556867 -0.18954886 0.48250002 9212560
0.034594156 -0.18945067 0.48225003 9278866
0.036627397 -0.18905781 0.48125002 9147282
0.043857682 -0.18846855 0.47975004 9147533
0.044906892 -0.18846855 0.47975004 9081740
0.045980044 -0.18856676 0.48000002 9082510
0.051734 -0.18660252 0.47500002 9016464
0.05277282 -0.18660252 0.47500002 9279119
0.05381164 -0.18660252 0.47500002 9409169
0.054879326 -0.18670073 0.47525004 9540755
0.055918694 -0.18670073 0.47525004 9738134
0.056958061 -0.18670073 0.47525004 10792105
0.057997428 -0.18670073 0.47525004 12503493
0.059036791 -0.18670073 0.47525004 12832458
0.059949744 -0.18630788 0.47425002 13030352
0.060858332 -0.18591504 0.47325003 13030354
0.061827928 -0.18571861 0.47275001 11977664
0.062762097 -0.18542399 0.47200003 10989486
0.063726775 -0.18522754 0.47150001 10067871
0.064757943 -0.18522754 0.47150001 9541527
0.065789111 -0.18522754 0.47150001 9278353
0.066820271 -0.18522754 0.47150001 9147282
0.067851432 -0.18522754 0.47150001 9147280
0.068882599 -0.18522754 0.47150001 9146767
0.069839627 -0.18503113 0.47100002 9409171
0.070832081 -0.18493292 0.47075003 9409171
0.071861602 -0.18493292 0.47075003 9146767
0.072852425 -0.1848347 0.47050002 9147280
0.073842138 -0.18473649 0.47025001 9147533
0.07483077 -0.18463828 0.47000003 9147280
0.0758183 -0.18454006 0.46975002 9212560
0.07680475 -0.18444186 0.46950004 9212813
0.077790089 -0.18434365 0.46925002 9212813
0.07877434 -0.18424544 0.46900001 9081487
0.079204515 -0.18287048 0.46550003 9015696
0.080222562 -0.18287048 0.46550003 9015696
0.081196971 -0.18277225 0.46525002 8884108
0.083276689 -0.18287048 0.46550003 9015694
0.084294729 -0.18287048 0.46550003 9146767
0.08535859 -0.18296868 0.46575001 9343376
0.086377181 -0.18296868 0.46575001 9343376
0.087395765 -0.18296868 0.46575001 9146767
0.088366896 -0.18287048 0.46550003 8949388
0.089336939 -0.18277225 0.46525002 9146767
0.090305887 -0.18267405 0.46500003 9015696
0.091273732 -0.18257584 0.46475002 9015696
0.092190847 -0.18237941 0.46425003 9081487
0.093155965 -0.1822812 0.46400002 9015694
0.094119988 -0.182183 0.46375003 9015694
0.095082916 -0.18208477 0.46350002 9015694
0.095992923 -0.18188836 0.46300003 9146767
0.097859301 -0.18159372 0.46225002 9211790
0.09881676 -0.1814955 0.46200001 9211790
0.099773131 -0.18139729 0.46175003 9342606
0.10078298 -0.18139729 0.46175003 9342608
0.10184792 -0.1814955 0.46200001 9211792
0.10285831 -0.1814955 0.46200001 9343376
0.10386869 -0.1814955 0.46200001 9080204
0.10487909 -0.1814955 0.46200001 9015694
0.10577488 -0.18129908 0.46150002 9080974
0.10649494 -0.18080802 0.46025002 9211273
0.10738472 -0.1806116 0.45975003 9211273
0.10833125 -0.18051338 0.45950001 8949388
0.10933617 -0.18051338 0.45950001 8818317
0.11034109 -0.18051338 0.45950001 8884110
0.11134601 -0.18051338 0.45950001 8884108
0.11235093 -0.18051338 0.45950001 8884878
0.11335585 -0.18051338 0.45950001 8818315
0.11429855 -0.18041518 0.45925003 9014411
0.11530293 -0.18041518 0.45925003 9014411
0.11618067 -0.18021874 0.45875001 9014411
0.11712009 -0.18012054 0.45850003 9014411
0.11799401 -0.17992412 0.45800003 9211273
0.1189307 -0.1798259 0.45775002 9080457
0.12246509 -0.17913842 0.45600003 8883595
0.12346236 -0.17913842 0.45600003 8686729
0.12445962 -0.17913842 0.45600003 8752522
0.12559445 -0.17933485 0.45650002 8818317
0.12766103 -0.17943306 0.45675004 8818315
0.13229254 -0.17894199 0.45550004 8817802
0.13321555 -0.17884378 0.45525002 9014411
0.1352068 -0.17884378 0.45525002 8948618
0.13620242 -0.17884378 0.45525002 9014413
0.13727339 -0.17894199 0.45550004 8882825
0.13826957 -0.17894199 0.45550004 8948618
0.13934217 -0.17904021 0.45575002 8883848
0.14332905 -0.17904021 0.45575002 8882825
0.14432576 -0.17904021 0.45575002 8948618
0.14524278 -0.17894199 0.45550004 8752775
0.14551657 -0.17805809 0.45325002 8621959
0.14650784 -0.17805809 0.45325002 8686216
0.14749908 -0.17805809 0.45325002 8948871
0.14840843 -0.17795987 0.45300001 8883846
0.14939913 -0.17795987 0.45300001 8817285
0.15038984 -0.17795987 0.45300001 8948871
0.15138054 -0.17795987 0.45300001 8817802
0.15237124 -0.17795987 0.45300001 8752009
0.15336195 -0.17795987 0.45300001 8882825
0.15435266 -0.17795987 0.45300001 8948618
0.15525764 -0.17786166 0.45275003 8948871
0.1566302 -0.17717418 0.45100003 8883076
0.15761653 -0.17717418 0.45100003 8948618
0.15851493 -0.17707597 0.45075002 8817032
0.16165142 -0.17727239 0.45125002 8686216
0.16281849 -0.17746881 0.45175001 8686216
0.16380647 -0.17746881 0.45175001 9014664
0.16559891 -0.17727239 0.45125002 9014411
0.16729416 -0.17697775 0.45050001 8882825
0.17202921 -0.17678133 0.45000002 8555913
0.17301334 -0.17678133 0.45000002 8555913
0.17399749 -0.17678133 0.45000002 8686982
0.17498164 -0.17678133 0.45000002 9014664
0.17596579 -0.17678133 0.45000002 9014664
0.17694992 -0.17678133 0.45000002 8752009
0.17783523 -0.17668313 0.44975004 8817802
0.17881884 -0.17668313 0.44975004 8817802
0.17960252 -0.1764867 0.44925001 8817802
0.18038404 -0.17629027 0.44875002 8817802
0.18106234 -0.17599563 0.44800001 8949388
0.18194053 -0.17589743 0.44775003 8948618
0.19107305 -0.17619206 0.44850001 8752009
0.19205391 -0.17619206 0.44850001 8817802
0.19303478 -0.17619206 0.44850001 8818315
0.19770028 -0.17511174 0.44575003 8818055
0.20509776 -0.17560279 0.44700003 8817804
0.2061906 -0.17570099 0.44725001 9014413
0.20728453 -0.17579922 0.44750002 8948618
0.23998241 -0.17609385 0.44825003 8751492
0.24109711 -0.17619206 0.44850001 8489090
-0.034393102 -0.2034373 0.52075005 9411737
-0.032115351 -0.2034373 0.52075005 9477017
-0.030976476 -0.2034373 0.52075005 9477268
-0.029851926 -0.20353495 0.52100003 9477268
-0.028712507 -0.20353495 0.52100003 9477528
-0.027586317 -0.20363261 0.52125001 9411737
-0.026459036 -0.20373029 0.52150005 9608603
-0.025330659 -0.20382795 0.52175003 9871775
-0.024201186 -0.20392561 0.52200001 9871777
-0.02305958 -0.20392561 0.52200001 10199970
-0.021928469 -0.20402327 0.52225 10463140
-0.020855969 -0.20470695 0.52400005 10660519
-0.01971939 -0.2048046 0.52425003 10265761
-0.018581718 -0.20490226 0.52450001 9345431
-0.017434644 -0.20490226 0.52450001 9147284
-0.0012929795 -0.19259642 0.49300003 9476245
-0.00021446787 -0.19230342 0.49225003 9541525
0.0019366523 -0.19210809 0.49175003 9541525
0.0030105719 -0.19201042 0.49150002 9344659
0.0040854765 -0.19201042 0.49150002 9477017
0.0051577562 -0.19191276 0.49125004 9476247
0.006228942 -0.19181509 0.49100003 9542040
0.0072990344 -0.19171742 0.49075001 9345431
0.0083637685 -0.19152209 0.49025002 9476249
0.0094311275 -0.19142441 0.49000001 9344663
0.010497393 -0.19132677 0.48975003 9476249
0.011562564 -0.19122909 0.48950002 9476247
0.012633095 -0.19122909 0.48950002 9082770
0.013703625 -0.19122909 0.48950002 9017491
0.014774155 -0.19122909 0.48950002 9213843
0.015844686 -0.19122909 0.48950002 9278866
0.020085691 -0.19083844 0.48850003 9147280
0.021121556 -0.19054544 0.48775002 9278866
0.022154141 -0.19025244 0.48700002 9212560
0.023195365 -0.19005711 0.48650002 9147280
0.024234403 -0.18986177 0.48600003 9148052
0.025271254 -0.18966645 0.48550004 9213845
0.026319474 -0.18956879 0.48525003 9082259
0.027366603 -0.18947111 0.48500001 9278353
0.028427292 -0.18947111 0.48500001 9213073
0.029472783 -0.18937345 0.48475003 9213073
0.030485684 -0.18908046 0.48400003 9212560
0.031462718 -0.18859212 0.48275003 9213073
0.032518487 -0.18859212 0.48275003 9213075
0.033556867 -0.18849446 0.48250002 9278353
0.038651891 -0.18761547 0.48025003 9212562
0.03968152 -0.18751781 0.48000002 9081489
0.042808481 -0.18742014 0.47975004 9212560
0.043834828 -0.18732247 0.47950003 9278355
0.044579275 -0.18605283 0.47625002 9278353
0.045620825 -0.18605283 0.47625002 9212560
0.048668724 -0.18575983 0.47550002 9409169
0.050561775 -0.18507616 0.47375003 9278606
0.05159786 -0.18507616 0.47375003 9213073
0.052717268 -0.18536916 0.47450003 9082257
0.053754997 -0.18536916 0.47450003 9278866
0.054821588 -0.18546683 0.47475001 9474962
0.055889279 -0.18556449 0.47500002 10396317
0.056928094 -0.18556449 0.47500002 12370624
0.057966918 -0.18556449 0.47500002 13095113
0.058974676 -0.18546683 0.47475001 13226446
0.059886541 -0.18507616 0.47375003 13095632
0.060826182 -0.18478318 0.47300002 12437965
0.061729845 -0.18439251 0.47200003 10858418
0.062629126 -0.18400185 0.47100002 9871007
0.06362541 -0.18390419 0.47075003 9541527
0.064654939 -0.18390419 0.47075003 9409941
0.065649576 -0.18380651 0.47050002 9278355
0.066643119 -0.18370885 0.47025001 9213075
0.067707531 -0.18380651 0.47050002 9213075
0.068736516 -0.18380651 0.47050002 9278355
0.069765486 -0.18380651 0.47050002 9147280
0.070794463 -0.18380651 0.47050002 9213073
0.07182344 -0.18380651 0.47050002 9016464
0.072813712 -0.18370885 0.47025001 9213073
0.073802888 -0.18361118 0.47000003 9147280
0.074790962 -0.18351352 0.46975002 9016464
0.075777955 -0.18341586 0.46950004 9081740
0.076763846 -0.18331818 0.46925002 9146767
0.077748649 -0.18322052 0.46900001 9212560
0.078690358 -0.1830252 0.46850002 9146769
0.079417199 -0.18234153 0.46675003 9278355
0.084249452 -0.18175554 0.46525002 9080974
0.085312776 -0.1818532 0.46550003 9080974
0.086377181 -0.18195087 0.46575001 9080974
0.087395765 -0.18195087 0.46575001 9147020
0.088366896 -0.1818532 0.46550003 9080204
0.089336939 -0.18175554 0.46525002 8949390
0.090305887 -0.18165788 0.46500003 9081489
0.091175541 -0.18136488 0.46425003 9080974
0.092141196 -0.1812672 0.46400002 9080974
0.093105778 -0.18116955 0.46375003 9081227
0.09406925 -0.18107188 0.46350002 9147020
0.094980344 -0.18087655 0.46300003 8949388
0.096795984 -0.18048589 0.46200001 9080204
0.097700521 -0.18029055 0.46150002 9212043
0.098656341 -0.18019289 0.46125001 9080204
0.099665083 -0.18019289 0.46125001 9342859
0.10072841 -0.18029055 0.46150002 9408399
0.1017377 -0.18029055 0.46150002 9211792
0.10280266 -0.18038823 0.46175003 9211790
0.10381249 -0.18038823 0.46175003 9211790
0.10476559 -0.18029055 0.46150002 9080206
0.10571758 -0.18019289 0.46125001 9146767
0.10649494 -0.17980222 0.46025002 9080204
0.10738472 -0.1796069 0.45975003 9080206
0.10833125 -0.17950922 0.45950001 8949388
0.10927668 -0.17941158 0.45925003 8884361
0.11028106 -0.17941158 0.45925003 8949641
0.11128543 -0.17941158 0.45925003 8949641
0.1122898 -0.17941158 0.45925003 8884361
0.11329418 -0.17941158 0.45925003 8949388
0.11429855 -0.17941158 0.45925003 8949388
0.11524016 -0.1793139 0.45900002 8883595
0.11611736 -0.17911857 0.45850003 9015694
0.11705623 -0.1790209 0.45825002 8949388
0.1179296 -0.17882557 0.45775002 9080457
0.11886574 -0.17872791 0.45750001 8948871
0.11973529 -0.17853257 0.45700002 8949390
0.12060264 -0.17833725 0.45650002 8883597
0.12146781 -0.17814192 0.45600003 9014413
0.12239794 -0.17804424 0.45575002 9014413
0.12339466 -0.17804424 0.45575002 9080206
0.12445962 -0.17814192 0.45600003 8882827
0.12545688 -0.17814192 0.45600003 8883595
0.13229254 -0.17794658 0.45550004 8817802
0.13321555 -0.17784892 0.45525002 8752009
0.13421117 -0.17784892 0.45525002 9014411
0.1352068 -0.17784892 0.45525002 9014411
0.13620242 -0.17784892 0.45525002 8883595
0.13727339 -0.17794658 0.45550004 8883595
0.13834547 -0.17804424 0.45575002 8948618
0.13934217 -0.17804424 0.45575002 8752009
0.14041588 -0.17814192 0.45600003 8752009
0.14241041 -0.17814192 0.45600003 9014662
0.14340767 -0.17814192 0.45600003 8948871
0.14432576 -0.17804424 0.45575002 8686729
0.14532249 -0.17804424 0.45575002 8424327
0.14623895 -0.17794658 0.45550004 8686729
0.14707351 -0.17775124 0.45500001 8818315
0.14790587 -0.17755592 0.45450002 8752262
0.14865415 -0.17726292 0.45375001 8686467
0.14948159 -0.17706759 0.45325002 8818055
0.15047283 -0.17706759 0.45325002 8752009
0.15146409 -0.17706759 0.45325002 8752009
0.15237124 -0.17696993 0.45300001 8817802
0.15336195 -0.17696993 0.45300001 8948618
0.15435266 -0.17696993 0.45300001 8948618
0.15525764 -0.17687227 0.45275003 8817802
0.15598898 -0.17657927 0.45200002 8752009
0.15671702 -0.17628627 0.45125002 8818055
0.15770389 -0.17628627 0.45125002 8752009
0.15860286 -0.1761886 0.45100003 8555143
0.16066453 -0.17628627 0.45125002 8817802
0.16174097 -0.17638394 0.45150003 8882827
0.16281849 -0.17648159 0.45175001 8948620
0.16380647 -0.17648159 0.45175001 8882827
0.16479443 -0.17648159 0.45175001 8818055
0.16729416 -0.17599326 0.45050001 8817285
0.16818601 -0.17589562 0.45025003 9079434
0.16907677 -0.17579794 0.45000002 8947848
0.17095004 -0.17570028 0.44975004 8752009
0.17193365 -0.17570028 0.44975004 8752009
0.17282112 -0.17560261 0.44950002 8752262
0.17586803 -0.17570028 0.44975004 8752009
0.17685163 -0.17570028 0.44975004 8883595
0.17783523 -0.17570028 0.44975004 8948618
0.17970248 -0.17560261 0.44950002 8948618
0.18038404 -0.17530961 0.44875002 8882827
0.18086025 -0.17482129 0.44750002 8620938
0.18251121 -0.17452829 0.44675002 9014664
0.18328288 -0.17433296 0.44625002 8948871
0.18998623 -0.17511429 0.44825003 8817802
0.19096655 -0.17511429 0.44825003 8817802
0.19194686 -0.17511429 0.44825003 8948618
0.19152838 -0.17384464 0.44500002 9079434
0.19531143 -0.17374696 0.44475001 8752009
0.19867513 -0.17413764 0.44575003 8817802
0.20400602 -0.17452829 0.44675002 8883595
0.20509776 -0.17462596 0.44700003 8882825
0.2061906 -0.17472361 0.44725001 9080204
0.22194697 -0.17403996 0.44550002 10331556
0.22364429 -0.17384464 0.44500002 12173245
0.23474456 -0.17413764 0.44575003 8817283
0.23984857 -0.17501661 0.44800001 8817285
0.24096271 -0.17511429 0.44825003 8489090
0.24207798 -0.17521194 0.44850001 8555396
-0.03554903 -0.20239641 0.52100003 9477268
-0.033270188 -0.20239641 0.52100003 9607833
-0.032130767 -0.20239641 0.52100003 9477017
-0.030991348 -0.20239641 0.52100003 9477015
-0.02986625 -0.20249352 0.52125001 9673626
-0.028740063 -0.20259064 0.52150005 9542810
-0.027612779 -0.20268776 0.52175003 9543323
-0.026484402 -0.20278488 0.52200001 9608603
-0.025342794 -0.20278488 0.52200001 9806497
-0.024212778 -0.20288199 0.52225 9938083
-0.023081668 -0.20297912 0.52250004 10267044
-0.021949464 -0.20307623 0.52275002 10660519
-0.020836066 -0.20336759 0.52350003 10331556
-0.019709988 -0.20356184 0.52400005 9345944
-0.018572861 -0.20365895 0.52425003 8885391
-0.017426334 -0.20365895 0.52425003 9016466
-0.0023735692 -0.19171329 0.49350002 9279119
-0.0012923238 -0.19142193 0.49275002 9541525
-0.00021457681 -0.19132482 0.49250004 9607318
0.00086163892 -0.19113056 0.49200001 9673111
0.0019366523 -0.19103345 0.49175003 9344659
0.0030121033 -0.19103345 0.49175003 9542038
0.0040854765 -0.19093634 0.49150002 9476245
0.0051577562 -0.19083922 0.49125004 9344659
0.006228942 -0.19074211 0.49100003 9476247
0.0072953166 -0.19054787 0.49050003 9345429
0.0083637685 -0.19045074 0.49025002 9280149
0.0094311275 -0.19035362 0.49000001 9345429
0.010497393 -0.19025651 0.48975003 9345429
0.011568471 -0.19025651 0.48975003 9345429
0.012639548 -0.19025651 0.48975003 9345429
0.013703625 -0.19015938 0.48950002 9148050
0.014774155 -0.19015938 0.48950002 9213845
0.015844686 -0.19015938 0.48950002 9344659
0.02214277 -0.18909107 0.48675004 9213843
0.023183445 -0.18889683 0.48625001 9082772
0.024134671 -0.18802276 0.48400003 9016979
0.025193173 -0.18802276 0.48400003 9016466
0.026278796 -0.188217 0.48450002 9148050
0.027352499 -0.18831412 0.48475003 9082257
0.02841264 -0.18831412 0.48475003 9016464
0.029472783 -0.18831412 0.48475003 9147280
0.030517178 -0.188217 0.48450002 9213073
0.031462718 -0.18753716 0.48275003 9278353
0.032501645 -0.18744004 0.48250002 9213075
0.036513235 -0.18637174 0.47975004 9344146
0.037562441 -0.18637174 0.47975004 9278353
0.03861165 -0.18637174 0.47975004 9278866
0.039660856 -0.18637174 0.47975004 9213073
0.040710066 -0.18637174 0.47975004 9082257
0.041759271 -0.18637174 0.47975004 9147280
0.04278617 -0.18627462 0.47950003 9278353
0.043537721 -0.18501207 0.47625002 9212562
0.044579275 -0.18501207 0.47625002 9278868
0.045596879 -0.18491495 0.47600001 9213073
0.046637885 -0.18491495 0.47600001 9278606
0.04765385 -0.18481784 0.47575003 9278606
0.049421147 -0.18365239 0.47275001 9343376
0.051516175 -0.18374951 0.47300002 9541527
0.052606165 -0.18394375 0.47350001 9344661
0.053698353 -0.184138 0.47400004 9805210
0.054792721 -0.18433224 0.47450003 9344659
0.055830449 -0.18433224 0.47450003 12173245
0.056868173 -0.18433224 0.47450003 13094862
0.057905901 -0.18433224 0.47450003 13293011
0.058881514 -0.184138 0.47400004 13292239
0.059854936 -0.18394375 0.47350001 12898253
0.060794033 -0.18365239 0.47275001 11779522
0.061599057 -0.18297257 0.47100002 10462894
0.062562644 -0.18277833 0.47050002 9739167
0.063591622 -0.18277833 0.47050002 9541529
0.064586267 -0.1826812 0.47025001 9474964
0.065579809 -0.18258409 0.47000003 9278355
0.066572264 -0.18248697 0.46975002 9212562
0.067599602 -0.18248697 0.46975002 9278353
0.06862694 -0.18248697 0.46975002 9147020
0.069617212 -0.18238986 0.46950004 9278606
0.070643999 -0.18238986 0.46950004 9081487
0.071594462 -0.1821956 0.46900001 9016464
0.072542742 -0.18200137 0.46850002 9081740
0.073567346 -0.18200137 0.46850002 9278353
0.074671552 -0.1821956 0.46900001 9147280
0.075697251 -0.1821956 0.46900001 9147280
0.076682054 -0.18209849 0.46875003 9344146
0.077665761 -0.18200137 0.46850002 9409169
0.078648373 -0.18190426 0.46825004 9343376
0.079502277 -0.18151577 0.46725002 9146769
0.083142512 -0.18054458 0.46475002 9081487
0.084158912 -0.18054458 0.46475002 9147280
0.085266955 -0.18073882 0.46525002 9015694
0.086330816 -0.18083595 0.46550003 9147020
0.087348856 -0.18083595 0.46550003 9147020
0.088366896 -0.18083595 0.46550003 9277583
0.089336939 -0.18073882 0.46525002 9146767
0.090208776 -0.18044746 0.46450001 9080976
0.091126435 -0.18025322 0.46400002 9146767
0.092091553 -0.18015611 0.46375003 9146767
0.093005389 -0.17996186 0.46325001 9081227
0.093764819 -0.17947626 0.46200001 9081227
0.094621345 -0.17918491 0.46125001 9015694
0.097594671 -0.1790878 0.46100003 9146767
0.098602869 -0.1790878 0.46100003 9146767
0.099611066 -0.1790878 0.46100003 8949388
0.10067384 -0.17918491 0.46125001 8949388
0.10168258 -0.17918491 0.46125001 9015694
0.10274699 -0.17928202 0.46150002 8818315
0.10375629 -0.17928202 0.46150002 8949388
0.10470883 -0.17918491 0.46125001 8883597
0.10566028 -0.1790878 0.46100003 9080976
0.10655279 -0.17889357 0.46050003 8883597
0.10738472 -0.1786022 0.45975003 9080976
0.10833125 -0.17850508 0.45950001 8884110
0.10927668 -0.17840797 0.45925003 8884108
0.11022102 -0.17831084 0.45900002 9147020
0.11122485 -0.17831084 0.45900002 8818055
0.11222867 -0.17831084 0.45900002 9081227
0.1132325 -0.17831084 0.45900002 8818568
0.11423633 -0.17831084 0.45900002 9081740
0.11517739 -0.17821372 0.45875001 9081227
0.11611736 -0.1781166 0.45850003 8883848
0.11699238 -0.17792237 0.45800003 8949641
0.1179296 -0.17782524 0.45775002 8883848
0.11880079 -0.17763101 0.45725003 8883595
0.11966979 -0.17743677 0.45675004 9080206
0.12053659 -0.17724253 0.45625001 8882827
0.12146781 -0.17714541 0.45600003 8949390
0.12239794 -0.1770483 0.45575002 8884110
0.12339466 -0.1770483 0.45575002 8817804
0.1253881 -0.1770483 0.45575002 9014664
0.1303717 -0.1770483 0.45575002 8818055
0.13129637 -0.17695118 0.45550004 9014411
0.13229254 -0.17695118 0.45550004 8883595
0.13321555 -0.17685406 0.45525002 8817802
0.1352068 -0.17685406 0.45525002 8752262
0.13620242 -0.17685406 0.45525002 8686729
0.13727339 -0.17695118 0.45550004 8752522
0.13826957 -0.17695118 0.45550004 8752775
0.13934217 -0.1770483 0.45575002 8752775
0.1403389 -0.1770483 0.45575002 8949641
0.14133561 -0.1770483 0.45575002 8818055
0.14241041 -0.17714541 0.45600003 8883078
0.14332905 -0.1770483 0.45575002 8948871
0.14432576 -0.1770483 0.45575002 8752775
0.14532249 -0.1770483 0.45575002 8556166
0.14623895 -0.17695118 0.45550004 8556166
0.14715432 -0.17685406 0.45525002 8555143
0.14806858 -0.17675693 0.45500001 8752009
0.14889985 -0.1765627 0.45450002 8818055
0.14956404 -0.17617422 0.45350003 8818053
0.15047283 -0.1760771 0.45325002 8752775
0.15146409 -0.1760771 0.45325002 8752009
0.15237124 -0.17597997 0.45300001 8817032
0.15336195 -0.17597997 0.45300001 8882827
0.15426749 -0.17588286 0.45275003 8948620
0.15517192 -0.17578574 0.45250002 8752011
0.15598898 -0.1755915 0.45200002 8817802
0.15680385 -0.17539726 0.45150003 8752009
0.15770389 -0.17530015 0.45125002 8883595
0.15869077 -0.17530015 0.45125002 8752009
0.15976611 -0.17539726 0.45150003 8818055
0.16075353 -0.17539726 0.45150003 8752009
0.16183053 -0.17549437 0.45175001 8817034
0.16281849 -0.17549437 0.45175001 8882827
0.16630892 -0.17500879 0.45050001 8752262
0.16809262 -0.17481455 0.45000002 8686216
0.16907677 -0.17481455 0.45000002 8686216
0.16996644 -0.17471744 0.44975004 8752009
0.17085502 -0.17462032 0.44950002 8686216
0.17174248 -0.17452319 0.44925001 8818055
0.1756725 -0.17452319 0.44925001 8359047
0.17685163 -0.17471744 0.44975004 8948618
0.17970248 -0.17462032 0.44950002 8817802
0.18048455 -0.17442608 0.44900003 8686729
0.18065818 -0.17364912 0.44700003 8949641
0.18153417 -0.17355199 0.44675002 9145480
0.18240908 -0.17345488 0.44650003 8948618
0.1831802 -0.17326064 0.44600001 8752262
0.18405239 -0.17316353 0.44575003 8883078
0.18492346 -0.17306641 0.44550002 8883078
0.18676721 -0.1729693 0.44525003 8948871
0.18879509 -0.17394048 0.44775003 8752522
0.19086003 -0.17403759 0.44800001 8818055
0.1918398 -0.17403759 0.44800001 8883848
0.19531143 -0.17277505 0.44475001 8686218
0.19747852 -0.1729693 0.44525003 8752009
0.20073734 -0.17326064 0.44600001 9014411
0.21196578 -0.17287217 0.44500002 8817034
0.22182243 -0.1729693 0.44525003 11516598
0.24096271 -0.17413472 0.44825003 8358017
0.24194305 -0.17413472 0.44825003 8424327
0.24292335 -0.17413472 0.44825003 8555143
-0.035583146 -0.20145102 0.52150005 9411224
-0.034426119 -0.20135443 0.52125001 9607833
-0.033286151 -0.20135443 0.52125001 9607833
-0.032146186 -0.20135443 0.52125001 9739419
-0.031006217 -0.20135443 0.52125001 9477015
-0.029880576 -0.20145102 0.52150005 9739417
-0.028753841 -0.20154759 0.52175003 9673626
-0.02762601 -0.20164415 0.52200001 9674398
-0.026497085 -0.20174073 0.52225 9740189
-0.025354931 -0.20174073 0.52225 9938081
-0.024224369 -0.20183732 0.52250004 10135458
-0.023092711 -0.20193388 0.52275002 10464423
-0.02195996 -0.20203044 0.523 10267046
-0.020836066 -0.2022236 0.52350003 9411739
-0.019700581 -0.20232016 0.52375001 8688014
-0.018564006 -0.20241675 0.52400005 8950671
-0.0034563458 -0.190828 0.49400002 9409939
-0.0023711643 -0.19044171 0.49300003 9410192
-0.0012916682 -0.19024856 0.49250004 9213843
-0.00021446787 -0.19015199 0.49225003 9280149
0.00086163892 -0.19005542 0.49200001 9542038
0.0019366523 -0.18995884 0.49175003 9607318
0.0030121033 -0.18995884 0.49175003 9409939
0.0040854765 -0.18986227 0.49150002 9607318
0.0051577562 -0.18976571 0.49125004 9476245
0.0062257703 -0.18957254 0.49075001 9345429
0.0072953166 -0.18947598 0.49050003 9344659
0.0083637685 -0.18937941 0.49025002 9476498
0.0094311275 -0.18928282 0.49000001 9541778
0.010502751 -0.18928282 0.49000001 9541525
0.011574375 -0.18928282 0.49000001 9213073
0.012639548 -0.18918626 0.48975003 9344659
0.013710624 -0.18918626 0.48975003 9213073
0.014774155 -0.18908969 0.48950002 9278866
0.015844686 -0.18908969 0.48950002 9148052
0.016915217 -0.18908969 0.48950002 9278868
0.022131396 -0.18793081 0.48650002 8950671
0.023183445 -0.18783423 0.48625001 9016977
0.024122205 -0.1868685 0.48375002 9082257
0.025180161 -0.1868685 0.48375002 9148050
0.026251676 -0.18696508 0.48400003 9148050
0.027324283 -0.18706165 0.48425001 9148050
0.028397987 -0.18715823 0.48450002 9279119
0.029457582 -0.18715823 0.48450002 9279119
0.030517178 -0.18715823 0.48450002 9212813
0.031446423 -0.18638565 0.48250002 9278606
0.032484807 -0.18628907 0.48225003 9147280
0.033539481 -0.18628907 0.48225003 9147282
0.03441482 -0.18532334 0.47975004 9212562
0.035464026 -0.18532334 0.47975004 9212560
0.036494207 -0.18522677 0.47950003 9278353
0.037542865 -0.18522677 0.47950003 9147280
0.038591526 -0.18522677 0.47950003 9147280
0.039640188 -0.18522677 0.47950003 9147280
0.04068885 -0.18522677 0.47950003 9147280
0.041737508 -0.18522677 0.47950003 9213073
0.042496171 -0.18397133 0.47625002 9212562
0.044555873 -0.18387474 0.47600001 9278355
0.045596879 -0.18387474 0.47600001 9213073
0.046613391 -0.18377818 0.47575003 9344146
0.047553681 -0.18339188 0.47475001 9212560
0.048361663 -0.18252273 0.47250003 9278353
0.049368877 -0.18242615 0.47225001 9344146
0.050401684 -0.18242615 0.47225001 9344148
0.051434487 -0.18242615 0.47225001 9344148
0.052495066 -0.18252273 0.47250003 9344148
0.053585064 -0.18271588 0.47300002 9541525
0.054706115 -0.1830056 0.47375003 10726312
0.05580103 -0.18319874 0.47425002 13095632
0.056808248 -0.18310218 0.47400004 13161427
0.057844881 -0.18310218 0.47400004 13358804
0.058819398 -0.18290901 0.47350001 13292492
0.059823334 -0.18281245 0.47325003 11976632
0.060794033 -0.1826193 0.47275001 10134949
0.062562644 -0.18175015 0.47050002 9213847
0.063557826 -0.18165357 0.47025001 9409943
0.064551927 -0.181557 0.47000003 9212562
0.065544926 -0.18146043 0.46975002 9278353
0.066536836 -0.18136387 0.46950004 9344146
0.067527644 -0.18126728 0.46925002 9213073
0.068517372 -0.1811707 0.46900001 9212813
0.069505997 -0.18107414 0.46875003 9212813
0.070493534 -0.18097757 0.46850002 9212813
0.071479969 -0.18088099 0.46825004 9212560
0.072465323 -0.18078442 0.46800002 9147280
0.073488832 -0.18078442 0.46800002 9081487
0.074552149 -0.18088099 0.46825004 9081487
0.075576201 -0.18088099 0.46825004 9081487
0.076600261 -0.18088099 0.46825004 9146767
0.077582873 -0.18078442 0.46800002 9409422
0.078522399 -0.18059127 0.46750003 9146767
0.079374664 -0.18020497 0.46650001 9015696
0.081196971 -0.17972212 0.46525002 9212560
0.082126111 -0.17952897 0.46475002 9146767
0.083097786 -0.17943239 0.46450001 9080974
0.084113643 -0.17943239 0.46450001 9146767
0.085129499 -0.17943239 0.46450001 9081227
0.086238086 -0.17962554 0.46500003 9081227
0.087301947 -0.17972212 0.46525002 9146767
0.088319436 -0.17972212 0.46525002 9080974
0.089240931 -0.17952897 0.46475002 9211790
0.090160228 -0.17933583 0.46425003 9146767
0.091077343 -0.17914268 0.46375003 9080974
0.091992259 -0.17894953 0.46325001 9080974
0.092603855 -0.17817694 0.46125001 9147020
0.093561865 -0.17808038 0.46100003 9080974
0.094570063 -0.17808038 0.46100003 9015694
0.096534088 -0.17798381 0.46075001 8949388
0.097541742 -0.17798381 0.46075001 9211790
0.098549396 -0.17798381 0.46075001 9080457
0.09955705 -0.17798381 0.46075001 8949641
0.10061928 -0.17808038 0.46100003 9080974
0.10162748 -0.17808038 0.46100003 8883848
0.10269133 -0.17817694 0.46125001 8949388
0.10370008 -0.17817694 0.46125001 9080976
0.10470883 -0.17817694 0.46125001 8949390
0.10560298 -0.17798381 0.46075001 8949388
0.10649494 -0.17779066 0.46025002 9080206
0.10738472 -0.17759752 0.45975003 9211022
0.10827231 -0.17740437 0.45925003 9080206
0.1092172 -0.1773078 0.45900002 9080976
0.11022102 -0.1773078 0.45900002 8949388
0.11122485 -0.1773078 0.45900002 9080206
0.11222867 -0.1773078 0.45900002 8949390
0.1132325 -0.1773078 0.45900002 8686729
0.11423633 -0.1773078 0.45900002 8687499
0.11517739 -0.17721121 0.45875001 8949388
0.11611736 -0.17711465 0.45850003 8949641
0.11699238 -0.1769215 0.45800003 8949388
0.11786519 -0.17672835 0.45750001 8883595
0.11873583 -0.1765352 0.45700002 9080974
0.11960428 -0.17634207 0.45650002 8949388
0.12053659 -0.1762455 0.45625001 8817802
0.12146781 -0.17614892 0.45600003 8818315
0.12239794 -0.17605235 0.45575002 8686729
0.12332698 -0.17595579 0.45550004 8949388
0.12432315 -0.17595579 0.45550004 8949388
0.1253881 -0.17605235 0.45575002 8948618
0.1303717 -0.17605235 0.45575002 9014664
0.13129637 -0.17595579 0.45550004 8948618
0.13321555 -0.1758592 0.45525002 8817802
0.13421117 -0.1758592 0.45525002 8948618
0.1352068 -0.1758592 0.45525002 8818055
0.13620242 -0.1758592 0.45525002 8818055
0.13719805 -0.1758592 0.45525002 8817802
0.13819368 -0.1758592 0.45525002 8686729
0.1391893 -0.1758592 0.45525002 8621959
0.14026192 -0.17595579 0.45550004 8752009
0.14133561 -0.17605235 0.45575002 8752009
0.14233233 -0.17605235 0.45575002 8817032
0.14332905 -0.17605235 0.45575002 8882825
0.14432576 -0.17605235 0.45575002 8752775
0.14532249 -0.17605235 0.45575002 8556166
0.14623895 -0.17595579 0.45550004 8752522
0.14723513 -0.17595579 0.45550004 8752009
0.14814994 -0.1758592 0.45525002 8882825
0.14898176 -0.17566606 0.45475003 8882825
0.14956404 -0.17518319 0.45350003 8818055
0.15047283 -0.17508662 0.45325002 8752009
0.15138054 -0.17499004 0.45300001 8948618
0.15237124 -0.17499004 0.45300001 9013641
0.15327732 -0.17489347 0.45275003 8948620
0.1541823 -0.17479689 0.45250002 9014411
0.15508619 -0.17470033 0.45225003 8751239
0.15598898 -0.17460376 0.45200002 9079434
0.15689066 -0.17450717 0.45175001 8948618
0.15779127 -0.17441061 0.45150003 8817802
0.1587787 -0.17441061 0.45150003 8686216
0.15976611 -0.17441061 0.45150003 8752009
0.16075353 -0.17441061 0.45150003 8817802
0.16174097 -0.17441061 0.45150003 8817034
0.16532369 -0.17402431 0.45050001 8882827
0.16612434 -0.17383116 0.45000002 9079434
0.16710848 -0.17383116 0.45000002 8948618
0.16799925 -0.17373461 0.44975004 8948618
0.16898285 -0.17373461 0.44975004 8817802
0.16987197 -0.17363803 0.44950002 8752009
0.17075999 -0.17354146 0.44925001 8817804
0.17155135 -0.17334831 0.44875002 8752522
0.17773637 -0.17363803 0.44950002 8818055
0.17871943 -0.17363803 0.44950002 8752775
0.18048455 -0.17344488 0.44900003 8621189
0.18065818 -0.1726723 0.44700003 8883848
0.18143259 -0.17247915 0.44650003 8948618
0.18230695 -0.17238258 0.44625002 8817804
0.1831802 -0.172286 0.44600001 8883078
0.18405239 -0.17218943 0.44575003 8883595
0.18579344 -0.1719963 0.44525003 8948618
0.18666233 -0.17189972 0.44500002 8949388
0.18956238 -0.17276886 0.44725001 8752522
0.19054051 -0.17276886 0.44725001 8883595
0.19044811 -0.17180313 0.44475001 8752262
0.19747852 -0.1719963 0.44525003 8817802
0.19856369 -0.17209285 0.44550002 8883848
0.19964997 -0.17218943 0.44575003 8948618
0.20062484 -0.17218943 0.44575003 8948618
0.21051843 -0.17151342 0.44400004 8752011
0.21281935 -0.17180313 0.44475001 9013641
0.21379201 -0.17180313 0.44475001 9013384
-0.035600204 -0.2004074 0.52175003 9542808
-0.034442633 -0.20031138 0.52150005 9477015
-0.033302117 -0.20031138 0.52150005 9608601
-0.032161605 -0.20031138 0.52150005 9673626
-0.03102109 -0.20031138 0.52150005 9608603
-0.0298949 -0.2004074 0.52175003 9674396
-0.028767617 -0.20050342 0.52200001 9739419
-0.02763924 -0.20059945 0.52225 9740189
-0.026509771 -0.20069548 0.52250004 9937568
