# .PCD v0.7 - Point Cloud Data file format
VERSION 0.7
FIELDS x y z rgb
SIZE 4 4 4 4
TYPE F F F U
COUNT 1 1 1 1
WIDTH 1066
HEIGHT 1
VIEWPOINT 0 0 0 1 0 0 0
POINTS 1066
DATA ascii
-0.052122992 -0.030281384 0.46550003 11715524
-0.050775591 -0.03008623 0.46250004 11518145
-0.049764112 -0.03008623 0.46250004 11518399
-0.048752628 -0.03008623 0.46250004 11452865
-0.047741149 -0.03008623 0.46250004 11322049
-0.046729665 -0.03008623 0.46250004 11387072
-0.045718186 -0.03008623 0.46250004 11583938
-0.044706702 -0.03008623 0.46250004 11453117
-0.043671601 -0.030069966 0.46225002 11189434
-0.04263759 -0.030053703 0.46200001 11189180
-0.041604683 -0.03003744 0.46175003 11123641
-0.040572863 -0.030021178 0.46150002 11254973
-0.039542131 -0.030004913 0.46125001 11057596
-0.038491614 -0.029972389 0.46075001 11122619
-0.037341591 -0.02985855 0.45900002 10926008
-0.036278389 -0.02980976 0.45825002 10926010
-0.035237711 -0.029777234 0.45775002 10794422
-0.03421792 -0.029760972 0.45750001 10925238
-0.033199221 -0.029744711 0.45725003 11056824
-0.032181617 -0.029728446 0.45700002 10925238
-0.031165104 -0.029712185 0.45675004 11122871
-0.030149687 -0.029695921 0.45650002 11122871
-0.029119397 -0.029663395 0.45600003 10925490
-0.028106712 -0.029647132 0.45575002 11122871
-0.027109992 -0.029647132 0.45575002 11056824
-0.02609895 -0.029630871 0.45550004 10794422
-0.025088999 -0.029614607 0.45525002 10925238
-0.024080142 -0.029598344 0.45500001 10859447
-0.023072381 -0.029582081 0.45475003 10859447
-0.02206571 -0.029565819 0.45450002 10793652
-0.021060133 -0.029549554 0.45425001 10597558
-0.02005565 -0.029533293 0.45400003 10466742
-0.019062757 -0.029533293 0.45400003 10531765
-0.018059915 -0.029517028 0.45375001 10662838
-0.017067568 -0.029517028 0.45375001 10859447
-0.016066367 -0.029500768 0.45350003 10793654
-0.015057947 -0.02946824 0.45300001 10333871
-0.014051715 -0.029435715 0.45250002 10662838
-0.013033237 -0.029370666 0.45150003 10727861
-0.012025802 -0.029321875 0.45075002 10662068
-0.011015525 -0.029256826 0.44975004 10662070
-0.010020775 -0.029224299 0.44925001 10465459
-0.0090332413 -0.029208036 0.44900003 10662320
-0.0080468003 -0.029191773 0.44875002 10596527
-0.0070614535 -0.029175509 0.44850001 10333871
-0.0060772006 -0.029159248 0.44825003 10333873
-0.0050940407 -0.029142985 0.44800001 10268080
-0.0041119745 -0.029126722 0.44775003 10268080
-0.0031310015 -0.02911046 0.44750002 10268080
-0.0021523247 -0.02911046 0.44750002 10201515
-0.0011729921 -0.029094195 0.44725001 10136492
-0.00019486187 -0.029094195 0.44725001 10004908
0.0007832683 -0.029094195 0.44725001 10135722
0.001760414 -0.029077934 0.44700003 10266796
0.0027349347 -0.029045409 0.44650003 9938345
0.0037031122 -0.028980356 0.44550002 9938345
0.0046721655 -0.02894783 0.44500002 10003624
0.0056453752 -0.02894783 0.44500002 10003624
0.006618585 -0.02894783 0.44500002 9806757
0.0075917942 -0.02894783 0.44500002 9675171
0.0085601918 -0.028931567 0.44475001 9675425
0.0095221372 -0.028899042 0.44425002 9412253
0.01047599 -0.028850254 0.44350001 9477532
0.011433016 -0.028817728 0.44300002 9411737
0.012394851 -0.028801465 0.44275001 9280667
0.013355595 -0.028785203 0.44250003 9279899
0.014315245 -0.02876894 0.44225001 9475995
0.01528244 -0.02876894 0.44225001 9213847
0.01624045 -0.028752677 0.44200003 9148567
0.017197365 -0.028736414 0.44175002 8951702
0.018153187 -0.02872015 0.44150001 8755093
0.019097092 -0.028687626 0.44100001 8689298
0.020050181 -0.028671363 0.44075003 8556942
0.021002175 -0.028655101 0.44050002 8950673
0.021953076 -0.028638836 0.44025001 8688016
0.022902885 -0.028622575 0.44000003 8556426
0.023838041 -0.02859005 0.43950003 8752524
0.024785114 -0.028573787 0.43925002 8752011
0.025731096 -0.028557522 0.43900001 8686731
0.026660783 -0.028524997 0.43850002 8424329
0.027604032 -0.028508736 0.43825004 8292745
0.028546184 -0.028492471 0.43800002 8226950
0.029487245 -0.028476208 0.43775001 8161155
0.030444596 -0.028476208 0.43775001 8161157
0.031384021 -0.028459948 0.43750003 8030084
0.032322343 -0.028443683 0.43725002 7963778
0.033259578 -0.02842742 0.43700001 8029571
0.034176141 -0.028394895 0.43650001 7766910
0.035050284 -0.028329844 0.43550003 8160385
0.035982046 -0.028313581 0.43525001 8094594
0.036912721 -0.028297318 0.43500003 7766399
0.037842296 -0.028281055 0.43475002 7700606
0.038770784 -0.028264791 0.43450001 7503227
0.039698176 -0.02824853 0.43425003 7569022
0.040601075 -0.028216004 0.43375003 7765118
0.041525729 -0.028199742 0.43350002 7567737
0.042449296 -0.028183477 0.43325001 7634043
0.043346722 -0.028150951 0.43275002 7371641
0.044267558 -0.028134691 0.43250003 7371641
0.045187291 -0.028118428 0.43225002 7699323
0.046105936 -0.028102163 0.43200001 7567737
0.047050711 -0.028102163 0.43200001 7502455
0.047967717 -0.028085902 0.43175003 7370869
0.048911948 -0.028085902 0.43175003 7502455
0.049856178 -0.028085902 0.43175003 7305846
0.050770998 -0.028069638 0.43150002 7240055
0.051684715 -0.028053375 0.43125001 7305848
0.052597351 -0.028037112 0.43100002 7240053
0.053477831 -0.028004589 0.43050003 7305076
0.054324519 -0.027955798 0.42975003 7436662
0.055232231 -0.027939536 0.42950001 7240053
0.056138847 -0.027923273 0.42925003 7174260
0.057077609 -0.027923273 0.42925003 7305076
0.058016371 -0.027923273 0.42925003 7174260
0.05895514 -0.027923273 0.42925003 7174262
0.059893906 -0.027923273 0.42925003 7370869
0.060832668 -0.027923273 0.42925003 7304563
0.06177143 -0.027923273 0.42925003 7370356
0.062673673 -0.02790701 0.42900002 7304816
0.063611887 -0.02790701 0.42900002 7305327
0.064512491 -0.027890746 0.42875001 7305329
0.06537383 -0.027858222 0.42825001 7238770
0.066116862 -0.027776906 0.42700002 7501172
0.066932932 -0.027728118 0.42625001 7501172
0.067865133 -0.027728118 0.42625001 7304563
0.06875699 -0.027711857 0.42600003 7370869
0.069688655 -0.027711857 0.42600003 7239283
0.070620306 -0.027711857 0.42600003 7370358
0.071509972 -0.027695592 0.42575002 7501942
0.072441079 -0.027695592 0.42575002 7436402
0.073372193 -0.027695592 0.42575002 7304816
0.074346937 -0.027711857 0.42600003 7173492
0.075278588 -0.027711857 0.42600003 7238772
0.076254964 -0.027728118 0.42625001 7370358
0.077232443 -0.027744383 0.42650002 7107186
0.078119375 -0.027728118 0.42625001 7370871
0.079005219 -0.027711857 0.42600003 6845810
0.079889961 -0.027695592 0.42575002 7043189
0.080726154 -0.027663067 0.42525002 7173492
0.081608169 -0.027646804 0.42500001 7173492
0.082489088 -0.027630543 0.42475003 7173492
0.083368905 -0.027614279 0.42450002 7239285
0.084247634 -0.027598016 0.42425001 7239285
0.08517547 -0.027598016 0.42425001 7304565
0.086103298 -0.027598016 0.42425001 7173492
0.087031126 -0.027598016 0.42425001 7239283
0.087958954 -0.027598016 0.42425001 7108467
0.088939168 -0.027614279 0.42450002 6911090
0.08986754 -0.027614279 0.42450002 7042674
0.090849392 -0.027630543 0.42475003 7238770
0.091778316 -0.027630543 0.42475003 7369586
0.092707239 -0.027630543 0.42475003 7435379
0.093581051 -0.027614279 0.42450002 7107184
0.094509423 -0.027614279 0.42450002 7304563
0.095437795 -0.027614279 0.42450002 7305076
0.096422933 -0.027630543 0.42475003 7173490
0.097351857 -0.027630543 0.42475003 6976113
0.098338619 -0.027646804 0.42500001 6911090
0.10008559 -0.027874485 0.42850003 6778734
-0.11535729 -0.030647174 0.48750001 10924461
-0.11429113 -0.030647174 0.48750001 11122869
-0.11316691 -0.030631458 0.48725003 11057848
-0.11204379 -0.030615741 0.48700002 11320250
-0.11092176 -0.030600024 0.48675004 11189180
-0.10980081 -0.030584307 0.48650002 11123900
-0.10845746 -0.030505726 0.48525003 11321279
-0.1071749 -0.030442858 0.48425001 11189693
-0.10600629 -0.030411426 0.48375002 11452354
-0.1048941 -0.030395711 0.48350003 11254973
-0.1037293 -0.030364277 0.48300001 11452352
-0.10261985 -0.030348562 0.48275003 11386559
-0.10151149 -0.030332843 0.48250002 11517375
-0.10040422 -0.030317128 0.48225003 11386559
-0.09929803 -0.030301411 0.48200002 11452352
-0.098192945 -0.030285694 0.48175001 11387072
-0.097088963 -0.030269979 0.48150003 11387074
-0.095986061 -0.030254262 0.48125002 11387074
-0.094884254 -0.030238546 0.48100004 11386563
-0.093783543 -0.030222829 0.48075002 11386563
-0.092732154 -0.030222829 0.48075002 11189695
-0.091633081 -0.030207111 0.48050001 11254973
-0.090535104 -0.030191395 0.48025003 11254975
-0.089484803 -0.030191395 0.48025003 11123904
-0.088342436 -0.030159963 0.47975004 11189695
-0.087020293 -0.030065663 0.47825003 11321281
-0.085884482 -0.030034231 0.47775003 11189695
-0.084839649 -0.030034231 0.47775003 11387074
-0.083750963 -0.030018514 0.47750002 11386563
-0.082706682 -0.030018514 0.47750002 11583172
-0.081619628 -0.030002797 0.47725001 11386563
-0.080533691 -0.029987082 0.47700003 11518662
-0.079448834 -0.029971365 0.47675002 11386822
-0.077789463 -0.029735617 0.47300002 11517895
-0.076755017 -0.029735617 0.47300002 11452102
-0.075720571 -0.029735617 0.47300002 11518662
-0.074686125 -0.029735617 0.47300002 11452354
-0.073690616 -0.029751334 0.47325003 11518145
-0.072655626 -0.029751334 0.47325003 11452865
-0.071582794 -0.029735617 0.47300002 11387074
-0.070548348 -0.029735617 0.47300002 11518147
-0.069403678 -0.029688466 0.47225001 11648963
-0.068226099 -0.029625602 0.47125003 11583170
-0.067159832 -0.029609885 0.47100002 11386559
-0.066094659 -0.02959417 0.47075003 11452352
-0.065030582 -0.029578451 0.47050002 11386559
-0.0639676 -0.029562734 0.47025001 11518145
-0.06293916 -0.029562734 0.47025001 11518147
-0.061877821 -0.029547019 0.47000003 11847364
-0.06072047 -0.029484153 0.46900001 11650498
-0.059631135 -0.029452721 0.46850002 11453119
-0.05854398 -0.029421287 0.46800002 11518912
-0.057520472 -0.029421287 0.46800002 11518658
-0.056496963 -0.029421287 0.46800002 11387072
-0.055473451 -0.029421287 0.46800002 11452867
-0.054362681 -0.029374138 0.46725002 11452865
-0.053283732 -0.029342705 0.46675003 11584705
-0.052206971 -0.029311271 0.46625003 11584705
-0.05115984 -0.029295554 0.46600002 11584192
-0.050113805 -0.029279837 0.46575001 11584705
-0.049068861 -0.029264122 0.46550003 11453119
-0.047766954 -0.029091241 0.46275002 11518399
-0.046754923 -0.029091241 0.46275002 11715008
-0.045742895 -0.029091241 0.46275002 11714754
-0.044730864 -0.029091241 0.46275002 11517115
-0.043695223 -0.029075526 0.46250004 11583422
-0.042683739 -0.029075526 0.46250004 11452606
-0.041649733 -0.029059807 0.46225002 11320250
-0.040616818 -0.02904409 0.46200001 11517629
-0.039584998 -0.029028375 0.46175003 11057594
-0.038533386 -0.028996941 0.46125001 10794422
-0.037443284 -0.028934075 0.46025002 10926262
-0.036317971 -0.028839776 0.45875001 10926008
-0.035256956 -0.028792627 0.45800003 10926008
-0.034236617 -0.02877691 0.45775002 10991803
-0.033217371 -0.028761193 0.45750001 11188412
-0.032199223 -0.028745478 0.45725003 11188410
-0.031182161 -0.028729761 0.45700002 10596273
-0.030166199 -0.028714046 0.45675004 11122871
-0.029151326 -0.028698329 0.45650002 10926262
-0.028122131 -0.028666895 0.45600003 10794422
-0.027109992 -0.028651178 0.45575002 10794422
-0.02609895 -0.028635463 0.45550004 10794422
-0.025088999 -0.028619746 0.45525002 11056824
-0.024080142 -0.028604029 0.45500001 10925238
-0.023072381 -0.028588314 0.45475003 10532535
-0.022077847 -0.028588314 0.45475003 10598326
-0.021071723 -0.028572597 0.45450002 10466740
-0.020077737 -0.028572597 0.45450002 10531765
-0.019083751 -0.028572597 0.45450002 10662836
-0.018079815 -0.028556878 0.45425001 10597043
-0.017076973 -0.028541163 0.45400003 10662836
-0.016075224 -0.028525446 0.45375001 10793652
-0.015074568 -0.02850973 0.45350003 10531250
-0.014067242 -0.028478296 0.45300001 10597043
-0.01304767 -0.02841543 0.45200002 10597043
-0.012039142 -0.028368281 0.45125002 10531250
-0.011033894 -0.028321132 0.45050001 10465972
-0.010031927 -0.028273983 0.44975004 10465972
-0.0090433005 -0.028258266 0.44950002 10465457
-0.0080512837 -0.028226834 0.44900003 10268332
-0.0070653898 -0.028211117 0.44875002 10464687
-0.0060805897 -0.0281954 0.44850001 10398894
-0.0050968835 -0.028179685 0.44825003 10595759
-0.0041142702 -0.028163966 0.44800001 10333101
-0.0031344998 -0.028163966 0.44800001 10202285
-0.002153527 -0.028148251 0.44775003 10136492
-0.0011743034 -0.028148251 0.44775003 10201515
-0.00019497079 -0.028132534 0.44750002 10135208
0.00078370614 -0.028132534 0.44750002 10332841
0.0017613985 -0.028116817 0.44725001 10135722
0.0027379973 -0.028101102 0.44700003 9807529
0.0037114248 -0.028069669 0.44650003 9872554
0.0046826648 -0.028038234 0.44600001 10003111
0.0056548901 -0.028022518 0.44575003 9937316
0.0066260211 -0.028006801 0.44550002 10003363
0.0076003242 -0.028006801 0.44550002 9806495
0.0085698161 -0.027991086 0.44525003 9674911
0.0095328549 -0.027959652 0.44475001 9411739
0.010493707 -0.02792822 0.44425002 9543325
0.011452372 -0.027896786 0.44375002 9345946
0.01240885 -0.027865354 0.44325003 9411224
0.013378232 -0.027865354 0.44325003 9476249
0.014331429 -0.02783392 0.44275001 9344663
0.015291079 -0.027818205 0.44250003 9148054
0.016249634 -0.027802488 0.44225001 9082772
0.017207099 -0.027786771 0.44200003 8951186
0.018153187 -0.027755337 0.44150001 8951186
0.019107917 -0.027739622 0.44125003 8688016
0.020061553 -0.027723905 0.44100001 8688016
0.021014096 -0.02770819 0.44075003 8622223
0.021965543 -0.027692473 0.44050002 8556428
0.022915898 -0.027676756 0.44025001 8556428
0.02386516 -0.027661039 0.44000003 8555913
0.024813328 -0.027645322 0.43975002 8490120
0.025745749 -0.027613889 0.43925002 8424329
0.026691183 -0.027598172 0.43900001 8555145
0.027619777 -0.02756674 0.43850002 8620938
0.028562477 -0.027551025 0.43825004 8226950
0.029520927 -0.027551025 0.43825004 8161157
0.030461984 -0.027535308 0.43800002 8095364
0.031401951 -0.027519589 0.43775001 8029571
0.032340825 -0.027503874 0.43750003 8029571
0.033278607 -0.027488157 0.43725002 7963776
0.03421529 -0.02747244 0.43700001 7898749
0.035150886 -0.027456725 0.43675002 8094592
0.03604405 -0.027409576 0.43600002 7962495
0.036955148 -0.027378142 0.43550003 7897215
0.037885819 -0.027362425 0.43525001 7634813
0.038793091 -0.027330993 0.43475002 7634813
0.039721027 -0.027315276 0.43450001 7634043
0.040624473 -0.027283844 0.43400002 7699836
0.041549679 -0.027268127 0.43375003 7567737
0.042449296 -0.027236693 0.43325001 7305848
0.043371763 -0.027220977 0.43300003 7437949
0.044293143 -0.02720526 0.43275002 7371641
0.045213427 -0.027189545 0.43250003 7436664
0.046159301 -0.027189545 0.43250003 7436151
0.047077943 -0.027173828 0.43225002 7501944
0.048023265 -0.027173828 0.43225002 7436151
0.048940271 -0.027158111 0.43200001 7305078
0.049885046 -0.027158111 0.43200001 7305848
0.050800413 -0.027142394 0.43175003 7239283
0.051714681 -0.027126677 0.43150002 7305076
0.052627858 -0.02711096 0.43125001 7370356
0.053539939 -0.027095245 0.43100002 7370869
0.054419328 -0.027063813 0.43050003 7239285
0.055296529 -0.027032379 0.43000001 7240053
0.056204237 -0.027016662 0.42975003 7174513
0.057144094 -0.027016662 0.42975003 7305846
0.058083951 -0.027016662 0.42975003 7240053
0.059023812 -0.027016662 0.42975003 7436662
0.059928786 -0.027000945 0.42950001 7436149
0.060868096 -0.027000945 0.42950001 7370358
0.061807405 -0.027000945 0.42950001 7370358
0.062710196 -0.02698523 0.42925003 7239283
0.063648961 -0.02698523 0.42925003 7042155
0.064550109 -0.026969513 0.42900002 7305329
0.065412 -0.026938081 0.42850003 7042674
0.066271707 -0.026906649 0.42800003 7305076
0.067050703 -0.026843781 0.42700002 7304563
0.06794475 -0.026828066 0.42675003 7370356
0.068837687 -0.026812349 0.42650002 7370609
0.069770448 -0.026812349 0.42650002 7436149
0.070703194 -0.026812349 0.42650002 7238770
0.071593948 -0.026796632 0.42625001 7107184
0.072526149 -0.026796632 0.42625001 7370356
0.073458359 -0.026796632 0.42625001 7107184
0.074434198 -0.026812349 0.42650002 7238770
0.075411126 -0.026828066 0.42675003 7436402
0.076389141 -0.026843781 0.42700002 7371122
0.077322982 -0.026843781 0.42700002 7173490
0.078211017 -0.026828066 0.42675003 7370356
0.079097942 -0.026812349 0.42650002 7041906
0.079983778 -0.026796632 0.42625001 6845810
0.080821067 -0.026765198 0.42575002 7043189
0.081656173 -0.026733765 0.42525002 6976111
0.082537636 -0.026718048 0.42500001 7173490
0.083467104 -0.026718048 0.42500001 6911088
0.084346928 -0.026702333 0.42475003 7041904
0.085275859 -0.026702333 0.42475003 7173490
0.086204782 -0.026702333 0.42475003 6976111
0.087133698 -0.026702333 0.42475003 6911090
0.088114448 -0.026718048 0.42500001 7173492
0.089043923 -0.026718048 0.42500001 7041906
0.08997339 -0.026718048 0.42500001 7041906
0.090902857 -0.026718048 0.42500001 7173492
0.091832325 -0.026718048 0.42500001 7173490
0.0927618 -0.026718048 0.42500001 7041906
0.093691275 -0.026718048 0.42500001 7042674
0.094565086 -0.026702333 0.42475003 7108467
0.095494002 -0.026702333 0.42475003 6910318
0.096479684 -0.026718048 0.42500001 6910318
0.097409151 -0.026718048 0.42500001 6713711
-0.11429113 -0.029581835 0.48750001 11319736
-0.11316691 -0.029566666 0.48725003 11188662
-0.11210131 -0.029566666 0.48725003 11254457
-0.11097872 -0.029551497 0.48700002 11386813
-0.10991365 -0.029551497 0.48700002 11189434
-0.10873684 -0.029521156 0.48650002 11386813
-0.10723023 -0.029399794 0.48450002 11254973
-0.10606107 -0.029369455 0.48400003 11386559
-0.10494833 -0.029354284 0.48375002 11254973
-0.103783 -0.029323943 0.48325002 11254975
-0.10267299 -0.029308774 0.48300001 11254973
-0.10156408 -0.029293604 0.48275003 11189693
-0.10045626 -0.029278433 0.48250002 11518145
-0.099349536 -0.029263264 0.48225003 11123902
-0.098243907 -0.029248092 0.48200002 11254977
-0.097139366 -0.029232921 0.48175001 11386561
-0.096035928 -0.029217754 0.48150003 11386561
-0.094933569 -0.029202582 0.48125002 11386561
-0.093881086 -0.029202582 0.48125002 11386561
-0.092780381 -0.029187413 0.48100004 11386561
-0.091680758 -0.029172242 0.48075002 11386559
-0.090629362 -0.029172242 0.48075002 11386559
-0.089531384 -0.02915707 0.48050001 11452352
-0.088388465 -0.029126732 0.48000002 11517377
-0.087247737 -0.029096391 0.47950003 11254975
-0.085974365 -0.02902054 0.47825003 11189693
-0.08488404 -0.029005369 0.47800002 11386563
-0.083794817 -0.0289902 0.47775003 11452102
-0.082749985 -0.0289902 0.47775003 11386563
-0.081662387 -0.02897503 0.47750002 11387074
-0.080575891 -0.028959859 0.47725001 11190467
-0.079448834 -0.028929519 0.47675002 11387074
-0.077830583 -0.028717138 0.47325003 11518145
-0.076795585 -0.028717138 0.47325003 11648963
-0.075760596 -0.028717138 0.47325003 11648963
-0.074765079 -0.028732305 0.47350001 11387072
-0.073729537 -0.028732305 0.47350001 11649731
-0.072694004 -0.028732305 0.47350001 11452865
-0.071658455 -0.028732305 0.47350001 11387074
-0.070622921 -0.028732305 0.47350001 11387072
-0.069477163 -0.028686795 0.47275001 11518145
-0.068262294 -0.028610945 0.47150001 11452354
-0.067195475 -0.028595775 0.47125003 11452867
-0.066129759 -0.028580604 0.47100002 11518658
-0.065065138 -0.028565435 0.47075003 11452865
-0.064035617 -0.028565435 0.47075003 11717061
-0.062972628 -0.028550265 0.47050002 11651014
-0.06194365 -0.028550265 0.47050002 11519428
-0.060849939 -0.028519925 0.47000003 11190717
-0.059790235 -0.028504753 0.46975002 11190463
-0.058700345 -0.028474415 0.46925002 11453635
-0.057674106 -0.028474415 0.46925002 11452865
-0.056647863 -0.028474415 0.46925002 11452865
-0.055621617 -0.028474415 0.46925002 11518658
-0.054566287 -0.028459243 0.46900001 11584705
-0.053312268 -0.028337881 0.46700001 11848645
-0.052234963 -0.028307542 0.46650001 11650496
-0.051187288 -0.028292373 0.46625003 11782084
-0.050140705 -0.028277202 0.46600002 11650244
-0.049095213 -0.02826203 0.46575001 11649985
-0.048025012 -0.028231692 0.46525002 11584192
-0.046805441 -0.028110329 0.46325001 11518399
-0.045767609 -0.02809516 0.46300003 11452354
-0.044755034 -0.02809516 0.46300003 11517377
-0.043742459 -0.02809516 0.46300003 11583940
-0.04270681 -0.028079988 0.46275002 11452354
-0.04167226 -0.028064821 0.46250004 11386559
-0.040638797 -0.02804965 0.46225002 11123641
-0.03960643 -0.028034478 0.46200001 10991801
-0.038575158 -0.028019309 0.46175003 10860728
-0.037524637 -0.027988968 0.46125001 10992055
-0.03639714 -0.027897948 0.45975003 10926008
-0.03531469 -0.027837265 0.45875001 10992055
-0.034255318 -0.027791757 0.45800003 10992055
-0.033253677 -0.027791757 0.45800003 10992055
-0.03223443 -0.027776586 0.45775002 10662836
-0.031216277 -0.027761415 0.45750001 10728629
-0.03018271 -0.027731076 0.45700002 10991801
-0.029167291 -0.027715907 0.45675004 10794676
-0.028137548 -0.027685564 0.45625001 10926008
-0.027124865 -0.027670395 0.45600003 10794422
-0.026113274 -0.027655225 0.45575002 10794422
-0.025102779 -0.027640056 0.45550004 11056824
-0.024093375 -0.027624885 0.45525002 10794422
-0.023085063 -0.027609713 0.45500001 10400947
-0.022089984 -0.027609713 0.45500001 10401460
-0.021094905 -0.027609713 0.45500001 10597556
-0.020088783 -0.027594544 0.45475003 10662836
-0.019094249 -0.027594544 0.45475003 10663349
-0.018099716 -0.027594544 0.45475003 10597043
-0.01709578 -0.027579373 0.45450002 10662836
-0.016084081 -0.027549034 0.45400003 10662836
-0.015074568 -0.027518693 0.45350003 10400177
-0.014067242 -0.027488353 0.45300001 10531763
-0.013054887 -0.027442843 0.45225003 10727859
-0.012045812 -0.027397333 0.45150003 10531252
-0.011046141 -0.027366992 0.45100003 10400179
-0.010048657 -0.02733665 0.45050001 10334125
-0.0090533597 -0.027306311 0.45000002 10465457
-0.008064732 -0.027291141 0.44975004 10464689
-0.0070771985 -0.02727597 0.44950002 10464689
-0.0060873688 -0.027245631 0.44900003 10464687
-0.0051025688 -0.02723046 0.44875002 10399148
-0.0041165664 -0.02720012 0.44825003 10267562
-0.003136249 -0.02720012 0.44825003 10267308
-0.0021559319 -0.02720012 0.44825003 10464173
-0.0011756148 -0.02720012 0.44825003 10463914
-0.00019518864 -0.027184948 0.44800001 10135462
0.00078458176 -0.027184948 0.44800001 10069669
0.0017623832 -0.02715461 0.44750002 10003876
0.0027395284 -0.027139438 0.44725001 10069669
0.0037155808 -0.027124269 0.44700003 10069415
0.0046905396 -0.027109098 0.44675002 9872036
0.0056644049 -0.027093928 0.44650003 9806757
0.006637176 -0.027078759 0.44625002 9806497
0.0076045897 -0.027048418 0.44575003 9543837
0.0085746273 -0.027033247 0.44550002 9412253
0.0095435716 -0.027018078 0.44525003 9477280
0.010505517 -0.026987737 0.44475001 9411487
0.011465276 -0.026957396 0.44425002 9410972
0.012429846 -0.026942227 0.44400004 9411226
0.013393323 -0.026927056 0.44375002 9475995
0.014347615 -0.026896717 0.44325003 9345433
0.015308357 -0.026881546 0.44300002 8951188
0.016268006 -0.026866375 0.44275001 8820112
0.01721683 -0.026836034 0.44225001 8819600
0.018163467 -0.026805695 0.44175002 8622223
0.019118743 -0.026790524 0.44150001 8687503
0.020072926 -0.026775355 0.44125003 8884882
0.021014096 -0.026745016 0.44075003 8622223
0.021965543 -0.026729845 0.44050002 8424844
0.022928912 -0.026729845 0.44050002 8621708
0.02387872 -0.026714673 0.44025001 8424842
0.024827436 -0.026699504 0.44000003 8359049
0.025775056 -0.026684333 0.43975002 8359049
0.026706384 -0.026653994 0.43925002 8226948
0.027651271 -0.026638823 0.43900001 8226180
0.028595064 -0.026623653 0.43875003 8161157
0.029537765 -0.026608482 0.43850002 8095364
0.030479372 -0.026593313 0.43825004 8029571
0.031419888 -0.026578143 0.43800002 7963778
0.032359306 -0.026562972 0.43775001 7963778
0.033297636 -0.026547803 0.43750003 7832190
0.034234866 -0.026532631 0.43725002 7963776
0.035171006 -0.02651746 0.43700001 7897466
0.03610605 -0.026502293 0.43675002 7831160
0.037061218 -0.026502293 0.43675002 7765627
0.037994623 -0.026487121 0.43650001 7569020
0.038926937 -0.026471952 0.43625003 7503227
0.039789591 -0.026411271 0.43525001 7699836
0.040647876 -0.026350589 0.43425003 7699323
0.041573625 -0.02633542 0.43400002 7502459
0.042473789 -0.026305079 0.43350002 7305850
0.043396804 -0.026289908 0.43325001 7502457
0.044344317 -0.026289908 0.43325001 7502455
0.045265697 -0.026274739 0.43300003 7436664
0.046185981 -0.026259568 0.43275002 7370871
0.047105171 -0.0262444 0.43250003 7240053
0.048051041 -0.0262444 0.43250003 7240055
0.048968591 -0.026229229 0.43225002 7240055
0.049913917 -0.026229229 0.43225002 7239283
0.050829828 -0.026214058 0.43200001 7370869
0.051744644 -0.026198888 0.43175003 7174260
0.052658368 -0.026183717 0.43150002 7174260
0.053570993 -0.026168548 0.43125001 7173490
0.054450925 -0.026138207 0.43075001 7239283
0.055360828 -0.026123038 0.43050003 7436149
0.056269627 -0.026107866 0.43025002 7502195
0.057177335 -0.026092697 0.43000001 7502195
0.058117736 -0.026092697 0.43000001 7239536
0.059058145 -0.026092697 0.43000001 7436400
0.05999855 -0.026092697 0.43000001 7436400
0.060903527 -0.026077528 0.42975003 7370609
0.06184338 -0.026077528 0.42975003 7173490
0.062746719 -0.026062356 0.42950001 7173490
0.063686028 -0.026062356 0.42950001 7370609
0.064587727 -0.026047187 0.42925003 7238770
0.065488324 -0.026032016 0.42900002 7305076
0.066349126 -0.026001677 0.42850003 7370356
0.067207739 -0.025971336 0.42800003 7436149
0.068064153 -0.025940994 0.42750001 7304563
0.068999089 -0.025940994 0.42750001 7304563
0.069893137 -0.025925826 0.42725003 7304563
0.070827529 -0.025925826 0.42725003 7370609
0.071719922 -0.025910655 0.42700002 7370609
0.072653763 -0.025910655 0.42700002 7436402
0.073587611 -0.025910655 0.42700002 7239283
0.074521452 -0.025910655 0.42700002 7239283
0.075499475 -0.025925826 0.42725003 7107184
0.076478586 -0.025940994 0.42750001 7304816
0.077368252 -0.025925826 0.42725003 7239023
0.078302652 -0.025925826 0.42725003 7173743
0.079190671 -0.025910655 0.42700002 6911088
0.080030695 -0.025880314 0.42650002 7174513
0.080868527 -0.025849974 0.42600003 7239283
0.081752181 -0.025834804 0.42575002 7041391
0.08263474 -0.025819633 0.42550001 7239283
0.083565295 -0.025819633 0.42550001 6976111
0.084446222 -0.025804464 0.42525002 7042674
0.08537624 -0.025804464 0.42525002 7041904
0.086407728 -0.025834804 0.42575002 7173492
0.087441407 -0.025865143 0.42625001 7239285
0.088373609 -0.025865143 0.42625001 6910322
0.089201063 -0.025834804 0.42575002 6976113
0.090079241 -0.025819633 0.42550001 7041904
0.090956338 -0.025804464 0.42525002 6976111
0.091886349 -0.025804464 0.42525002 6845297
0.092816368 -0.025804464 0.42525002 6976111
0.093746386 -0.025804464 0.42525002 6713711
0.094676398 -0.025804464 0.42525002 6976111
0.095606416 -0.025804464 0.42525002 6911088
0.096649945 -0.025834804 0.42575002 6647918
0.098669745 -0.026123038 0.43050003 5397851
-0.11446697 -0.02856037 0.48825002 11188662
-0.11328304 -0.028531123 0.48775002 11385527
-0.11215882 -0.028516499 0.48750001 11319996
-0.1110357 -0.028501876 0.48725003 11254973
-0.10997009 -0.028501876 0.48725003 11319998
-0.10884859 -0.02848725 0.48700002 11254975
-0.10767288 -0.028458003 0.48650002 11189695
-0.10617064 -0.028341012 0.48450002 11254973
-0.10500257 -0.028311765 0.48400003 11189180
-0.10389037 -0.028297141 0.48375002 11517375
-0.10277928 -0.028282518 0.48350003 11254973
-0.10161667 -0.028253268 0.48300001 11518145
-0.10050832 -0.028238647 0.48275003 11254975
-0.099401034 -0.028224021 0.48250002 11452354
-0.098294862 -0.028209399 0.48225003 11386561
-0.097189777 -0.028194774 0.48200002 11452354
-0.096085787 -0.02818015 0.48175001 11189695
-0.094982885 -0.028165527 0.48150003 11189695
-0.093929857 -0.028165527 0.48150003 11386561
-0.092828594 -0.028150903 0.48125002 11386561
-0.09177611 -0.028150903 0.48125002 11254975
-0.090676494 -0.028136279 0.48100004 11386561
-0.089577965 -0.028121656 0.48075002 11385789
-0.088434502 -0.028092409 0.48025003 11517375
-0.087338716 -0.028077783 0.48000002 11254975
-0.086199075 -0.028048536 0.47950003 11386561
-0.085061625 -0.028019289 0.47900003 11648451
-0.083926357 -0.027990039 0.47850001 11648963
-0.08279328 -0.027960792 0.47800002 11386561
-0.081662387 -0.027931545 0.47750002 11321283
-0.080618106 -0.027931545 0.47750002 11189695
-0.079490498 -0.027902298 0.47700003 11452352
-0.077871695 -0.027697563 0.47350001 11452606
-0.076836146 -0.027697563 0.47350001 11583938
-0.075840637 -0.027712189 0.47375003 11452867
-0.074804552 -0.027712189 0.47375003 11452867
-0.073768467 -0.027712189 0.47375003 11518660
-0.072770767 -0.027726812 0.47400004 11518660
-0.07173413 -0.027726812 0.47400004 11518145
-0.070660211 -0.027712189 0.47375003 11714754
-0.069624126 -0.027712189 0.47375003 11583940
-0.068334684 -0.027609821 0.47200003 11387844
-0.067231126 -0.027580572 0.47150001 11454150
-0.066164866 -0.027565949 0.47125003 11782602
-0.06513425 -0.027565949 0.47125003 11913416
-0.064069621 -0.027551325 0.47100002 11979209
-0.063006088 -0.027536701 0.47075003 11650244
-0.061976563 -0.027536701 0.47075003 11584451
-0.060914673 -0.027522078 0.47050002 11387842
-0.059853874 -0.027507452 0.47025001 11322049
-0.058794167 -0.027492831 0.47000003 11781830
-0.057766285 -0.027492831 0.47000003 11584451
-0.05670822 -0.027478205 0.46975002 11782084
-0.055680882 -0.027478205 0.46975002 11650498
-0.054624461 -0.027463583 0.46950004 11782084
-0.053569131 -0.027448958 0.46925002 11848645
-0.052262958 -0.02730272 0.46675003 11584705
-0.051214732 -0.027288096 0.46650001 11780547
-0.050167605 -0.027273472 0.46625003 11780801
-0.049095213 -0.027244223 0.46575001 11518399
-0.048050821 -0.027229602 0.46550003 11453119
-0.046881221 -0.027141858 0.46400002 10993084
-0.045817036 -0.027112611 0.46350002 11189693
-0.044803362 -0.027112611 0.46350002 11189182
-0.043766078 -0.027097985 0.46325001 11189695
-0.042752951 -0.027097985 0.46325001 10992314
-0.04171731 -0.027083363 0.46300003 10992316
-0.04066078 -0.027054116 0.46250004 10926523
-0.039627861 -0.027039491 0.46225002 11122617
-0.038575158 -0.027010243 0.46175003 11254457
-0.037524637 -0.026980994 0.46125001 10991801
-0.036476307 -0.026951747 0.46075001 10860728
-0.03539167 -0.026893253 0.45975003 10926521
-0.03431141 -0.026834756 0.45875001 11057594
-0.033271827 -0.026805509 0.45825002 10465457
-0.032252036 -0.026790885 0.45800003 11188664
-0.031233337 -0.026776262 0.45775002 11056824
-0.030215733 -0.026761636 0.45750001 10794676
-0.029183256 -0.026732389 0.45700002 10729396
-0.028168384 -0.026717767 0.45675004 10794676
-0.027139734 -0.026688518 0.45625001 10926262
-0.026127597 -0.026673894 0.45600003 10859447
-0.025116555 -0.026659271 0.45575002 10728631
-0.024106605 -0.026644647 0.45550004 10728629
-0.023097748 -0.026630023 0.45525002 10662838
-0.022102121 -0.026630023 0.45525002 10268080
-0.021106496 -0.026630023 0.45525002 10662068
-0.02011087 -0.026630023 0.45525002 10728629
-0.019115243 -0.026630023 0.45525002 10531765
-0.018109666 -0.026615398 0.45500001 10662838
-0.017105184 -0.026600776 0.45475003 10662840
-0.016092937 -0.026571527 0.45425001 10662068
-0.015082878 -0.02654228 0.45375001 10597297
-0.014075005 -0.026513033 0.45325002 10597043
-0.013062104 -0.02646916 0.45250002 10662068
-0.012052482 -0.026425289 0.45175001 10465459
-0.011052264 -0.026396042 0.45125002 10269361
-0.010059809 -0.026381418 0.45100003 10400177
-0.0090684481 -0.026366794 0.45075002 10202800
-0.0080781803 -0.026352169 0.45050001 10268080
-0.0070929425 -0.026352169 0.45050001 10333101
-0.0061043161 -0.026337547 0.45025003 10202285
-0.0051167822 -0.026322922 0.45000002 10333101
-0.0041257497 -0.026279051 0.44925001 10332841
-0.0031414966 -0.026264427 0.44900003 10267048
-0.0021595391 -0.026264427 0.44900003 10135208
-0.0011775817 -0.026264427 0.44900003 10004136
-0.0001955154 -0.026249804 0.44875002 10004390
0.00078545744 -0.026235178 0.44850001 9938595
0.0017653368 -0.026220556 0.44825003 9938597
0.0027425913 -0.026191309 0.44775003 9938083
0.0037197368 -0.026176684 0.44750002 9806757
0.004695789 -0.02616206 0.44725001 9479075
0.0056675761 -0.026132813 0.44675002 9347489
0.0066408948 -0.026118189 0.44650003 9543837
0.0076131197 -0.026103565 0.44625002 9412251
0.0085842507 -0.02608894 0.44600001 9412253
0.0095489305 -0.026059693 0.44550002 9280667
0.010517328 -0.026045069 0.44525003 9279899
0.01147818 -0.02601582 0.44475001 9345946
0.012443843 -0.026001198 0.44450003 9345431
0.013408414 -0.025986573 0.44425002 9344409
0.014363798 -0.025957325 0.44375002 9016727
0.015325635 -0.025942702 0.44350001 8885909
0.016277192 -0.025913455 0.44300002 8951188
0.017226564 -0.025884207 0.44250003 8688016
0.018184025 -0.025869582 0.44225001 8556430
0.019129569 -0.025840335 0.44175002 8556944
0.020084297 -0.025825711 0.44150001 8425358
0.021026013 -0.025796464 0.44100001 8490637
0.021978009 -0.02578184 0.44075003 8424844
0.022941925 -0.02578184 0.44075003 8227465
0.02389228 -0.025767216 0.44050002 8424331
0.02484154 -0.025752591 0.44025001 8292743
0.02578971 -0.025737969 0.44000003 8227463
0.026736783 -0.025723344 0.43975002 8095362
0.027667018 -0.025694096 0.43925002 8226178
0.028611356 -0.025679473 0.43900001 8291973
0.029554607 -0.025664849 0.43875003 7963008
0.030496757 -0.025650226 0.43850002 8160387
0.031437822 -0.025635602 0.43825004 7963778
0.032377787 -0.025620978 0.43800002 7700606
0.033316661 -0.025606353 0.43775001 7897215
0.034254439 -0.025591731 0.43750003 7831422
0.035191126 -0.025577106 0.43725002 7765627
0.036147386 -0.025577106 0.43725002 7831420
0.037082434 -0.025562482 0.43700001 7371639
0.038038146 -0.025562482 0.43700001 7371639
0.038971554 -0.025547858 0.43675002 7569018
0.03988101 -0.025518611 0.43625003 7371641
0.040764879 -0.02547474 0.43550003 7502457
0.041621521 -0.025416244 0.43450001 7436664
0.042522777 -0.025386997 0.43400002 7305848
0.043446891 -0.025372373 0.43375003 7370871
0.044369906 -0.025357749 0.43350002 7501942
0.04529183 -0.025343124 0.43325001 7436662
0.046239343 -0.025343124 0.43325001 7240053
0.047159627 -0.025328502 0.43300003 7240053
0.048106592 -0.025328502 0.43300003 7108469
0.049025234 -0.025313877 0.43275002 7108469
0.049942788 -0.025299253 0.43250003 7305078
0.050859243 -0.025284629 0.43225002 7240055
0.051774602 -0.025270006 0.43200001 7108467
0.052688878 -0.025255382 0.43175003 7240053
0.053602051 -0.025240757 0.43150002 7173492
0.054482531 -0.025211509 0.43100002 7239285
0.055392977 -0.025196886 0.43075001 7305076
0.056302324 -0.025182262 0.43050003 7239536
0.05721058 -0.025167638 0.43025002 7304816
0.058151528 -0.025167638 0.43025002 7501425
0.059092484 -0.025167638 0.43025002 7567218
0.060033433 -0.025167638 0.43025002 7239536
0.060938954 -0.025153013 0.43000001 7042927
0.061879355 -0.025153013 0.43000001 7108720
0.062783241 -0.025138391 0.42975003 7042674
0.063723102 -0.025138391 0.42975003 7239283
0.064625338 -0.025123766 0.42950001 7173490
0.065526485 -0.025109144 0.42925003 7305076
0.066426545 -0.025094518 0.42900002 7304563
0.067286246 -0.025065271 0.42850003 7369588
0.068183564 -0.025050648 0.42825001 7304565
0.069079794 -0.025036024 0.42800003 7304563
0.070015833 -0.025036024 0.42800003 7304563
0.070910417 -0.0250214 0.42775002 7239283
0.071845897 -0.0250214 0.42775002 7238770
0.072738841 -0.025006775 0.42750001 7304816
0.073673777 -0.025006775 0.42750001 7107437
0.074652351 -0.0250214 0.42775002 7238770
0.075587831 -0.0250214 0.42775002 7107184
0.076523311 -0.0250214 0.42775002 7370356
0.077458799 -0.0250214 0.42775002 7173490
0.078394286 -0.0250214 0.42775002 7174513
0.079283401 -0.025006775 0.42750001 7108467
0.080124512 -0.024977528 0.42700002 7041904
0.08096344 -0.02494828 0.42650002 7173490
0.081848189 -0.024933657 0.42625001 6976113
0.082731843 -0.024919033 0.42600003 7173492
0.083614402 -0.024904409 0.42575002 6911090
0.084545508 -0.024904409 0.42575002 7042676
0.085526817 -0.024919033 0.42600003 7042676
0.086559944 -0.02494828 0.42650002 7041906
0.087543979 -0.024962906 0.42675003 7305078
0.088477276 -0.024962906 0.42675003 6910322
0.089410581 -0.024962906 0.42675003 7173492
0.090185098 -0.024919033 0.42600003 6911090
0.091063276 -0.024904409 0.42575002 6845297
0.09199439 -0.024904409 0.42575002 6911090
0.092925504 -0.024904409 0.42575002 6648431
0.09385661 -0.024904409 0.42575002 6912115
0.094954699 -0.02494828 0.42650002 6910318
0.096168473 -0.0250214 0.42775002 6844525
-0.11476002 -0.027563782 0.48950002 11188662
-0.1135153 -0.027521551 0.48875001 11254457
-0.11227386 -0.027479319 0.48800004 11254457
-0.11114964 -0.027465241 0.48775002 11123900
-0.1100265 -0.027451163 0.48750001 11058877
-0.10890447 -0.027437087 0.48725003 11321279
-0.10778353 -0.027423007 0.48700002 11254973
-0.1066089 -0.027394854 0.48650002 11386559
-0.10505681 -0.027268155 0.48425001 11386561
-0.10394406 -0.027254079 0.48400003 11189693
-0.10283242 -0.027240001 0.48375002 11386559
-0.10172188 -0.027225925 0.48350003 11517375
-0.10066447 -0.027225925 0.48350003 11254975
-0.099658549 -0.027240001 0.48375002 11189695
-0.098804429 -0.027296312 0.48475003 11321279
-0.097744286 -0.027296312 0.48475003 11321281
-0.096684143 -0.027296312 0.48475003 11387076
-0.095476046 -0.027254079 0.48400003 11386561
-0.094027393 -0.027141457 0.48200002 11386561
-0.092925042 -0.02712738 0.48175001 11189695
-0.091823786 -0.027113304 0.48150003 11189695
-0.090723619 -0.027099226 0.48125002 11321281
-0.089577965 -0.02707107 0.48075002 11319996
-0.08848054 -0.027056992 0.48050001 11452352
-0.087384209 -0.027042916 0.48025003 11386561
-0.086288959 -0.027028838 0.48000002 11386561
-0.085239202 -0.027028838 0.48000002 11517377
-0.084145606 -0.02701476 0.47975004 11517377
-0.083053097 -0.027000682 0.47950003 11254977
-0.081747897 -0.026916217 0.47800002 11123904
-0.080660313 -0.026902141 0.47775003 11189443
-0.079573818 -0.026888063 0.47750002 11386563
-0.078077272 -0.02673321 0.47475001 11452869
-0.076917291 -0.026690979 0.47400004 11452615
-0.075880662 -0.026690979 0.47400004 11649481
-0.074883498 -0.026705055 0.47425002 11649735
-0.073846325 -0.026705055 0.47425002 11650246
-0.072809145 -0.026705055 0.47425002 11650244
-0.071771964 -0.026705055 0.47425002 11847110
-0.070734784 -0.026705055 0.47425002 11912905
-0.069697611 -0.026705055 0.47425002 11978698
-0.068624243 -0.026690979 0.47400004 11978696
-0.06726677 -0.02656428 0.47175002 11913416
-0.066199958 -0.026550202 0.47150001 11913416
-0.065168798 -0.026550202 0.47150001 11847877
-0.064103633 -0.026536126 0.47125003 11453635
-0.063073009 -0.026536126 0.47125003 11716809
-0.062009476 -0.026522046 0.47100002 11322049
-0.060947042 -0.02650797 0.47075003 11518912
-0.059885696 -0.026493892 0.47050002 11781830
-0.058825441 -0.026479814 0.47025001 11782600
-0.057797011 -0.026479814 0.47025001 11452865
-0.056738403 -0.026465738 0.47000003 11057848
-0.055710517 -0.026465738 0.47000003 10992053
-0.054653548 -0.026451658 0.46975002 11321533
-0.053626206 -0.026451658 0.46975002 10992568
-0.052262958 -0.02628273 0.46675003 11189434
-0.051214732 -0.026268652 0.46650001 11254975
-0.050167605 -0.026254576 0.46625003 11189180
-0.049121566 -0.026240496 0.46600002 11190463
-0.048076626 -0.026226418 0.46575001 10927291
-0.046982259 -0.026184188 0.46500003 10927293
-0.045891173 -0.026141955 0.46425003 10927291
-0.044851694 -0.026127877 0.46400002 11123900
-0.043813318 -0.026113801 0.46375003 11123387
-0.042776026 -0.026099721 0.46350002 11057596
-0.041739833 -0.026085643 0.46325001 10991803
-0.040682755 -0.026057489 0.46275002 11057594
-0.039627861 -0.026029333 0.46225002 11122871
-0.038575158 -0.02600118 0.46175003 11122871
-0.037524637 -0.025973024 0.46125001 11122871
-0.036476307 -0.025944868 0.46075001 11254457
-0.035430159 -0.025916714 0.46025002 11057078
-0.034386206 -0.025888558 0.45975003 11253689
-0.033326279 -0.025846327 0.45900002 11056826
-0.032287247 -0.025818171 0.45850003 10926010
-0.031250395 -0.025790017 0.45800003 11056826
-0.030232243 -0.025775939 0.45775002 11122617
-0.02919922 -0.025747783 0.45725003 10925492
-0.028168384 -0.02571963 0.45675004 10925492
-0.027154606 -0.025705552 0.45650002 10925238
-0.026127597 -0.025677396 0.45600003 10794424
-0.025116555 -0.025663318 0.45575002 10729144
-0.024119835 -0.025663318 0.45575002 10729144
-0.023110433 -0.025649242 0.45550004 10663351
-0.02211426 -0.025649242 0.45550004 10663353
-0.021129677 -0.025663318 0.45575002 10597560
-0.020132957 -0.025663318 0.45575002 10727861
-0.019136237 -0.025663318 0.45575002 10793654
-0.018129569 -0.025649242 0.45550004 10662840
-0.017114587 -0.025621086 0.45500001 10597047
-0.016101794 -0.025592931 0.45450002 10597043
-0.015091188 -0.025564777 0.45400003 10662320
-0.014082769 -0.025536621 0.45350003 10727859
-0.01306932 -0.025494389 0.45275003 10727345
-0.012059152 -0.025452156 0.45200002 10596275
-0.011058387 -0.025424002 0.45150003 10201517
-0.010065386 -0.025409922 0.45125002 10202800
-0.0090734782 -0.025395846 0.45100003 10006189
-0.008087147 -0.025395846 0.45100003 10400179
-0.0070968792 -0.025381768 0.45075002 10267310
-0.0061110947 -0.025381768 0.45075002 10202287
-0.0051253103 -0.025381768 0.45075002 10398894
-0.0041372292 -0.02536769 0.45050001 10464427
-0.0031502424 -0.025353614 0.45025003 10332587
-0.0021643487 -0.025339535 0.45000002 10332841
-0.0011795488 -0.025325458 0.44975004 10135462
-0.00019573324 -0.025297303 0.44925001 9807781
0.00078633311 -0.025283227 0.44900003 9938343
0.001767306 -0.025269147 0.44875002 9740964
0.002745654 -0.025240993 0.44825003 10069415
0.0037218151 -0.025212839 0.44775003 9740964
0.0046984139 -0.02519876 0.44750002 9675941
0.0056739189 -0.025184682 0.44725001 9412769
0.0066483314 -0.025170606 0.44700003 9543585
0.0076173847 -0.025142452 0.44650003 9412253
0.0085890628 -0.025128372 0.44625002 9215644
0.0095542893 -0.025100218 0.44575003 9149851
0.010523234 -0.02508614 0.44550002 9017495
0.011491084 -0.025072064 0.44525003 9280153
0.012457841 -0.025057985 0.44500002 9345946
0.013423504 -0.025043907 0.44475001 9082774
0.014379983 -0.025015753 0.44425002 9016981
0.015334275 -0.024987597 0.44375002 8951188
0.016286379 -0.024959443 0.44325003 8819600
0.017246028 -0.024945365 0.44300002 8819598
0.018194305 -0.02491721 0.44250003 8622221
0.01915122 -0.024903132 0.44225001 8555917
0.020095671 -0.024874978 0.44175002 8686731
0.021037934 -0.024846822 0.44125003 8424327
0.021990476 -0.024832744 0.44100001 8424840
0.022954937 -0.024832744 0.44100001 8359049
0.02390584 -0.024818668 0.44075003 8161670
0.024869755 -0.024818668 0.44075003 8161672
0.025819015 -0.02480459 0.44050002 8161157
0.026767183 -0.024790512 0.44025001 8291973
0.027698511 -0.024762357 0.43975002 8095364
0.028627651 -0.024734203 0.43925002 8226180
0.029571446 -0.024720125 0.43900001 8028288
0.030514145 -0.024706047 0.43875003 8028286
0.031455755 -0.024691969 0.43850002 7832190
0.032396268 -0.024677893 0.43825004 7766912
0.033335689 -0.024663815 0.43800002 7634815
0.034274012 -0.024649737 0.43775001 7700608
0.035231367 -0.024649737 0.43775001 7503229
0.036168054 -0.02463566 0.43750003 7569022
0.037103649 -0.024621582 0.43725002 7502457
0.038059905 -0.024621582 0.43725002 7305848
0.038993858 -0.024607504 0.43700001 7371641
0.039903864 -0.02457935 0.43650001 7305848
0.040811684 -0.024551194 0.43600002 7436664
0.041693363 -0.024508962 0.43525001 7240053
0.042571768 -0.024466729 0.43450001 7305846
0.04349697 -0.024452653 0.43425003 7370869
0.044421084 -0.024438573 0.43400002 7370356
0.045344103 -0.024424497 0.43375003 7501942
0.046266027 -0.024410419 0.43350002 7239285
0.047214083 -0.024410419 0.43350002 7240053
0.048134364 -0.024396341 0.43325001 7174260
0.049053557 -0.024382265 0.43300003 7305076
0.049971651 -0.024368186 0.43275002 7108467
0.050888661 -0.02435411 0.43250003 7108467
0.051804569 -0.024340032 0.43225002 7108720
0.052719384 -0.024325954 0.43200001 7173490
0.053602051 -0.024297798 0.43150002 7305076
0.054514129 -0.02428372 0.43125001 7305076
0.055425126 -0.024269644 0.43100002 7173490
0.056335021 -0.024255566 0.43075001 7174513
0.057243824 -0.02424149 0.43050003 7304563
0.05818532 -0.02424149 0.43050003 7370609
0.05912682 -0.02424149 0.43050003 7239536
0.060068317 -0.02424149 0.43050003 7305076
0.060974386 -0.024227411 0.43025002 7173490
0.061915334 -0.024227411 0.43025002 7041904
0.062819764 -0.024213333 0.43000001 7173490
0.063760169 -0.024213333 0.43000001 7107184
0.064662956 -0.024199257 0.42975003 7239023
0.065564647 -0.024185179 0.42950001 7042157
0.066465259 -0.024171103 0.42925003 7041904
0.06736476 -0.024157023 0.42900002 7041906
0.068263173 -0.024142945 0.42875001 7239283
0.069160491 -0.024128869 0.42850003 7108467
0.070056722 -0.024114791 0.42825001 7042674
0.070993297 -0.024114791 0.42825001 6911088
0.071929872 -0.024114791 0.42825001 7108467
0.072823919 -0.024100715 0.42800003 7108467
0.073759951 -0.024100715 0.42800003 7042674
0.074739613 -0.024114791 0.42825001 7042674
0.075676188 -0.024114791 0.42825001 6911088
0.076612763 -0.024114791 0.42825001 7042674
0.077504069 -0.024100715 0.42800003 6976111
0.078440107 -0.024100715 0.42800003 6976364
0.079329766 -0.024086636 0.42775002 6911088
0.080218337 -0.024072558 0.42750001 7041904
0.081058361 -0.024044404 0.42700002 6911090
0.081896201 -0.024016248 0.42650002 7041904
0.082780391 -0.02400217 0.42625001 6911090
0.083712593 -0.02400217 0.42625001 6911090
0.084644794 -0.02400217 0.42625001 7042676
0.085627198 -0.024016248 0.42650002 6911088
0.08661069 -0.024030328 0.42675003 6845295
0.087595262 -0.024044404 0.42700002 6976364
0.08852911 -0.024044404 0.42700002 7041904
0.089515336 -0.024058482 0.42725003 7041906
0.090449728 -0.024058482 0.42725003 6911090
0.091277175 -0.024030328 0.42675003 7041906
0.092156447 -0.024016248 0.42650002 6911090
0.093198329 -0.024044404 0.42700002 6714224
0.094573073 -0.024157023 0.42900002 6715508
0.095622607 -0.024185179 0.42950001 6583150
-0.11374755 -0.026507607 0.48975003 11189434
-0.11256145 -0.026480544 0.48925003 11255227
-0.11126358 -0.02642642 0.48825002 11123902
-0.11008293 -0.026399357 0.48775002 10993084
-0.10896035 -0.026385825 0.48750001 11058877
-0.10783887 -0.026372295 0.48725003 11189693
-0.10671847 -0.026358763 0.48700002 11189693
-0.10559918 -0.026345233 0.48675004 11321279
-0.10410514 -0.026236983 0.48475003 11254975
-0.10288557 -0.02619639 0.48400003 11254973
-0.10187966 -0.026209921 0.48425001 11386559
-0.10087267 -0.026223451 0.48450002 11387072
-0.099916063 -0.026250513 0.48500001 11058879
-0.098906338 -0.026264045 0.48525003 11321281
-0.097794689 -0.026250513 0.48500001 11386561
-0.096684143 -0.026236983 0.48475003 11386559
-0.095574677 -0.026223451 0.48450002 11386559
-0.094368778 -0.026182858 0.48375002 11254973
-0.09306971 -0.026115201 0.48250002 11386559
-0.091919139 -0.026088139 0.48200002 11452352
-0.090770751 -0.026061079 0.48150003 11189182
-0.089624554 -0.026034016 0.48100004 11386561
-0.08848054 -0.026006952 0.48050001 11189182
-0.087384209 -0.025993422 0.48025003 11385791
-0.086333901 -0.025993422 0.48025003 11254975
-0.085239202 -0.02597989 0.48000002 11517377
-0.084189452 -0.02597989 0.48000002 11648449
-0.0830964 -0.025966359 0.47975004 11516863
-0.081961676 -0.025939297 0.47925001 11386559
-0.080702521 -0.02587164 0.47800002 11321279
-0.079573818 -0.025844578 0.47750002 11453639
-0.078488417 -0.025831046 0.47725001 11452615
-0.077038988 -0.025695734 0.47475001 11715528
-0.07600072 -0.025695734 0.47475001 11780551
-0.074962452 -0.025695734 0.47475001 11977416
-0.073924176 -0.025695734 0.47475001 12043721
-0.072885908 -0.025695734 0.47475001 11912905
-0.071809798 -0.025682205 0.47450003 11913416
-0.070772074 -0.025682205 0.47450003 11781832
-0.06973435 -0.025682205 0.47450003 11913418
-0.068660431 -0.025668673 0.47425002 11913416
-0.06762325 -0.025668673 0.47425002 11913416
-0.066235065 -0.025533361 0.47175002 11519430
-0.065203354 -0.025533361 0.47175002 11585734
-0.064137638 -0.025519829 0.47150001 11323330
-0.063106462 -0.025519829 0.47150001 11322564
-0.062042389 -0.025506299 0.47125003 11780549
-0.060979407 -0.025492767 0.47100002 11847110
-0.059917517 -0.025479237 0.47075003 11847623
-0.058887988 -0.025479237 0.47075003 11847623
-0.057827737 -0.025465705 0.47050002 11123900
-0.056798764 -0.025465705 0.47050002 11584703
-0.055740148 -0.025452172 0.47025001 11518910
-0.054682635 -0.025438642 0.47000003 11649985
-0.053654749 -0.025438642 0.47000003 11583422
-0.052318942 -0.0252898 0.46725002 11189182
-0.05124218 -0.025262738 0.46675003 10992318
-0.050194502 -0.025249206 0.46650001 10860728
-0.049147919 -0.025235675 0.46625003 10992314
