# .PCD v0.7 - Point Cloud Data file format
VERSION 0.7
FIELDS x y z rgb
SIZE 4 4 4 4
TYPE F F F U
COUNT 1 1 1 1
WIDTH 1113
HEIGHT 1
VIEWPOINT 0 0 0 1 0 0 0
POINTS 1113
DATA ascii
-0.027118606 -0.016081175 0.5345 7766397
-0.025937526 -0.016073653 0.53425002 7701119
-0.024769127 -0.016073653 0.53425002 7766399
-0.023600729 -0.016073653 0.53425002 7897215
-0.022421835 -0.016066132 0.53400004 7963006
-0.021253983 -0.016066132 0.53400004 7701117
-0.020086132 -0.016066132 0.53400004 7766912
-0.01891828 -0.016066132 0.53400004 7701119
-0.017742118 -0.016058611 0.53375 7701119
-0.01656705 -0.016051089 0.53350002 7635324
-0.015393076 -0.016043568 0.53325003 7701117
-0.014226865 -0.016043568 0.53325003 7766397
-0.013060654 -0.016043568 0.53325003 7700604
-0.011894442 -0.016043568 0.53325003 7766910
-0.010733261 -0.016051089 0.53350002 7635326
-0.0095665026 -0.016051089 0.53350002 7569533
-0.0083997445 -0.016051089 0.53350002 7569531
-0.0072329873 -0.016051089 0.53350002 7372919
-0.0060690716 -0.016058611 0.53375 7700857
-0.0049017672 -0.016058611 0.53375 7700087
-0.0037362119 -0.016066132 0.53400004 7569271
-0.0025671578 -0.016058611 0.53375 7371639
-0.0013998535 -0.016058611 0.53375 7371639
-0.00023244004 -0.016051089 0.53350002 7569271
0.00093387999 -0.016043568 0.53325003 7503478
0.0020991068 -0.016036047 0.53300005 7306099
0.0032632393 -0.016028523 0.53275001 7240306
0.0044262791 -0.016021002 0.53250003 7108718
0.0056275972 -0.016126305 0.53600001 6252893
0.0068410528 -0.016224086 0.53925002 5726036
0.0080835968 -0.016351953 0.54350001 6581606
0.009357526 -0.016502384 0.5485 6054749
0.034250226 -0.019796845 0.65800005 856079
0.035445187 -0.019661456 0.65350002 395530
0.036860276 -0.019653935 0.65325004 526346
0.038274273 -0.019646414 0.65300006 394758
0.039702378 -0.019646414 0.65300006 592907
0.041114733 -0.01963889 0.65275002 856081
0.045553882 -0.019706586 0.65500003 855309
0.047004294 -0.019714106 0.65525001 856079
0.048418835 -0.019706586 0.65500003 855309
0.049851313 -0.019706586 0.65500003 1052431
0.051283788 -0.019706586 0.65500003 1052431
0.05269615 -0.019699065 0.65475005 986895
0.054066073 -0.019676499 0.65400004 856079
0.055390291 -0.01963889 0.65275002 724746
0.056774329 -0.01962385 0.65225005 922125
0.058178481 -0.019616326 0.65200001 987148
0.05955869 -0.019601284 0.65150005 1052688
0.060936708 -0.019586239 0.65100002 987148
0.06233649 -0.01957872 0.65075004 1250063
0.063710682 -0.019563675 0.65025002 1118477
0.065057643 -0.019541109 0.64950001 855562
0.066426925 -0.019526068 0.64900005 856079
0.067820139 -0.019518545 0.64875001 987148
0.069212265 -0.019511024 0.64850003 1118477
0.070630528 -0.019511024 0.64850003 855562
0.072021015 -0.019503502 0.64825004 986895
0.073438726 -0.019503502 0.64825004 986895
0.074856438 -0.019503502 0.64825004 855562
0.076274157 -0.019503502 0.64825004 987148
0.077691868 -0.019503502 0.64825004 986895
0.079079077 -0.019495981 0.648 856332
0.080465183 -0.019488459 0.64775002 987148
0.081881806 -0.019488459 0.64775002 1052941
0.083266288 -0.019480938 0.64750004 855562
0.084649667 -0.019473417 0.64725006 856079
0.086031944 -0.019465894 0.64700001 856079
0.087413132 -0.019458372 0.64675003 1052941
0.08879324 -0.019450853 0.64650005 1052941
0.090172239 -0.019443329 0.64625001 1118477
0.091550149 -0.019435808 0.64600003 1052684
0.092926964 -0.019428287 0.64575005 987148
0.094302692 -0.019420763 0.6455 987148
0.095677324 -0.019413244 0.64525002 855560
0.097050861 -0.019405723 0.64500004 856079
0.098461464 -0.019405723 0.64500004 724493
0.099833369 -0.019398201 0.64475006 986895
0.10120416 -0.019390678 0.64450002 855562
0.10261368 -0.019390678 0.64450002 986895
0.10398284 -0.019383157 0.64425004 724493
0.10535092 -0.019375635 0.64400005 986895
0.10671789 -0.019368114 0.64375001 987148
0.10808377 -0.019360593 0.64350003 987148
0.10944856 -0.019353071 0.64325005 1052941
0.11076917 -0.019338027 0.64275002 855562
0.11208759 -0.019322984 0.64225 1052688
0.11344801 -0.019315463 0.64200002 987148
0.11476261 -0.01930042 0.64150006 987148
0.11616556 -0.01930042 0.64150006 986895
0.11756852 -0.01930042 0.64150006 987148
0.11897147 -0.01930042 0.64150006 987148
0.12037443 -0.01930042 0.64150006 1184268
0.12177737 -0.01930042 0.64150006 987146
0.12313232 -0.019292897 0.64125001 1052941
0.12448618 -0.019285377 0.64100003 987148
0.12583894 -0.019277856 0.64075005 921872
0.12714095 -0.019262811 0.64025003 1052688
0.12849098 -0.01925529 0.64000005 987148
0.12983991 -0.019247767 0.63975 856079
0.13118775 -0.019240247 0.63950002 986895
0.13248268 -0.019225204 0.63900006 1118734
0.13388017 -0.019225204 0.63900006 1184274
0.13527764 -0.019225204 0.63900006 987148
0.13667513 -0.019225204 0.63900006 1184270
0.13812663 -0.019232726 0.63925004 1184274
0.13957924 -0.019240247 0.63950002 1118481
0.14243203 -0.019247767 0.63975 1052688
0.14651483 -0.019232726 0.63925004 1184017
0.14785501 -0.019225204 0.63900006 1052688
0.14878534 -0.01916503 0.63700002 856079
0.19508642 -0.015441841 0.51325005 4802889
0.19611329 -0.015434318 0.51300001 4474175
0.1971391 -0.015426797 0.51275003 3750706
0.19826049 -0.015426797 0.51275003 6382426
0.19928466 -0.015419275 0.51250005 7500653
0.20011221 -0.01539671 0.51175004 6975851
0.20093648 -0.015374145 0.51100004 6975079
0.20185633 -0.015359102 0.51050001 6842720
0.20287339 -0.01535158 0.51025003 7698029
0.2039893 -0.01535158 0.51025003 7434855
0.20500472 -0.01534406 0.51000005 7435882
0.20601903 -0.015336537 0.50975001 7501677
0.20703226 -0.015329015 0.50950003 7566448
0.20804441 -0.015321495 0.50925004 7501172
0.20915812 -0.015321495 0.50925004 7567218
0.21016861 -0.015313972 0.509 7501425
0.21117803 -0.015306451 0.50875002 7501425
0.21218635 -0.01529893 0.50850004 7633011
0.21319354 -0.015291407 0.50825 7567218
0.21419968 -0.015283886 0.50800002 7829620
0.2152047 -0.015276365 0.50775003 7829620
0.21610212 -0.015261321 0.50725001 7631988
0.21699739 -0.015246279 0.50675005 7501172
0.21810564 -0.015246279 0.50675005 7830390
0.2192139 -0.015246279 0.50675005 7633011
0.22043085 -0.0152538 0.50700003 7633011
0.22153965 -0.0152538 0.50700003 7633009
0.22275822 -0.015261321 0.50725001 7698804
0.22397792 -0.015268844 0.50750005 7632758
0.22508782 -0.015268844 0.50750005 7633011
0.22619772 -0.015268844 0.50750005 7567988
0.22719562 -0.015261321 0.50725001 7567216
0.22807996 -0.015246279 0.50675005 7829618
0.22896206 -0.015231235 0.50625002 7829620
0.22995561 -0.015223714 0.50600004 7830390
0.23094805 -0.015216191 0.50575 7763825
0.23205411 -0.015216191 0.50575 7961204
0.23316018 -0.015216191 0.50575 7763825
0.23438208 -0.015223714 0.50600004 7633011
0.23560503 -0.015231235 0.50625002 7698804
0.23682909 -0.015238756 0.50650001 7698804
0.23805426 -0.015246279 0.50675005 7829618
0.23928049 -0.0152538 0.50700003 7763827
0.24062636 -0.015268844 0.50750005 7829620
0.24173626 -0.015268844 0.50750005 8026740
0.24284616 -0.015268844 0.50750005 8026742
0.24395606 -0.015268844 0.50750005 8026742
0.24361727 -0.015178584 0.50450003 7763827
0.24459936 -0.015171063 0.50425005 7961206
0.24570215 -0.015171063 0.50425005 8026740
0.24668255 -0.01516354 0.50400001 7829361
0.24778479 -0.01516354 0.50400001 7763825
0.24888703 -0.01516354 0.50400001 7961204
0.24998927 -0.01516354 0.50400001 7567218
0.25109151 -0.01516354 0.50400001 7502195
0.25219378 -0.01516354 0.50400001 7567216
0.25329599 -0.01516354 0.50400001 7829872
0.25427207 -0.015156019 0.50375003 7698286
0.25537375 -0.015156019 0.50375003 7633009
0.25634819 -0.015148498 0.50350004 7633009
0.2574493 -0.015148498 0.50350004 7633009
0.25842208 -0.015140975 0.50325 7763825
0.25952268 -0.015140975 0.50325 7764079
0.26062328 -0.015140975 0.50325 7698802
0.26159388 -0.015133454 0.50300002 7895156
0.26256338 -0.015125933 0.50275004 7698034
0.26366287 -0.015125933 0.50275004 7567218
0.26476237 -0.015125933 0.50275004 7501425
0.2659941 -0.015133454 0.50300002 7567218
0.26709417 -0.015133454 0.50300002 7502195
0.2681942 -0.015133454 0.50300002 7501423
0.26929426 -0.015133454 0.50300002 7567216
0.2703943 -0.015133454 0.50300002 7436400
0.27135944 -0.015125933 0.50275004 7370607
0.27232343 -0.01511841 0.5025 7501423
0.27315035 -0.015103368 0.50200003 7698032
0.27411163 -0.015095847 0.50175005 7698032
0.27520898 -0.015095847 0.50175005 7501423
0.2763063 -0.015095847 0.50175005 7436400
0.27740362 -0.015095847 0.50175005 7436400
0.27850094 -0.015095847 0.50175005 7304816
0.27973756 -0.015103368 0.50200003 7304816
0.28083545 -0.015103368 0.50200003 7370609
0.28207368 -0.015110889 0.50225002 7501423
0.2831721 -0.015110889 0.50225002 7632493
0.28427052 -0.015110889 0.50225002 7698029
0.28536895 -0.015110889 0.50225002 7828591
0.28632477 -0.015103368 0.50200003 7828078
0.28727952 -0.015095847 0.50175005 7697259
0.28780207 -0.015065759 0.50075001 7632241
0.28875297 -0.015058238 0.50050002 7435632
0.28984755 -0.015058238 0.50050002 7435630
0.29108745 -0.015065759 0.50075001 7107689
0.29232851 -0.015073283 0.50100005 7041642
0.29357061 -0.015080803 0.50125003 7172458
0.29496077 -0.015095847 0.50175005 7238253
0.29605809 -0.015095847 0.50175005 7500653
0.29730344 -0.015103368 0.50200003 7369067
0.29840133 -0.015103368 0.50200003 7303276
0.30252859 -0.015035673 0.49975002 7500655
0.30362153 -0.015035673 0.49975002 7303276
0.3047145 -0.015035673 0.49975002 7500655
0.30596039 -0.015043194 0.5 7566446
0.30705389 -0.015043194 0.5 7303274
0.30814737 -0.015043194 0.5 7369837
0.30924088 -0.015043194 0.5 7567216
0.31033438 -0.015043194 0.5 7698032
0.31142786 -0.015043194 0.5 7566446
0.31252137 -0.015043194 0.5 7631982
0.31361485 -0.015043194 0.5 7698032
0.31470835 -0.015043194 0.5 7435632
0.31580183 -0.015043194 0.5 7631984
0.31673691 -0.015035673 0.49975002 7763568
0.31782982 -0.015035673 0.49975002 7631982
0.31876326 -0.015028153 0.49950004 7829361
0.31985566 -0.015028153 0.49950004 7697775
0.32401508 -0.01496798 0.49750003 7828078
0.32602721 -0.014960458 0.49725002 7894384
0.32727915 -0.01496798 0.49750003 7762798
0.3286972 -0.014983023 0.49800003 7632239
0.33011743 -0.014998065 0.49850002 7566446
0.33137375 -0.015005588 0.49875003 7566446
0.3327978 -0.01502063 0.49925002 7434603
0.33405688 -0.015028153 0.49950004 7631982
0.33531699 -0.015035673 0.49975002 7828591
0.33640996 -0.015035673 0.49975002 7500653
0.33733407 -0.015028153 0.49950004 7370091
0.33825707 -0.01502063 0.49925002 7238505
-0.27185628 -0.016984785 0.60875005 7831160
-0.27041385 -0.016977808 0.6085 7896953
-0.26908305 -0.016977808 0.6085 7699834
-0.26775229 -0.016977808 0.6085 7765627
-0.26499853 -0.01688713 0.60525 7831420
-0.26356596 -0.016880155 0.60500002 7896953
-0.2547206 -0.016733674 0.59975004 7896951
-0.25340894 -0.016733674 0.59975004 8093562
-0.249474 -0.016733674 0.59975004 7896953
-0.23298839 -0.016587192 0.59450001 7962746
-0.23159079 -0.016580218 0.59425002 8027769
-0.23009741 -0.016566267 0.59375 8224125
-0.2285099 -0.016545342 0.59300005 8158585
-0.2222867 -0.016468614 0.59025002 8027769
-0.22080864 -0.016454665 0.58975005 7896953
-0.2192397 -0.016433738 0.58900005 7897213
-0.21776654 -0.016419787 0.58850002 7896953
-0.21638754 -0.016412811 0.58825004 8159355
-0.20716096 -0.016294234 0.58400005 7897213
-0.20579562 -0.016287256 0.58375001 8028539
-0.20306824 -0.016273307 0.58325005 8160125
-0.20170616 -0.016266331 0.583 8159355
-0.20043115 -0.016266331 0.583 8159355
-0.19907074 -0.016259355 0.58275002 8093560
-0.19694774 -0.016189603 0.58025002 8093562
-0.19567874 -0.016189603 0.58025002 7962744
-0.19432598 -0.016182628 0.58000004 8159353
-0.1929743 -0.016175652 0.57975 7962744
-0.19087972 -0.0161059 0.57725 7896953
-0.18928879 -0.016077999 0.57625002 7962744
-0.18713123 -0.016001271 0.57350004 7962746
-0.185877 -0.016001271 0.57350004 8159355
-0.18454228 -0.015994297 0.57325006 8028539
-0.18328859 -0.015994297 0.57325006 7896953
-0.18203491 -0.015994297 0.57325006 7896953
-0.18086006 -0.016001271 0.57350004 8160125
-0.17960581 -0.016001271 0.57350004 8159355
-0.17702988 -0.015882691 0.56925005 8159355
-0.17570771 -0.015875716 0.56900001 8160123
-0.17446332 -0.015875716 0.56900001 7963257
-0.17314284 -0.01586874 0.56875002 8160125
-0.17189898 -0.01586874 0.56875002 8159872
-0.17065513 -0.01586874 0.56875002 8028539
-0.16948575 -0.015875716 0.56900001 8028539
-0.16824135 -0.015875716 0.56900001 7963006
-0.16699694 -0.015875716 0.56900001 8094592
-0.1656069 -0.015861766 0.56850004 8028539
-0.16392992 -0.015819915 0.56700003 7962744
-0.16254644 -0.015805963 0.56650001 7963259
-0.16116515 -0.015792014 0.56600004 8094845
-0.15978603 -0.015778063 0.56550002 8028539
-0.1584792 -0.015771087 0.56525004 7963259
-0.15717345 -0.015764112 0.565 8094843
-0.15586881 -0.015757136 0.56475002 8290939
-0.1544968 -0.015743187 0.56425005 8290941
-0.15285537 -0.015701335 0.56275004 8225918
-0.15148991 -0.015687384 0.56225002 8160125
-0.15012667 -0.015673434 0.56175005 8290941
-0.14876559 -0.015659483 0.56125003 8028539
-0.14747243 -0.015652508 0.56100005 8094843
-0.14611518 -0.015638556 0.56050003 7963257
-0.14476012 -0.015624606 0.56 8160636
-0.14340726 -0.015610656 0.55950004 8160636
-0.14205655 -0.015596705 0.55900002 8094845
-0.14077106 -0.01558973 0.55875003 7963259
-0.13948664 -0.015582755 0.55850005 8094845
-0.13826522 -0.015582755 0.55850005 7963006
-0.13692109 -0.015568804 0.55800003 8225918
-0.13563995 -0.015561829 0.55775005 8160125
-0.13423941 -0.015540903 0.55700004 8225918
-0.13290185 -0.015526952 0.55650002 8160385
-0.13162564 -0.015519978 0.55625004 8160385
-0.13029189 -0.015506026 0.55575001 8226431
-0.12896036 -0.015492077 0.55525005 8160638
-0.12751594 -0.015464175 0.55425 8094845
-0.12624684 -0.0154572 0.55400002 8160638
-0.12497883 -0.015450225 0.55375004 8094845
-0.1237119 -0.015443249 0.5535 8160385
-0.12244608 -0.015436274 0.55325001 8160638
-0.12112657 -0.015422324 0.55275005 8226431
-0.119755 -0.015401398 0.55200005 8226431
-0.11838671 -0.015380472 0.55125004 8029822
-0.11707484 -0.015366521 0.55075002 8095615
-0.11576518 -0.015352571 0.55025005 8225665
-0.11445768 -0.01533862 0.54975003 8291458
-0.11315237 -0.015324669 0.54925001 8225918
-0.11184926 -0.01531072 0.54875004 8160638
-0.11059874 -0.015303743 0.5485 8226431
-0.10934932 -0.015296768 0.54825002 8226429
-0.10810098 -0.015289794 0.54800004 8161406
-0.10680497 -0.015275843 0.54750001 8030335
-0.10546293 -0.015254917 0.54675001 8161155
-0.10421953 -0.015247942 0.54650003 8160385
-0.1029772 -0.015240967 0.54625005 8226178
-0.10178256 -0.015240967 0.54625005 8226180
-0.10058792 -0.015240967 0.54625005 8161155
-0.099393286 -0.015240967 0.54625005 7700604
-0.098153688 -0.015233991 0.546 8555143
-0.096959591 -0.015233991 0.546 10661542
-0.095721655 -0.015227016 0.54575002 11451569
-0.094441496 -0.015213065 0.54525 11254192
-0.093206286 -0.01520609 0.54500002 11319734
-0.091972172 -0.015199115 0.54475003 11320250
-0.090780817 -0.015199115 0.54475003 11320250
-0.089548342 -0.01519214 0.54450005 11320248
-0.088357523 -0.01519214 0.54450005 11123637
-0.08712668 -0.015185164 0.54425001 11123890
-0.085936412 -0.015185164 0.54425001 10859434
-0.084707223 -0.015178189 0.54400003 8951184
-0.083479129 -0.015171214 0.54375005 8359051
-0.082252108 -0.015164237 0.54350001 8292745
-0.081026196 -0.015157263 0.54325002 8226952
-0.079801373 -0.015150288 0.54300004 8161155
-0.07854145 -0.015136337 0.54250002 8161155
-0.077355005 -0.015136337 0.54250002 8095362
-0.076133467 -0.015129362 0.54225004 8095615
-0.074947573 -0.015129362 0.54225004 8226431
-0.073761687 -0.015129362 0.54225004 8226431
-0.072542325 -0.015122388 0.54200006 8029569
-0.071324065 -0.015115411 0.54175001 8029822
-0.070074536 -0.015101462 0.54125005 8029569
-0.068859003 -0.015094485 0.54100001 8029569
-0.067675836 -0.015094485 0.54100001 8029822
-0.066492677 -0.015094485 0.54100001 8094845
-0.065309517 -0.015094485 0.54100001 7963776
-0.064126357 -0.015094485 0.54100001 7963776
-0.062943198 -0.015094485 0.54100001 7898496
-0.061731499 -0.01508751 0.54075003 7898496
-0.060520899 -0.015080536 0.54050004 8029569
-0.059311379 -0.015073559 0.54025 8029822
-0.058102962 -0.015066585 0.54000002 7964029
-0.05686928 -0.015052633 0.5395 8160638
-0.055663597 -0.015045659 0.53925002 7964029
-0.054459006 -0.015038684 0.53900003 7964029
-0.053280219 -0.015038684 0.53900003 7964029
-0.052077267 -0.015031709 0.53875005 7767163
-0.050899029 -0.015031709 0.53875005 7964029
-0.049743857 -0.015038684 0.53900003 7963259
-0.048565075 -0.015038684 0.53900003 8029569
-0.047364313 -0.015031709 0.53875005 7701370
-0.046186071 -0.015031709 0.53875005 7701368
-0.044986945 -0.015024733 0.53850001 7898749
-0.04380925 -0.015024733 0.53850001 7832190
-0.04261177 -0.015017758 0.53825003 7964029
-0.04143462 -0.015017758 0.53825003 7766910
-0.040238779 -0.015010783 0.53800005 7898749
-0.03906218 -0.015010783 0.53800005 7964029
-0.037867974 -0.015003807 0.53775001 7963776
-0.036606632 -0.014968931 0.53650004 7701117
-0.03540029 -0.01495498 0.53600001 7766910
-0.034196135 -0.01494103 0.53550005 7963776
-0.033009581 -0.014934054 0.53525001 7832443
-0.031824127 -0.014927079 0.53500003 7832190
-0.030639766 -0.014920104 0.53475004 7701119
-0.029470276 -0.014920104 0.53475004 7701117
-0.028300785 -0.014920104 0.53475004 7832443
-0.027118606 -0.014913128 0.5345 7767163
-0.025949663 -0.014913128 0.5345 7898496
-0.024780717 -0.014913128 0.5345 7700604
-0.023611773 -0.014913128 0.5345 7766650
-0.022432331 -0.014906153 0.53425002 7766397
-0.021263933 -0.014906153 0.53425002 7700604
-0.020095535 -0.014906153 0.53425002 7635324
-0.018927136 -0.014906153 0.53425002 7701117
-0.017767048 -0.014913128 0.5345 7701117
-0.016613631 -0.014927079 0.53500003 7701117
-0.015450808 -0.014934054 0.53525001 7700857
-0.014286894 -0.01494103 0.53550005 7700604
-0.013072899 -0.014892202 0.53375 7569533
-0.011900018 -0.014885227 0.53350002 7504254
-0.010733261 -0.014885227 0.53350002 7504254
-0.0095665026 -0.014885227 0.53350002 7569531
-0.0084036803 -0.014892202 0.53375 7634811
-0.0072363764 -0.014892202 0.53375 7569784
-0.0060690716 -0.014892202 0.53375 7569269
-0.0049040634 -0.014899178 0.53400004 7371890
-0.0037362119 -0.014899178 0.53400004 7175026
-0.0025683607 -0.014899178 0.53400004 7371892
-0.0013998535 -0.014892202 0.53375 6845548
-0.00023244004 -0.014885227 0.53350002 6713962
0.00093387999 -0.014878253 0.53325003 6253409
0.036888488 -0.018240333 0.65375 986895
0.038288925 -0.018226383 0.65325004 987148
0.039717577 -0.018226383 0.65325004 986895
0.041146226 -0.018226383 0.65325004 986895
0.044138245 -0.018282184 0.65525001 856079
0.045571268 -0.018282184 0.65525001 856332
0.047004294 -0.018282184 0.65525001 855309
0.048418835 -0.018275209 0.65500003 986895
0.049851313 -0.018275209 0.65500003 855309
0.051264215 -0.018268235 0.65475005 856079
0.052676026 -0.018261258 0.65450001 725263
0.054024737 -0.018233357 0.65350002 922125
0.055390291 -0.018212432 0.65275002 856332
0.056774329 -0.018198481 0.65225005 791309
0.058156174 -0.018184531 0.65175003 922125
0.059512977 -0.018163605 0.65100002 1184527
0.060889911 -0.018149655 0.65050006 1052941
0.062288594 -0.018142678 0.65025002 1184270
0.063637197 -0.018121753 0.64950001 1052688
0.065032601 -0.018114777 0.64925003 987665
0.066426925 -0.018107804 0.64900005 987665
0.067820139 -0.018100826 0.64875001 1118224
0.069212265 -0.018093852 0.64850003 1118224
0.070630528 -0.018093852 0.64850003 1118477
0.072021015 -0.018086877 0.64825004 1184270
0.073438726 -0.018086877 0.64825004 1052941
0.074856438 -0.018086877 0.64825004 1052941
0.076274157 -0.018086877 0.64825004 1052941
0.077661902 -0.018079901 0.648 1118734
0.079079077 -0.018079901 0.648 1052941
0.080465183 -0.018072926 0.64775002 1118734
0.081881806 -0.018072926 0.64775002 1052941
0.083266288 -0.018065952 0.64750004 1052941
0.084649667 -0.018058976 0.64725006 1052688
0.086031944 -0.018052001 0.64700001 922125
0.087413132 -0.018045025 0.64675003 987918
0.08879324 -0.018038051 0.64650005 1052941
0.090172239 -0.018031074 0.64625001 1184270
0.091550149 -0.0180241 0.64600003 1052684
0.092890985 -0.018010149 0.6455 987148
0.094266169 -0.018003173 0.64525002 987148
0.095640257 -0.017996199 0.64500004 987148
0.097050861 -0.017996199 0.64500004 1052941
0.098423302 -0.017989224 0.64475006 987148
0.099794656 -0.017982248 0.64450002 1052688
0.10120416 -0.017982248 0.64450002 1052431
0.10257388 -0.017975273 0.64425004 1052941
0.10398284 -0.017975273 0.64425004 922125
0.10535092 -0.017968297 0.64400005 1052941
0.10671789 -0.017961321 0.64375001 1118477
0.10808377 -0.017954346 0.64350003 1052941
0.10944856 -0.017947372 0.64325005 1052941
0.11076917 -0.017933421 0.64275002 1118734
0.11208759 -0.01791947 0.64225 1118734
0.11340383 -0.01790552 0.64175004 922125
0.11476261 -0.017898545 0.64150006 987918
0.11616556 -0.017898545 0.64150006 987918
0.11752269 -0.017891569 0.64125001 987918
0.1189251 -0.017891569 0.64125001 1118734
0.1203275 -0.017891569 0.64125001 1250063
0.12172991 -0.017891569 0.64125001 1184270
0.12308432 -0.017884593 0.64100003 1250063
0.12438907 -0.017870642 0.64050001 1250063
0.12574074 -0.017863669 0.64025003 1184527
0.12709132 -0.017856693 0.64000005 1184527
0.1284408 -0.017849717 0.63975 1184527
0.12978917 -0.017842742 0.63950002 1118734
0.13113648 -0.017835768 0.63925004 1118734
0.13248268 -0.017828792 0.63900006 1184527
0.13388017 -0.017828792 0.63900006 1053711
0.13527764 -0.017828792 0.63900006 1184527
0.1367286 -0.017835768 0.63925004 1184017
0.13812663 -0.017835768 0.63925004 1184017
0.13957924 -0.017842742 0.63950002 1184270
0.14097781 -0.017842742 0.63950002 1184527
0.14645754 -0.017828792 0.63900006 1118734
0.1473344 -0.017766016 0.63675004 1118481
0.14866856 -0.017759038 0.6365 1184527
0.20093726 -0.014417885 0.51675004 4935496
0.20050323 -0.014306281 0.51275003 5988184
0.201428 -0.01429233 0.51225001 4738117
0.20195517 -0.014250477 0.51075 3947828
0.20297278 -0.014243502 0.51050001 5592653
0.2039893 -0.014236527 0.51025003 6777184
0.20500472 -0.014229553 0.51000005 7041896
0.20601903 -0.014222576 0.50975001 7305066
0.20703226 -0.014215602 0.50950003 7435884
0.20814653 -0.014215602 0.50950003 7304814
0.20915812 -0.014208627 0.50925004 7239021
0.21016861 -0.01420165 0.509 7567216
0.21128179 -0.01420165 0.509 7567218
0.21229066 -0.014194676 0.50875002 7370609
0.21329843 -0.014187701 0.50850004 7436402
0.21441051 -0.014187701 0.50850004 7436400
0.21541661 -0.014180725 0.50825 7763825
0.21642165 -0.01417375 0.50800002 7763825
0.21721147 -0.014152824 0.50725001 7763825
0.21821325 -0.014145849 0.50700003 7633009
0.21932204 -0.014145849 0.50700003 7633009
0.22043085 -0.014145849 0.50700003 7699574
0.22164887 -0.014152824 0.50725001 7633011
0.22275822 -0.014152824 0.50725001 7632758
0.22397792 -0.0141598 0.50750005 7830390
0.22508782 -0.0141598 0.50750005 7961206
0.22619772 -0.0141598 0.50750005 8026740
0.22719562 -0.014152824 0.50725001 8092533
0.22796741 -0.014131898 0.50650001 7763825
0.22884901 -0.014117949 0.50600004 7633011
0.22984198 -0.014110972 0.50575 7567988
0.23094805 -0.014110972 0.50575 7567988
0.23205411 -0.014110972 0.50575 7829620
0.23316018 -0.014110972 0.50575 7829620
0.23438208 -0.014117949 0.50600004 7633011
0.23572136 -0.014131898 0.50650001 7567986
0.236946 -0.014138875 0.50675005 7502193
0.23817168 -0.014145849 0.50700003 7502193
0.23939846 -0.014152824 0.50725001 7829620
0.24062636 -0.0141598 0.50750005 7829363
0.24173626 -0.0141598 0.50750005 7829620
0.24284616 -0.0141598 0.50750005 7895154
0.24395606 -0.0141598 0.50750005 7763825
0.24397944 -0.014097023 0.50525004 7895154
0.24484189 -0.014083072 0.50475001 8026740
0.24582395 -0.014076096 0.50450003 8157556
0.24692729 -0.014076096 0.50450003 7895154
0.24790773 -0.014069121 0.50425005 7763825
0.2490105 -0.014069121 0.50425005 7698286
0.25011331 -0.014069121 0.50425005 7764079
0.25121608 -0.014069121 0.50425005 7896183
0.25219378 -0.014062145 0.50400001 7567218
0.25329599 -0.014062145 0.50400001 7763825
0.25427207 -0.01405517 0.50375003 7961204
0.25537375 -0.01405517 0.50375003 7633011
0.25634819 -0.014048195 0.50350004 7633263
0.2574493 -0.014048195 0.50350004 7698286
0.25842208 -0.014041219 0.50325 7764079
0.25952268 -0.014041219 0.50325 7764079
0.26062328 -0.014041219 0.50325 7829618
0.26159388 -0.014034244 0.50300002 7763827
0.26269391 -0.014034244 0.50300002 7698034
0.26379398 -0.014034244 0.50300002 7567218
0.26489404 -0.014034244 0.50300002 7698804
0.2659941 -0.014034244 0.50300002 7501942
0.26709417 -0.014034244 0.50300002 7370356
0.2681942 -0.014034244 0.50300002 7502193
0.26929426 -0.014034244 0.50300002 7436400
0.2703943 -0.014034244 0.50300002 7370609
0.27135944 -0.01402727 0.50275004 7567986
0.27232343 -0.014020293 0.5025 7370607
0.27328637 -0.014013318 0.50225002 7567216
0.27424821 -0.014006344 0.50200003 7501423
0.2753461 -0.014006344 0.50200003 7436400
0.2763063 -0.013999369 0.50175005 7567216
0.27740362 -0.013999369 0.50175005 7239021
0.2786397 -0.014006344 0.50200003 7370356
0.27973756 -0.014006344 0.50200003 7567218
0.28097528 -0.014013318 0.50225002 7567216
0.28207368 -0.014013318 0.50225002 7566700
0.28331307 -0.014020293 0.5025 7698032
0.28441203 -0.014020293 0.5025 7369837
0.28551096 -0.014020293 0.5025 7763825
0.28646737 -0.014013318 0.50225002 7434857
0.28742263 -0.014006344 0.50200003 7434857
0.28823313 -0.013992392 0.50150001 7369069
0.28904143 -0.013978443 0.50100005 7435632
0.28999233 -0.013971467 0.50075001 7107435
0.29123279 -0.013978443 0.50100005 7304814
0.29247436 -0.013985418 0.50125003 7500653
0.293717 -0.013992392 0.50150001 7698286
0.29496077 -0.013999369 0.50175005 7303274
0.29605809 -0.013999369 0.50175005 7500907
0.29715538 -0.013999369 0.50175005 7303528
0.30173725 -0.013957517 0.50025004 7303017
0.30267993 -0.013950541 0.5 7566189
0.3037734 -0.013950541 0.5 7566189
0.30486691 -0.013950541 0.5 7632239
0.30611339 -0.013957517 0.50025004 7238251
0.30720744 -0.013957517 0.50025004 7435630
0.30830148 -0.013957517 0.50025004 7435630
0.30939552 -0.013957517 0.50025004 7500653
0.31048957 -0.013957517 0.50025004 7697775
0.31158361 -0.013957517 0.50025004 7369067
0.31267765 -0.013957517 0.50025004 7632239
0.31377167 -0.013957517 0.50025004 7303276
0.31470835 -0.013950541 0.5 7500655
0.31580183 -0.013950541 0.5 7303276
0.31673691 -0.013943566 0.49975002 7370356
0.31767085 -0.013936591 0.49950004 7369839
0.31876326 -0.013936591 0.49950004 7369067
0.31985566 -0.013936591 0.49950004 7632241
0.32094806 -0.013936591 0.49950004 7239023
0.32542986 -0.01389474 0.49800003 7370609
0.32651895 -0.01389474 0.49800003 7566448
0.32902724 -0.01390869 0.49850002 7697775
0.33624166 -0.013936591 0.49950004 7369839
0.33716524 -0.013929616 0.49925002 7369839
-0.27318761 -0.015654478 0.60875005 7961723
-0.27185628 -0.015654478 0.60875005 7830907
-0.27041385 -0.015648048 0.6085 7765367
-0.26908305 -0.015648048 0.6085 7765880
-0.26764229 -0.01564162 0.60825002 7765627
-0.26477963 -0.015551616 0.60475004 7962493
-0.26345703 -0.015551616 0.60475004 7896183
-0.2547206 -0.015423036 0.59975004 7896953
-0.2519922 -0.015416606 0.5995 8027769
-0.23438708 -0.015294458 0.59475005 8027769
-0.23298839 -0.015288028 0.59450001 8224378
-0.23149337 -0.015275171 0.59400004 8158585
-0.23009741 -0.015268741 0.59375 8027769
-0.22793187 -0.015210882 0.59150004 8027769
-0.22654244 -0.015204451 0.59125 8027769
-0.22505893 -0.015191594 0.59075004 8027767
-0.22367227 -0.015185166 0.59050006 7962746
-0.22219256 -0.015172307 0.59000003 8093560
-0.22071502 -0.015159449 0.58950001 8224376
-0.21099256 -0.015018013 0.58400005 7897464
-0.20962557 -0.015011583 0.58375001 7832443
-0.2082597 -0.015005155 0.58350003 7832443
-0.20689492 -0.014998727 0.58325005 7766650
-0.20425621 -0.014992297 0.583 8093560
-0.20298119 -0.014992297 0.583 8027769
-0.20161967 -0.014985868 0.58275002 8093562
-0.2003452 -0.014985868 0.58275002 8290941
-0.19830212 -0.014928007 0.58050001 8159355
-0.19694774 -0.014921579 0.58025002 8093562
-0.19559443 -0.01491515 0.58000004 8159355
-0.19432598 -0.01491515 0.58000004 8290169
-0.19247504 -0.014870147 0.57825005 8027767
-0.19079706 -0.014838002 0.57700002 7897464
-0.18830335 -0.014741569 0.57325006 8028537
-0.18704966 -0.014741569 0.57325006 7896953
-0.18571493 -0.014735139 0.57300001 8159355
-0.18446179 -0.014735139 0.57300001 8159355
-0.18312871 -0.01472871 0.57275003 7962746
-0.18187612 -0.01472871 0.57275003 8028539
-0.18070236 -0.014735139 0.57300001 7896953
-0.17827483 -0.014638705 0.56925005 7963259
-0.17702988 -0.014638705 0.56925005 8028286
-0.17570771 -0.014632275 0.56900001 8028539
-0.17438668 -0.014625847 0.56875002 7963259
-0.17314284 -0.014625847 0.56875002 7963259
-0.17182343 -0.014619418 0.56850004 7962746
-0.17058013 -0.014619418 0.56850004 8160125
-0.16933683 -0.014619418 0.56850004 8094845
-0.16809353 -0.014619418 0.56850004 7963259
-0.16677682 -0.014612989 0.56825 8094845
-0.16524276 -0.014587273 0.56725001 7963259
-0.16378537 -0.014567986 0.56650001 7832443
-0.16247471 -0.014561557 0.56625003 8159872
-0.16109395 -0.014548699 0.56575 7962746
-0.1597154 -0.014535842 0.56525004 8160125
-0.1584091 -0.014529413 0.565 8028539
-0.15710391 -0.014522984 0.56475002 8160636
-0.15573083 -0.014510127 0.56425005 8160123
-0.15435989 -0.014497268 0.56375003 8290939
-0.15285537 -0.014471553 0.56275004 8160123
-0.15148991 -0.014458694 0.56225002 8028537
-0.15012667 -0.014445838 0.56175005 8225918
-0.14876559 -0.014432979 0.56125003 7963259
-0.1474067 -0.01442012 0.56075001 8029822
-0.14605002 -0.014407263 0.56025004 8029822
-0.14469551 -0.014394405 0.55975002 8094845
-0.14334317 -0.014381547 0.55925 8160638
-0.14199303 -0.01436869 0.55875003 8160638
-0.14070807 -0.014362261 0.55850005 8291709
-0.1394242 -0.014355831 0.55825001 8225916
-0.13814142 -0.014349403 0.55800003 8225918
-0.13685974 -0.014342974 0.55775005 8028539
-0.13551836 -0.014330115 0.55725002 8160638
-0.13423941 -0.014323687 0.55700004 8225918
-0.13290185 -0.014310828 0.55650002 8094592
-0.13162564 -0.0143044 0.55625004 8029569
-0.13029189 -0.014291542 0.55575001 8160638
-0.12896036 -0.014278685 0.55525005 7964029
-0.12751594 -0.014252968 0.55425 8029569
-0.12618987 -0.014240111 0.55375004 8094845
-0.12492239 -0.01423368 0.5535 8226431
-0.12365603 -0.014227252 0.55325001 8094845
-0.12233543 -0.014214396 0.55275005 8094843
-0.12107178 -0.014207966 0.55250001 8226429
-0.11970076 -0.014188678 0.55175 8225918
-0.11838671 -0.014175821 0.55125004 8226431
-0.11707484 -0.014162963 0.55075002 8161408
-0.11565997 -0.014137248 0.54975003 8094845
-0.11435357 -0.014124389 0.54925001 8291711
-0.11310087 -0.014117961 0.54900002 8225665
-0.11184926 -0.014111532 0.54875004 8160385
-0.11059874 -0.014105102 0.5485 8095362
-0.10934932 -0.014098673 0.54825002 8095362
-0.10810098 -0.014092245 0.54800004 8226178
-0.10680497 -0.014079386 0.54750001 8226178
-0.10551116 -0.014066529 0.54700005 8226178
-0.10421953 -0.014053671 0.54650003 8291458
-0.1029772 -0.014047243 0.54625005 8291971
-0.10173597 -0.014040813 0.546 7634813
-0.10054188 -0.014040813 0.546 8291973
-0.099347785 -0.014040813 0.546 10331554
-0.098153688 -0.014040813 0.546 11385265
-0.0969152 -0.014034384 0.54575002 11254192
-0.095677808 -0.014027956 0.54550004 11319219
-0.094441496 -0.014021526 0.54525 11515830
-0.093206286 -0.014015097 0.54500002 11451322
-0.091972172 -0.014008669 0.54475003 11385527
-0.090739153 -0.01400224 0.54450005 11451320
-0.089548342 -0.01400224 0.54450005 11386041
-0.088316947 -0.01399581 0.54425001 10992053
-0.08712668 -0.01399581 0.54425001 9149849
-0.085896946 -0.013989381 0.54400003 8030086
-0.084707223 -0.013989381 0.54400003 8292745
-0.083479129 -0.013982954 0.54375005 8161670
-0.082252108 -0.013976524 0.54350001 8226950
-0.081026196 -0.013970095 0.54325002 8095364
-0.079801373 -0.013963667 0.54300004 8094594
-0.078577645 -0.013957236 0.54275 8095362
-0.077355005 -0.013950808 0.54250002 8160638
-0.076168567 -0.013950808 0.54250002 8094845
-0.074982129 -0.013950808 0.54250002 8225918
-0.073795691 -0.013950808 0.54250002 8160638
-0.072575785 -0.013944379 0.54225004 8160638
-0.071356982 -0.013937951 0.54200006 8160638
-0.070106901 -0.013925092 0.54150003 8029822
-0.068890832 -0.013918664 0.54125005 8030082
-0.067675836 -0.013912234 0.54100001 8160638
-0.066492677 -0.013912234 0.54100001 8094845
-0.065309517 -0.013912234 0.54100001 7963776
-0.064126357 -0.013912234 0.54100001 7963776
-0.062943198 -0.013912234 0.54100001 7963776
-0.061731499 -0.013905806 0.54075003 7963776
-0.060548887 -0.013905806 0.54075003 7963776
-0.05933883 -0.013899377 0.54050004 7963776
-0.058129858 -0.013892947 0.54025 7964029
-0.056895636 -0.01388009 0.53975004 7964029
-0.055689402 -0.01387366 0.5395 7898749
-0.054484263 -0.013867231 0.53925002 7766910
-0.053280219 -0.013860803 0.53900003 7766910
-0.052101433 -0.013860803 0.53900003 7898496
-0.050922647 -0.013860803 0.53900003 7767163
-0.049743857 -0.013860803 0.53900003 7898749
-0.048565075 -0.013860803 0.53900003 7832443
-0.047364313 -0.013854374 0.53875005 7767675
-0.046186071 -0.013854374 0.53875005 7636089
-0.044986945 -0.013847944 0.53850001 7767163
-0.04380925 -0.013847944 0.53850001 8029822
-0.04261177 -0.013841516 0.53825003 7964029
-0.04143462 -0.013841516 0.53825003 7832443
-0.040257476 -0.013841516 0.53825003 7832441
-0.039080329 -0.013841516 0.53825003 7964027
-0.03788558 -0.013835087 0.53800005 7767163
-0.036674861 -0.013822229 0.53750002 7701117
-0.035416804 -0.013790085 0.53625005 7963776
-0.034196135 -0.013770798 0.53550005 7766397
-0.033009581 -0.013764368 0.53525001 7570045
-0.031824127 -0.013757939 0.53500003 7766910
-0.03065409 -0.013757939 0.53500003 7832190
-0.029484052 -0.013757939 0.53500003 7963776
-0.028314015 -0.013757939 0.53500003 7766650
-0.027143976 -0.013757939 0.53500003 7832443
-0.025973938 -0.013757939 0.53500003 7832190
-0.02479231 -0.013751511 0.53475004 7766397
-0.023622818 -0.013751511 0.53475004 7897466
-0.022453327 -0.013751511 0.53475004 7700857
-0.021283835 -0.013751511 0.53475004 7766650
-0.020114342 -0.013751511 0.53475004 7634811
-0.018953707 -0.013757939 0.53500003 7701370
-0.017791979 -0.013764368 0.53525001 7635324
-0.016629158 -0.013770798 0.53550005 7635324
-0.015458026 -0.013770798 0.53550005 7635064
-0.014286894 -0.013770798 0.53550005 7766650
-0.013115762 -0.013770798 0.53550005 7569784
-0.011927901 -0.013751511 0.53475004 7635577
-0.01073829 -0.013725794 0.53375 7569531
-0.0095709851 -0.013725794 0.53375 7503738
-0.0084036803 -0.013725794 0.53375 7438198
-0.0072363764 -0.013725794 0.53375 7438198
-0.0060690716 -0.013725794 0.53375 7371892
-0.0049040634 -0.013732225 0.53400004 6976364
-0.0037362119 -0.013732225 0.53400004 6778985
-0.0025707653 -0.013745082 0.5345 5660504
0.038332887 -0.016818117 0.65400004 1118477
0.039778374 -0.016824545 0.65425003 1052688
0.041256454 -0.016843833 0.65500003 986895
0.042705219 -0.016850261 0.65525001 1052688
0.044138245 -0.016850261 0.65525001 856079
0.045571268 -0.016850261 0.65525001 922125
0.04698636 -0.016843833 0.65500003 987148
0.048418835 -0.016843833 0.65500003 855562
0.049832288 -0.016837405 0.65475005 922125
0.051244639 -0.016830973 0.65450001 922125
0.052615661 -0.016811687 0.65375 987918
0.053983405 -0.016792402 0.65300006 987918
0.055369079 -0.016779544 0.65250003 987918
0.056752563 -0.016766684 0.65200001 987918
0.05811156 -0.016747398 0.65125 1118734
0.059444413 -0.016721683 0.65025002 1118734
0.060843106 -0.016715255 0.65000004 1118732
0.062216748 -0.016702395 0.64950001 1250063
0.063612707 -0.016695967 0.64925003 1250063
0.065007567 -0.016689539 0.64900005 1184527
0.066426925 -0.016689539 0.64900005 921872
0.067820139 -0.016683109 0.64875001 921872
0.069212265 -0.016676679 0.64850003 1118481
0.070603296 -0.016670251 0.64825004 1052941
0.072021015 -0.016670251 0.64825004 1184527
0.073410399 -0.016663821 0.648 1184527
0.074827567 -0.016663821 0.648 1053711
0.076244742 -0.016663821 0.648 1052941
0.077661902 -0.016663821 0.648 1118734
0.079079077 -0.016663821 0.648 1052688
0.080465183 -0.016657393 0.64775002 1184274
0.081850208 -0.016650965 0.64750004 1118481
0.083234139 -0.016644536 0.64725006 1184274
0.084616967 -0.016638106 0.64700001 1184274
0.086031944 -0.016638106 0.64700001 1118734
0.087413132 -0.016631678 0.64675003 1118734
0.088758901 -0.01661882 0.64625001 1118734
0.090137355 -0.01661239 0.64600003 1118734
0.091514722 -0.016605962 0.64575005 1184527
0.092855014 -0.016593104 0.64525002 1184527
0.094229653 -0.016586674 0.64500004 1184274
0.09560319 -0.016580246 0.64475006 1118481
0.096975625 -0.016573817 0.64450002 1184274
0.098385133 -0.016573817 0.64450002 1184274
0.09975595 -0.016567389 0.64425004 1184527
0.10116491 -0.016567389 0.64425004 1118734
0.10253408 -0.016560961 0.64400005 1118734
0.1039425 -0.016560961 0.64400005 1118734
0.10531002 -0.016554529 0.64375001 1184527
0.10671789 -0.016554529 0.64375001 1250067
0.10804179 -0.016541673 0.64325005 1119251
0.10940602 -0.016535243 0.64300001 1119251
0.1107261 -0.016522385 0.64250004 1053458
0.11204397 -0.016509527 0.64200002 1053711
0.11340383 -0.016503099 0.64175004 1119504
0.11471788 -0.01649024 0.64125001 1119504
0.11612029 -0.01649024 0.64125001 1053711
0.11747688 -0.016483812 0.64100003 1250320
0.11887874 -0.016483812 0.64100003 1381649
0.12028059 -0.016483812 0.64100003 1315856
0.121635 -0.016477384 0.64075005 1381649
0.12298831 -0.016470954 0.64050001 1250067
0.12434052 -0.016464526 0.64025003 1250320
0.12564254 -0.016451666 0.63975 1315860
0.12699202 -0.016445238 0.63950002 1447446
0.12839061 -0.016445238 0.63950002 1250320
0.12973845 -0.01643881 0.63925004 1185297
0.13108519 -0.01643238 0.63900006 1119251
0.13248268 -0.01643238 0.63900006 1119504
0.13388017 -0.01643238 0.63900006 1185297
0.13527764 -0.01643238 0.63900006 1053711
0.1367286 -0.01643881 0.63925004 1053711
0.13818064 -0.016445238 0.63950002 1316883
0.13957924 -0.016445238 0.63950002 1119504
0.14097781 -0.016445238 0.63950002 1119504
0.14232072 -0.01643881 0.63925004 1250067
0.14594184 -0.016374521 0.63675004 1184527
0.14727654 -0.016368089 0.6365 1250063
0.14861016 -0.016361661 0.63625002 1315856
0.15139312 -0.016361661 0.63625002 1249810
0.20314141 -0.013211479 0.51375002 4342589
0.20297278 -0.013127903 0.51050001 4342334
0.2039893 -0.013121475 0.51025003 5000519
0.20500472 -0.013115046 0.51000005 5397330
0.20601903 -0.013108616 0.50975001 5990237
0.20713384 -0.013108616 0.50975001 6646884
0.20814653 -0.013102188 0.50950003 7040872
0.20915812 -0.013095759 0.50925004 7370091
0.21027187 -0.013095759 0.50925004 7304814
0.21128179 -0.013089329 0.509 7239021
0.21239497 -0.013089329 0.509 7435630
0.21340328 -0.0130829 0.50875002 7567216
0.21451591 -0.0130829 0.50875002 7632239
0.21562853 -0.0130829 0.50875002 7763825
0.21684767 -0.013089329 0.509 7763825
0.21796085 -0.013089329 0.509 7698034
0.21842845 -0.013050756 0.50750005 7829363
0.21943018 -0.013044327 0.50725001 7698034
0.22053953 -0.013044327 0.50725001 7632239
0.22164887 -0.013044327 0.50725001 7960177
0.22286803 -0.013050756 0.50750005 7960177
0.22397792 -0.013050756 0.50750005 7829361
0.22508782 -0.013050756 0.50750005 7895154
0.22619772 -0.013050756 0.50750005 7829361
0.2273076 -0.013050756 0.50750005 7763570
0.22785491 -0.013018611 0.50625002 7829620
0.22884901 -0.013012183 0.50600004 7961206
0.22984198 -0.013005753 0.50575 7829620
0.23094805 -0.013005753 0.50575 7763574
0.23205411 -0.013005753 0.50575 7960953
0.23316018 -0.013005753 0.50575 7960953
0.23449786 -0.013018611 0.50625002 7567218
0.23583773 -0.01303147 0.50675005 7502195
0.23717977 -0.013044327 0.50725001 7436402
0.23828912 -0.013044327 0.50725001 7502706
0.23951648 -0.013050756 0.50750005 7567986
0.24062636 -0.013050756 0.50750005 7633011
0.24173626 -0.013050756 0.50750005 7829363
0.2427265 -0.013044327 0.50725001 7829618
0.24371569 -0.013037899 0.50700003 7699056
0.24422087 -0.013005753 0.50575 7633009
0.24508443 -0.012992896 0.50525004 7698802
0.24606757 -0.012986465 0.505 7698804
0.24704964 -0.012980037 0.50475001 7567218
0.24803062 -0.012973608 0.50450003 7699574
0.24913396 -0.012973608 0.50450003 7502195
0.25023729 -0.012973608 0.50450003 7698804
0.25121608 -0.01296718 0.50425005 7633011
0.25231889 -0.01296718 0.50425005 7829620
0.25329599 -0.012960751 0.50400001 7763825
0.25439826 -0.012960751 0.50400001 7698804
0.25537375 -0.012954322 0.50375003 7633011
0.25634819 -0.012947894 0.50350004 7698034
0.2574493 -0.012947894 0.50350004 7829620
0.25855047 -0.012947894 0.50350004 7961204
0.25952268 -0.012941463 0.50325 7436400
0.26062328 -0.012941463 0.50325 7567988
0.26172388 -0.012941463 0.50325 7502195
0.26282448 -0.012941463 0.50325 7567988
0.26379398 -0.012935035 0.50300002 7436402
0.26489404 -0.012935035 0.50300002 7436149
0.2659941 -0.012935035 0.50300002 7567218
0.26709417 -0.012935035 0.50300002 7501423
0.2681942 -0.012935035 0.50300002 7633011
0.26929426 -0.012935035 0.50300002 7633011
0.2703943 -0.012935035 0.50300002 7567218
0.27149436 -0.012935035 0.50300002 7763825
0.27245894 -0.012928606 0.50275004 7698032
0.27355847 -0.012928606 0.50275004 7698032
0.27452135 -0.012922176 0.5025 7763825
0.27548322 -0.012915748 0.50225002 7697777
0.27644396 -0.012909319 0.50200003 7697775
0.27754182 -0.012909319 0.50200003 7632241
0.2786397 -0.012909319 0.50200003 7501425
0.27987686 -0.012915748 0.50225002 7435632
0.28111514 -0.012922176 0.5025 7500655
0.28277573 -0.012947894 0.50350004 7763568
0.28359497 -0.012935035 0.50300002 7697775
0.28469503 -0.012935035 0.50300002 7500653
0.28565302 -0.012928606 0.50275004 7500653
0.28756577 -0.012915748 0.50225002 7042157
0.28852051 -0.012909319 0.50200003 7041904
0.28932989 -0.01289646 0.50150001 7239023
0.29028189 -0.012890032 0.50125003 7041644
0.29137811 -0.012890032 0.50125003 6975598
0.29262021 -0.01289646 0.50150001 7369069
0.293717 -0.01289646 0.50150001 7500653
0.29496077 -0.012902891 0.50175005 7303528
0.29605809 -0.012902891 0.50175005 7369064
0.29715538 -0.012902891 0.50175005 7303017
0.29825273 -0.012902891 0.50175005 7369067
0.30094364 -0.012877174 0.50075001 7370091
0.30188802 -0.012870746 0.50050002 7370091
0.30283129 -0.012864317 0.50025004 7172712
0.30392531 -0.012864317 0.50025004 7369321
0.30517179 -0.012870746 0.50050002 7369837
0.30626637 -0.012870746 0.50050002 7172458
0.30736098 -0.012870746 0.50050002 7239021
0.30845553 -0.012870746 0.50050002 7435630
0.30955014 -0.012870746 0.50050002 7566443
0.31048957 -0.012864317 0.50025004 7631982
0.31158361 -0.012864317 0.50025004 7631982
0.31267765 -0.012864317 0.50025004 7631982
0.31377167 -0.012864317 0.50025004 7828591
0.31470835 -0.012857887 0.5 7762800
0.31580183 -0.012857887 0.5 7567218
0.31673691 -0.012851458 0.49975002 7304563
0.31767085 -0.01284503 0.49950004 7304563
0.31876326 -0.01284503 0.49950004 7501425
0.31969559 -0.012838601 0.49925002 7501677
0.32078743 -0.012838601 0.49925002 7566446
0.32575658 -0.012819313 0.49850002 7239536
0.32793701 -0.012819313 0.49850002 7828591
0.33153984 -0.012832171 0.49900001 7566191
-0.27451894 -0.014324172 0.60875005 8027516
-0.27318761 -0.014324172 0.60875005 7831160
-0.27185628 -0.014324172 0.60875005 7896700
-0.27041385 -0.014318289 0.6085 7961723
-0.26908305 -0.014318289 0.6085 7961723
-0.26764229 -0.014312407 0.60825002 7896183
-0.26467016 -0.014224168 0.60450006 8092790
-0.2632392 -0.014218285 0.60425001 8158837
-0.26170102 -0.01420652 0.60375005 7897466
-0.25036749 -0.014088868 0.59875005 7831420
-0.24895404 -0.014082984 0.59850001 7831673
-0.24764512 -0.014082984 0.59850001 7831673
-0.23578686 -0.014000628 0.59500003 7831160
-0.23438708 -0.013994746 0.59475005 8093562
-0.23289041 -0.013982981 0.59425002 8290171
-0.23149337 -0.013977098 0.59400004 8224121
-0.22912857 -0.013912388 0.59125 8290171
-0.22496368 -0.013894741 0.59050006 7831158
-0.22348288 -0.013882976 0.59000003 7896951
-0.22209841 -0.013877094 0.58975005 8093814
-0.22052783 -0.013859446 0.58900005 8290169
-0.21226977 -0.013741794 0.58400005 8027767
-0.21081191 -0.013730028 0.58350003 7962744
-0.20944604 -0.013724145 0.58325005 7962744
-0.20799202 -0.01371238 0.58275002 8028537
-0.20662887 -0.013706498 0.58250004 8028537
-0.20535496 -0.013706498 0.58250004 8028537
-0.20408104 -0.013706498 0.58250004 8159353
-0.20280711 -0.013706498 0.58250004 8028537
-0.20144667 -0.013700614 0.58225 8028537
-0.19982952 -0.013677084 0.58125001 7897466
-0.19813134 -0.013647672 0.58000004 7962746
-0.19686288 -0.013647672 0.58000004 7962746
-0.1955101 -0.013641788 0.57975 8159355
-0.19382341 -0.013612376 0.57850003 8290171
-0.19214216 -0.013582962 0.57725 8159353
-0.1907144 -0.013571197 0.57675004 7962746
-0.18822122 -0.013482958 0.57300001 8028539
-0.1868865 -0.013477076 0.57275003 8159353
-0.18563391 -0.013477076 0.57275003 8093560
-0.18430084 -0.013471194 0.57250005 8160125
-0.1830488 -0.013471194 0.57250005 8093562
-0.18179674 -0.013471194 0.57250005 8290939
-0.18046585 -0.01346531 0.57225001 7962744
-0.17835312 -0.013400601 0.56950003 7831673
-0.17702988 -0.013394719 0.56925005 8160125
-0.17570771 -0.013388836 0.56900001 8159355
-0.17438668 -0.013382954 0.56875002 8093562
-0.17306672 -0.013377071 0.56850004 7962746
-0.17182343 -0.013377071 0.56850004 8028539
-0.17050511 -0.013371187 0.56825 8028539
-0.16926235 -0.013371187 0.56825 8028539
-0.16794568 -0.013365305 0.56800002 8160125
-0.16655672 -0.013353541 0.56750005 8028537
-0.16509713 -0.013335893 0.56675005 8094843
-0.16371308 -0.013324128 0.56625003 7963259
-0.16240299 -0.013318245 0.56600004 8160125
-0.16102277 -0.013306479 0.56550002 8028539
-0.15964474 -0.013294714 0.565 8028539
-0.15833901 -0.013288831 0.56475002 8160125
-0.15696482 -0.013277067 0.56425005 8028539
-0.15559281 -0.013265301 0.56375003 8028539
-0.15422298 -0.013253535 0.56325001 8225916
-0.15285537 -0.013241771 0.56275004 7962744
-0.15148991 -0.013230005 0.56225002 8160125
-0.15012667 -0.013218241 0.56175005 8225918
-0.14869933 -0.013200593 0.56100005 8094845
-0.14734098 -0.013188827 0.56050003 8160638
-0.14598483 -0.013177061 0.56 8160123
-0.14463088 -0.013165297 0.55950004 8160638
-0.14327909 -0.013153531 0.55900002 8094845
-0.14192951 -0.013141767 0.55850005 8160125
-0.1405821 -0.013130001 0.55800003 8160125
-0.13929933 -0.013124119 0.55775005 8356734
-0.13801764 -0.013118235 0.5575 8094845
-0.13673705 -0.013112353 0.55725002 7963259
-0.13545756 -0.013106471 0.55700004 8029822
-0.13417915 -0.013100587 0.55675 8029822
-0.13290185 -0.013094705 0.55650002 7964029
-0.13162564 -0.013088822 0.55625004 7898496
-0.13029189 -0.013077057 0.55575001 7898749
-0.12901841 -0.013071175 0.55550003 7964542
-0.12751594 -0.013041761 0.55425 7898749
-0.12618987 -0.013029996 0.55375004 8160385
-0.12486598 -0.013018231 0.55325001 8226178
-0.12360016 -0.013012349 0.55300003 8095615
-0.12228008 -0.013000583 0.55250001 8095615
-0.12096222 -0.012988819 0.55200005 7964029
-0.11970076 -0.012982935 0.55175 8029822
-0.11838671 -0.01297117 0.55125004 8029569
-0.1170217 -0.012953523 0.55050004 8029822
-0.11555478 -0.012924109 0.54925001 8095615
-0.11430153 -0.012918226 0.54900002 8095362
-0.11304937 -0.012912344 0.54875004 8226178
-0.11179829 -0.012906461 0.5485 8226431
-0.11059874 -0.012906461 0.5485 8095362
-0.10934932 -0.012900579 0.54825002 8030082
-0.10810098 -0.012894697 0.54800004 7964289
-0.10680497 -0.012882931 0.54750001 8095362
-0.10551116 -0.012871167 0.54700005 8357764
-0.10421953 -0.0128594 0.54650003 8028286
-0.10293007 -0.012847635 0.546 8094594
-0.10173597 -0.012847635 0.546 10068382
-0.10049585 -0.012841753 0.54575002 11384495
-0.099302299 -0.012841753 0.54575002 11253677
-0.098108746 -0.012841753 0.54575002 11253939
-0.0969152 -0.012841753 0.54575002 11450807
-0.095677808 -0.01283587 0.54550004 11516600
-0.094441496 -0.012829986 0.54525 11450807
-0.093206286 -0.012824104 0.54500002 11253943
-0.091972172 -0.012818223 0.54475003 11451318
-0.090739153 -0.012812341 0.54450005 11188399
-0.089507222 -0.012806457 0.54425001 9478042
-0.088316947 -0.012806457 0.54425001 8227465
-0.087086663 -0.012800574 0.54400003 8424077
-0.085896946 -0.012800574 0.54400003 8292743
-0.084668301 -0.012794692 0.54375005 8226950
-0.083479129 -0.012794692 0.54375005 8095877
-0.082252108 -0.012788809 0.54350001 8095877
-0.081026196 -0.012782927 0.54325002 8030082
-0.079801373 -0.012777044 0.54300004 8095362
