# .PCD v0.7 - Point Cloud Data file format
VERSION 0.7
FIELDS x y z rgb
SIZE 4 4 4 4
TYPE F F F U
COUNT 1 1 1 1
WIDTH 1119
HEIGHT 1
VIEWPOINT 0 0 0 1 0 0 0
POINTS 1119
DATA ascii
0.049365316 0.069959961 0.37125 6251610
0.050244812 0.070054188 0.37175003 6185563
0.051092163 0.070101291 0.37200001 6382172
0.051940605 0.070148408 0.37225002 6317149
0.052790143 0.070195518 0.37250003 5988954
0.053640768 0.070242628 0.37275001 6186333
0.054492496 0.070289738 0.37300003 6055001
0.055345308 0.070336848 0.37325001 6382172
0.056236837 0.070431076 0.37375003 6250588
0.057092384 0.070478186 0.37400001 6120540
0.057949033 0.070525296 0.37425002 5989469
0.058806766 0.070572406 0.37450001 6055262
0.059665598 0.070619516 0.37475002 6120542
0.060565867 0.070713736 0.37525001 6185565
0.061427437 0.070760854 0.37550002 6119772
0.062290091 0.070807956 0.37575001 6054749
0.063153841 0.070855074 0.37600002 6317151
0.064018689 0.070902184 0.37625003 6447965
0.064884625 0.070949294 0.37650001 6447965
0.065751657 0.070996404 0.37675002 6120542
0.066663958 0.071090624 0.37725002 6186333
0.067533724 0.071137741 0.37750003 6251356
0.068404578 0.071184851 0.37775001 6251358
0.069276541 0.071231961 0.37800002 6054749
0.070149586 0.071279071 0.37825003 6121055
0.070976816 0.071279071 0.37825003 6055262
0.071851492 0.071326181 0.37850001 6185312
0.072679274 0.071326181 0.37850001 6250335
0.073555604 0.071373299 0.37875003 6251358
0.074433014 0.071420401 0.37900001 5989467
0.075311527 0.071467519 0.37925002 6055260
0.076191142 0.071514629 0.37950003 6055262
0.077071838 0.071561739 0.37975001 6120542
0.077953637 0.071608849 0.38000003 6251358
0.078836516 0.071655959 0.38025001 6119770
0.079720505 0.071703069 0.38050002 6251356
0.080605581 0.071750186 0.38075003 6317149
0.081491739 0.071797289 0.38100001 6448737
0.082379006 0.071844406 0.38125002 6317151
0.083267361 0.071891516 0.38150001 6251358
0.084156811 0.071938626 0.38175002 6119772
0.085103005 0.072032847 0.38225001 6317151
0.08599519 0.072079964 0.38250002 6185565
0.086888462 0.072127067 0.38275 6120289
0.087725535 0.072127067 0.38275 6186335
0.088620447 0.072174184 0.38300002 6185563
0.089458063 0.072174184 0.38300002 6251358
0.090413563 0.072268404 0.38350001 6186335
0.091728166 0.072645292 0.38550001 6120542
0.09263128 0.072692409 0.38575003 6317151
0.09353549 0.072739512 0.38600001 6120542
0.094440795 0.072786629 0.38625002 6120542
0.09528552 0.072786629 0.38625002 6054747
0.096192464 0.072833739 0.38650003 6251356
0.097100504 0.072880849 0.38675001 6382172
0.098009638 0.072927959 0.38700002 6448737
0.098919854 0.072975069 0.38725001 6316898
0.099831179 0.073022179 0.38750002 6447965
0.10074359 0.073069297 0.38775003 6316379
0.10165709 0.073116399 0.38800001 6448484
0.10250564 0.073116399 0.38800001 6317668
0.10335419 0.073116399 0.38800001 6120542
0.10420275 0.073116399 0.38800001 6383714
0.1050513 0.073116399 0.38800001 6317921
0.10596809 0.073163517 0.38825002 6383461
0.10750499 0.073634624 0.39075002 6383974
0.10842889 0.073681742 0.39100003 6120804
0.10942375 0.073775962 0.39150003 6252390
0.11035037 0.073823065 0.39175001 6252390
0.11127809 0.073870182 0.39200002 6318181
0.11220692 0.073917292 0.39225003 6318181
0.11313682 0.073964402 0.39250001 6252388
0.11406782 0.074011512 0.39275002 6318434
0.11499991 0.074058622 0.39300001 6384227
0.1158594 0.074058622 0.39300001 6252388
0.11679313 0.07410574 0.39325002 6449767
0.11780275 0.07419996 0.39375001 6383974
0.11881456 0.07429418 0.39425001 6515047
0.11998035 0.074482627 0.39525002 6448484
0.12099762 0.074576847 0.39575002 6580070
0.12194011 0.074623957 0.39600003 6580070
0.12296121 0.074718185 0.39650002 6646116
0.12390643 0.074765295 0.39675003 6646116
0.12485273 0.074812405 0.39700001 6515300
0.1258793 0.074906625 0.39750001 6713709
0.12706749 0.075095072 0.39850003 6319464
0.12809953 0.075189292 0.39900002 6450537
0.12913378 0.075283512 0.39950001 6909035
0.13008884 0.075330622 0.39975002 6844014
0.13120879 0.07547196 0.40050003 6384744
0.13224958 0.07556618 0.40100002 5989988
0.13320954 0.07561329 0.40125 5989218
0.13417062 0.0756604 0.40150002 5856598
0.13513279 0.075707518 0.40175003 5790805
0.13601141 0.075707518 0.40175003 5658449
0.13697521 0.07575462 0.40200001 5592653
0.13828303 0.075990178 0.40325001 5526863
0.13951005 0.076178625 0.40425003 5592399
0.14048095 0.076225735 0.40450001 5525323
0.14145297 0.076272845 0.40475002 5591118
0.14233814 0.076272845 0.40475002 5263436
0.14322333 0.076272845 0.40475002 4935496
0.1440195 0.076225735 0.40450001 4869705
0.14472502 0.076131515 0.40400001 4540740
0.14551848 0.076084405 0.40375003 4672578
0.14640146 0.076084405 0.40375003 4344896
0.14728446 0.076084405 0.40375003 4475715
0.14816746 0.076084405 0.40375003 4212543
0.14914274 0.076131515 0.40400001 4213056
0.14928357 0.07575462 0.40200001 4868678
0.1485752 0.074953735 0.39775002 5196873
0.14944507 0.074953735 0.39775002 5659991
0.15031496 0.074953735 0.39775002 5793373
-0.19609801 0.070866577 0.37175003 7761517
-0.19554766 0.070961893 0.37225002 7368810
-0.19538747 0.071200177 0.37350002 7040102
-0.19522178 0.071438462 0.37475002 5723217
-0.19492094 0.071629092 0.37575001 5591116
-0.19513233 0.072010353 0.37775001 5853518
-0.19456339 0.072105668 0.37825003 5591118
-0.19399226 0.072200984 0.37875003 5525836
-0.19507645 0.072915845 0.38250002 5854801
-0.19436687 0.072963499 0.38275 7301736
-0.19365621 0.07301116 0.38300002 8221815
-0.19281861 0.07301116 0.38300002 8684419
-0.19198099 0.07301116 0.38300002 8750722
-0.19114336 0.07301116 0.38300002 7435632
-0.19018152 0.072963499 0.38275 6842725
-0.18909712 0.072868183 0.38225001 6908261
-0.18813801 0.072820529 0.38200003 6841698
-0.18718 0.072772868 0.38175002 6906978
-0.18622307 0.072725214 0.38150001 6906978
-0.18526727 0.07267756 0.38125002 6775905
-0.18431254 0.072629899 0.38100001 6578524
-0.18323851 0.072534584 0.38050002 6842723
-0.1822865 0.072486922 0.38025001 7237478
-0.18121631 0.072391614 0.37975001 7564906
-0.18026707 0.07234396 0.37950003 7433833
-0.17931888 0.072296299 0.37925002 7303019
-0.1783718 0.072248638 0.37900001 7171690
-0.17754292 0.072248638 0.37900001 7369067
-0.17659751 0.072200984 0.37875003 7434603
-0.17565316 0.072153322 0.37850001 7303276
-0.17459445 0.072058007 0.37800002 7631984
-0.17342299 0.071915038 0.37725002 7434605
-0.1723692 0.071819723 0.37675002 7697007
-0.17143139 0.071772061 0.37650001 7630701
-0.170608 0.071772061 0.37650001 7629678
-0.16967186 0.071724407 0.37625003 7565421
-0.16884902 0.071724407 0.37625003 7499628
-0.16791451 0.071676753 0.37600002 7433582
-0.1669811 0.071629092 0.37575001 7368812
-0.16604879 0.071581438 0.37550002 7631982
-0.16511758 0.071533777 0.37525001 7828591
-0.16418745 0.071486123 0.37500003 7500653
-0.16325842 0.071438462 0.37475002 7238251
-0.16233046 0.0713908 0.37450001 7828591
-0.16140364 0.071343146 0.37425002 7565421
-0.16047788 0.071295492 0.37400001 7238000
-0.15955323 0.071247838 0.37375003 7107184
-0.15820496 0.071009547 0.37250003 7369839
-0.15696777 0.070818916 0.37150002 7369069
-0.15594514 0.070723601 0.37100002 7631984
-0.15502922 0.070675947 0.37075001 7697777
-0.15411441 0.070628293 0.37050003 7697777
-0.15320069 0.070580631 0.37025002 7631982
-0.15239096 0.070580631 0.37025002 7303017
-0.15168358 0.070628293 0.37050003 7632241
-0.1508733 0.070628293 0.37050003 7500655
-0.14996175 0.070580631 0.37025002 7632241
-0.14915203 0.070580631 0.37025002 7632239
-0.1483423 0.070580631 0.37025002 7500653
-0.14743294 0.07053297 0.37 7500653
-0.14652468 0.070485316 0.36975002 7566448
-0.14561753 0.070437655 0.36950001 7171690
-0.14471146 0.070390001 0.36925003 7566448
-0.14390393 0.070390001 0.36925003 7631982
-0.14299949 0.07034234 0.36900002 7566443
-0.14228883 0.070390001 0.36925003 7632236
-0.14148128 0.070390001 0.36925003 7238251
-0.14076898 0.070437655 0.36950001 7304816
-0.14005558 0.070485316 0.36975002 7435632
-0.13924694 0.070485316 0.36975002 7500655
-0.1384383 0.070485316 0.36975002 7369586
-0.13762967 0.070485316 0.36975002 7369839
-0.13598844 0.070056394 0.36750001 7369067
-0.13490885 0.069913432 0.36675003 7172458
-0.13410676 0.069913432 0.36675003 7303274
-0.13321382 0.069865771 0.36650002 7631982
-0.13250262 0.069913432 0.36675003 7566189
-0.13170053 0.069913432 0.36675003 7566191
-0.13098767 0.069961086 0.36700001 7631984
-0.13018505 0.069961086 0.36700001 7566446
-0.12947057 0.07000874 0.36725003 7238253
-0.1286674 0.07000874 0.36725003 7369839
-0.12786423 0.07000874 0.36725003 7697259
-0.12706105 0.07000874 0.36725003 7632236
-0.12625788 0.07000874 0.36725003 7762798
-0.12536931 0.069961086 0.36700001 7566189
-0.12456668 0.069961086 0.36700001 7369067
-0.12367976 0.069913432 0.36675003 7566446
-0.12279391 0.069865771 0.36650002 7565421
-0.12190916 0.069818109 0.36625001 7828593
-0.12102553 0.069770455 0.36600003 7762800
-0.12022508 0.069770455 0.36600003 7763570
-0.11934306 0.069722794 0.36575001 7369839
-0.11854317 0.069722794 0.36575001 7369837
-0.11774328 0.069722794 0.36575001 7566700
-0.1169434 0.069722794 0.36575001 7501423
-0.1161435 0.069722794 0.36575001 7435630
-0.11518594 0.069627479 0.36525002 7566446
-0.11407396 0.069436848 0.36425 7369837
-0.1131996 0.069389194 0.36400002 7369839
-0.11232633 0.069341533 0.36375001 7500653
-0.11153082 0.069341533 0.36375001 7435630
-0.1107353 0.069341533 0.36375001 7566446
-0.11001535 0.069389194 0.36400002 7632239
-0.10921929 0.069389194 0.36400002 7238253
-0.10842323 0.069389194 0.36400002 7566448
-0.10762716 0.069389194 0.36400002 7631984
-0.10675772 0.069341533 0.36375001 7697775
-0.1059622 0.069341533 0.36375001 7566189
-0.10516668 0.069341533 0.36375001 7500655
-0.10437117 0.069341533 0.36375001 7566448
-0.10357565 0.069341533 0.36375001 7566446
-0.10285078 0.069389194 0.36400002 7632493
-0.10205472 0.069389194 0.36400002 7632236
-0.10125866 0.069389194 0.36400002 7566446
-0.10046259 0.069389194 0.36400002 7566446
-0.099598065 0.069341533 0.36375001 7631982
-0.098802552 0.069341533 0.36375001 7631982
-0.097939678 0.069293879 0.36350003 7435632
-0.097077899 0.069246225 0.36325002 7107437
-0.096217208 0.069198564 0.36300001 7501425
-0.095357619 0.06915091 0.36275002 7566446
-0.094564289 0.06915091 0.36275002 7566446
-0.093706332 0.069103248 0.36250001 7566700
-0.092913538 0.069103248 0.36250001 7632493
-0.092057228 0.069055595 0.36225003 7631982
-0.091264993 0.069055595 0.36225003 7632241
-0.090410322 0.069007933 0.36200002 7501425
-0.089618631 0.069007933 0.36200002 7239023
-0.088765599 0.068960279 0.36175001 7370607
-0.087974451 0.068960279 0.36175001 7501423
-0.087183312 0.068960279 0.36175001 7501423
-0.086392164 0.068960279 0.36175001 7828593
-0.085601024 0.068960279 0.36175001 7697777
-0.084809877 0.068960279 0.36175001 7566965
-0.084018737 0.068960279 0.36175001 7369586
-0.083227597 0.068960279 0.36175001 7633011
-0.082436457 0.068960279 0.36175001 7501423
-0.081701733 0.069007933 0.36200002 7501423
-0.080910049 0.069007933 0.36200002 7435632
-0.080118358 0.069007933 0.36200002 7567218
-0.079326667 0.069007933 0.36200002 7633009
-0.078480743 0.068960279 0.36175001 7698034
-0.077689596 0.068960279 0.36175001 7763825
-0.076845311 0.068912625 0.36150002 7567216
-0.076002121 0.068864964 0.36125001 7763827
-0.075160027 0.06881731 0.36100003 7763570
-0.074267507 0.068721987 0.36050001 7698034
-0.073479101 0.068721987 0.36050001 7829620
-0.072640285 0.068674333 0.36025003 7698034
-0.071852423 0.068674333 0.36025003 7632758
-0.071064562 0.068674333 0.36025003 7633011
-0.0702767 0.068674333 0.36025003 7698551
-0.069488838 0.068674333 0.36025003 7698804
-0.068700977 0.068674333 0.36025003 7633011
-0.067913108 0.068674333 0.36025003 7567218
-0.067125253 0.068674333 0.36025003 7633011
-0.066337392 0.068674333 0.36025003 7698032
-0.065504037 0.068626672 0.36000001 7633009
-0.064716719 0.068626672 0.36000001 7763825
-0.063929401 0.068626672 0.36000001 7829618
-0.063142091 0.068626672 0.36000001 7698804
-0.06239808 0.068674333 0.36025003 7633011
-0.061610211 0.068674333 0.36025003 7633011
-0.060822353 0.068674333 0.36025003 7763825
-0.060034491 0.068674333 0.36025003 7763825
-0.059246629 0.068674333 0.36025003 7698804
-0.058418192 0.068626672 0.36000001 7698804
-0.057630878 0.068626672 0.36000001 7502195
-0.056843564 0.068626672 0.36000001 7567986
-0.05605625 0.068626672 0.36000001 7502195
-0.055230554 0.068579018 0.35975 7502195
-0.05444378 0.068579018 0.35975 7763827
-0.053657014 0.068579018 0.35975 7763827
-0.052870244 0.068579018 0.35975 7501942
-0.052083477 0.068579018 0.35975 7698804
-0.051296704 0.068579018 0.35975 7961206
-0.050509937 0.068579018 0.35975 7961206
-0.049757726 0.068626672 0.36000001 7829620
-0.049004421 0.068674333 0.36025003 7961206
-0.048250012 0.068721987 0.36050001 7698804
-0.04749452 0.068769649 0.36075002 7699574
-0.046705566 0.068769649 0.36075002 7567988
-0.045916609 0.068769649 0.36075002 7830390
-0.045096375 0.068721987 0.36050001 7961206
-0.04430797 0.068721987 0.36050001 7961206
-0.043489382 0.068674333 0.36025003 7829618
-0.042671885 0.068626672 0.36000001 7698804
-0.041884571 0.068626672 0.36000001 7830390
-0.041097254 0.068626672 0.36000001 7567988
-0.04030994 0.068626672 0.36000001 7567988
-0.03955007 0.068674333 0.36025003 7370609
-0.038789105 0.068721987 0.36050001 7501425
-0.038027052 0.068769649 0.36075002 7500653
-0.037238095 0.068769649 0.36075002 7435630
-0.036449138 0.068769649 0.36075002 7304816
-0.035660185 0.068769649 0.36075002 7304814
-0.03513705 0.069293879 0.36350003 7239021
-0.034365699 0.069341533 0.36375001 7041642
-0.023512673 0.05661701 0.29700002 6778470
-0.022266539 0.055139627 0.28925002 6645346
-0.021297382 0.054281794 0.28475001 7040102
-0.020329757 0.053376302 0.28 6778724
-0.019594168 0.053042702 0.27825001 6909540
-0.018951522 0.052947387 0.27775002 7040872
-0.018327575 0.052899726 0.2775 6121053
-0.017640863 0.052661441 0.27625 4476998
-0.016990453 0.052518468 0.2755 2964526
-0.016373068 0.052470814 0.27525002 1846809
-0.0157711 0.052470814 0.27525002 1452567
-0.015169133 0.052470814 0.27525002 1517330
-0.014553932 0.052423153 0.27500001 1318918
-0.01395251 0.052423153 0.27500001 3356948
-0.013351089 0.052423153 0.27500001 5788956
-0.012749667 0.052423153 0.27500001 6642968
-0.01215929 0.052470814 0.27525002 7564320
-0.011557322 0.052470814 0.27525002 8024092
-0.010955353 0.052470814 0.27525002 8155930
-0.010362788 0.052518468 0.2755 8155664
-0.0097691305 0.052566126 0.27575001 8287248
-0.0091660684 0.052566126 0.27575001 8484112
-0.0085707707 0.052613787 0.27600002 8352526
-0.0079671619 0.052613787 0.27600002 8549389
-0.0073635532 0.052613787 0.27600002 8614669
-0.0067599444 0.052613787 0.27600002 8745485
-0.0061563361 0.052613787 0.27600002 8680208
-0.0055527273 0.052613787 0.27600002 8680208
-0.0049491185 0.052613787 0.27600002 8614669
-0.0043455102 0.052613787 0.27600002 8745485
-0.0037385121 0.052566126 0.27575001 8876809
-0.0031354504 0.052566126 0.27575001 9007882
-0.0025323885 0.052566126 0.27575001 8679176
-0.0019293267 0.052566126 0.27575001 8811024
-0.0013262648 0.052566126 0.27575001 8614415
-0.000723203 0.052566126 0.27575001 8811024
-0.00012003229 0.052518468 0.2755 9072653
0.00048204497 0.052470814 0.27525002 9072138
0.0010830287 0.052423153 0.27500001 9072653
0.0016844502 0.052423153 0.27500001 9007378
0.0022837939 0.052375499 0.27475002 8942096
0.0028846688 0.052375499 0.27475002 8942096
0.0034855437 0.052375499 0.27475002 9007889
0.0040864185 0.052375499 0.27475002 8876555
0.004691558 0.052423153 0.27500001 8942348
0.0052977917 0.052470814 0.27525002 8942350
0.0058997599 0.052470814 0.27525002 8877071
0.0065017287 0.052470814 0.27525002 8942350
0.0071036969 0.052470814 0.27525002 8942350
0.0077056647 0.052470814 0.27525002 8876303
0.008307633 0.052470814 0.27525002 8811024
0.0089096017 0.052470814 0.27525002 8614417
0.0095115695 0.052470814 0.27525002 8680208
0.010113538 0.052470814 0.27525002 8680210
0.010725238 0.052518468 0.2755 8679442
0.011327754 0.052518468 0.2755 8548626
0.011930268 0.052518468 0.2755 8417036
0.012532784 0.052518468 0.2755 8417038
0.01312338 0.052470814 0.27525002 8744458
0.013712881 0.052423153 0.27500001 8744206
0.014301291 0.052375499 0.27475002 8416270
0.014888605 0.052327842 0.27450001 8350477
0.015488934 0.052327842 0.27450001 8285200
0.016089262 0.052327842 0.27450001 8219407
0.016689589 0.052327842 0.27450001 8088336
0.017289918 0.052327842 0.27450001 8022543
0.017906539 0.052375499 0.27475002 7891477
0.018507415 0.052375499 0.27475002 7694879
0.019125674 0.052423153 0.27500001 7302181
0.019727098 0.052423153 0.27500001 6119200
0.020346999 0.052470814 0.27525002 1913102
0.020948969 0.052470814 0.27525002 139019
0.021590084 0.052566126 0.27575001 402709
0.022233387 0.052661441 0.27625 1191455
0.022899544 0.052804414 0.27700001 5594963
0.023526557 0.052852072 0.27725002 6910823
0.024132898 0.052852072 0.27725002 7305066
0.024694623 0.052756753 0.27675 7502445
0.025277019 0.052709099 0.27650002 7042407
0.025881721 0.052709099 0.27650002 7107687
0.026486423 0.052709099 0.27650002 6975333
0.027091125 0.052709099 0.27650002 6514528
0.02809649 0.053471621 0.28050002 6317149
0.029324057 0.054615393 0.28650001 6316381
0.030525597 0.055663861 0.29200003 6185565
0.04583814 0.07034234 0.36900002 6251358
0.04667674 0.070390001 0.36925003 6251356
0.047548585 0.070485316 0.36975002 6316379
0.048389915 0.07053297 0.37 6185563
0.04926559 0.070628293 0.37050003 6185563
0.050109655 0.070675947 0.37075001 6317149
0.050989155 0.070771255 0.37125 6185563
0.051870842 0.070866577 0.37175003 6251356
0.052754711 0.070961893 0.37225002 6185563
0.053604793 0.071009547 0.37250003 6251356
0.054492496 0.071104862 0.37300003 6120540
0.055345308 0.071152516 0.37325001 6251356
0.056236837 0.071247838 0.37375003 6185563
0.057092384 0.071295492 0.37400001 6055260
0.057910319 0.071295492 0.37400001 5989467
0.058767512 0.071343146 0.37425002 6055262
0.059665598 0.071438462 0.37475002 6186335
0.060525522 0.071486123 0.37500003 6317149
0.061386541 0.071533777 0.37525001 6251356
0.062248651 0.071581438 0.37550002 6186335
0.063111849 0.071629092 0.37575001 6185565
0.063976146 0.071676753 0.37600002 6447710
0.064841546 0.071724407 0.37625003 6447710
0.065708026 0.071772061 0.37650001 6382172
0.066575609 0.071819723 0.37675002 6382174
0.067444272 0.071867377 0.377 6251358
0.068359315 0.071962699 0.37750003 6120540
0.06923072 0.072010353 0.37775001 6251356
0.070103221 0.072058007 0.37800002 6251358
0.0709299 0.072058007 0.37800002 6185565
0.071804039 0.072105668 0.37825003 6317151
0.07263127 0.072105668 0.37825003 6317921
0.073507048 0.072153322 0.37850001 6054747
0.074383922 0.072200984 0.37875003 6120540
0.075261883 0.072248638 0.37900001 6120542
0.076140948 0.072296299 0.37925002 6251358
0.077021107 0.07234396 0.37950003 6251358
0.077953637 0.072439268 0.38000003 6185565
0.078836516 0.072486922 0.38025001 6185565
0.079720505 0.072534584 0.38050002 5988956
0.080605581 0.072582245 0.38075003 6054749
0.081491739 0.072629899 0.38100001 6251358
0.082379006 0.07267756 0.38125002 6054749
0.083267361 0.072725214 0.38150001 6251358
0.084211923 0.072820529 0.38200003 6185565
0.085103005 0.072868183 0.38225001 6120542
0.085938983 0.072868183 0.38225001 6120542
0.086831719 0.072915845 0.38250002 6317921
0.08766824 0.072915845 0.38250002 6054747
0.0885626 0.072963499 0.38275 6054749
0.089399673 0.072963499 0.38275 6121055
0.090295687 0.07301116 0.38300002 6120542
0.091728166 0.073487729 0.38550001 6121055
0.092571244 0.073487729 0.38550001 6054749
0.09347491 0.07353539 0.38575003 6120542
0.094379663 0.073583044 0.38600001 6186333
0.095223844 0.073583044 0.38600001 6448735
0.096130244 0.073630705 0.38625002 6251358
0.097100504 0.073726021 0.38675001 6317151
0.098009638 0.073773675 0.38700002 6317921
0.098919854 0.073821329 0.38725001 6317921
0.099831179 0.07386899 0.38750002 6317151
0.10074359 0.073916651 0.38775003 6119770
0.10159159 0.073916651 0.38775003 6579300
0.10250564 0.073964305 0.38800001 6251105
0.10335419 0.073964305 0.38800001 6383714
0.10420275 0.073964305 0.38800001 6384227
0.1050513 0.073964305 0.38800001 6121055
0.10589985 0.073964305 0.38800001 6186335
0.10674839 0.073964305 0.38800001 6449507
0.10842889 0.074536197 0.39100003 6515813
0.10935387 0.074583851 0.39125001 6252390
0.11035037 0.074679166 0.39175001 6318183
0.11127809 0.074726827 0.39200002 6383461
0.11220692 0.074774481 0.39225003 6252388
0.11313682 0.074822135 0.39250001 6253158
0.11399521 0.074822135 0.39250001 6187878
0.11492676 0.074869797 0.39275002 6450790
0.1158594 0.074917451 0.39300001 6515300
0.11671888 0.074917451 0.39300001 6580840
0.11765316 0.074965112 0.39325002 6450539
0.11858854 0.075012773 0.39350003 6318953
0.11998035 0.075346373 0.39525002 6515049
0.12099762 0.075441688 0.39575002 6710888
0.12194011 0.075489342 0.39600003 6579300
0.12288368 0.075536996 0.39625001 6317151
0.12390643 0.075632319 0.39675003 6383461
0.12485273 0.075679973 0.39700001 6449254
0.12580013 0.075727634 0.39725003 6318181
0.12690806 0.075870603 0.39800003 6253160
0.12801927 0.076013573 0.39875001 6582127
0.12905297 0.076108895 0.39925003 6383978
0.13008884 0.076204203 0.39975002 6646635
0.13112688 0.076299518 0.40025002 6515562
0.13216712 0.076394834 0.40075001 6187367
0.13320954 0.076490149 0.40125 6121572
0.13417062 0.076537803 0.40150002 5988954
0.13504869 0.076537803 0.40150002 5856598
0.13601141 0.076585464 0.40175003 5789778
0.13689004 0.076585464 0.40175003 5855571
0.13785438 0.076633118 0.40200001 5527117
0.13959633 0.077109694 0.40450001 5526606
0.14048095 0.077109694 0.40450001 5395279
0.14145297 0.077157356 0.40475002 5395026
0.14233814 0.077157356 0.40475002 5460815
0.14322333 0.077157356 0.40475002 5196871
0.14410852 0.077157356 0.40475002 4869705
0.14490415 0.077109694 0.40450001 4673096
0.14569868 0.077062041 0.40425003 4737347
0.14649211 0.077014379 0.40400001 4737599
0.14746685 0.077062041 0.40425003 4540990
0.14835094 0.077062041 0.40425003 4409922
0.14932732 0.077109694 0.40450001 4737347
0.14937642 0.076680779 0.40225002 4933440
0.14866859 0.075870603 0.39800003 5197125
0.14944507 0.075822942 0.39775002 5856600
0.15031496 0.075822942 0.39775002 5923676
0.1510898 0.075775288 0.39750001 5923676
-0.19717586 0.071775369 0.37225002 7170148
-0.19649364 0.071823575 0.37250003 7630699
-0.1958103 0.071871772 0.37275001 7237224
-0.19551826 0.072064593 0.37375003 5986387
-0.19548225 0.07235381 0.37525001 5656911
-0.19518034 0.072546631 0.37625003 5656911
-0.1950032 0.07278765 0.37750003 5591118
-0.19456339 0.072932258 0.37825003 5723217
-0.19565688 0.073655315 0.38200003 5854801
-0.19507645 0.073751718 0.38250002 6644317
-0.19436687 0.073799923 0.38275 6841696
-0.1935298 0.073799923 0.38275 8816258
-0.19281861 0.073848128 0.38300002 8816005
-0.19198099 0.073848128 0.38300002 7961206
-0.19114336 0.073848128 0.38300002 6908259
-0.19018152 0.073799923 0.38275 7104355
-0.18909712 0.073703513 0.38225001 6841696
-0.18813801 0.073655315 0.38200003 6841696
-0.18718 0.073607109 0.38175002 6841183
-0.18622307 0.073558904 0.38150001 6644319
-0.18526727 0.073510706 0.38125002 6644066
-0.18431254 0.073462494 0.38100001 6842466
-0.18335891 0.073414296 0.38075003 6711907
-0.18240637 0.073366091 0.38050002 7105895
-0.18133561 0.073269688 0.38000003 7565419
-0.1803858 0.073221475 0.37975001 7499626
-0.17931888 0.073125072 0.37925002 7237478
-0.1783718 0.073076867 0.37900001 7171431
-0.17742583 0.073028669 0.37875003 7500653
-0.17648093 0.072980464 0.37850001 7237483
-0.17553715 0.072932258 0.37825003 7631984
-0.17447896 0.072835848 0.37775001 7762800
-0.17330806 0.072691232 0.377 7499628
-0.1723692 0.072643034 0.37675002 7566191
-0.17143139 0.072594829 0.37650001 7565938
-0.17049472 0.072546631 0.37625003 7368810
-0.16967186 0.072546631 0.37625003 7434603
-0.16873682 0.072498426 0.37600002 7566191
-0.16791451 0.072498426 0.37600002 7697007
-0.1669811 0.072450221 0.37575001 7565421
-0.16604879 0.072402015 0.37550002 7566191
-0.16511758 0.07235381 0.37525001 7499628
-0.16418745 0.072305612 0.37500003 7631982
-0.16325842 0.072257407 0.37475002 7566446
-0.16233046 0.072209202 0.37450001 7631982
-0.16140364 0.072160996 0.37425002 7500653
-0.16058515 0.072160996 0.37425002 7369069
-0.15965995 0.072112791 0.37400001 7500655
-0.15873584 0.072064593 0.37375003 7500655
-0.15686214 0.071582548 0.37125 7762798
-0.15584004 0.071486145 0.37075001 7368812
-0.15492469 0.07143794 0.37050003 7566191
-0.15411441 0.07143794 0.37050003 7762800
-0.15320069 0.071389735 0.37025002 7762798
-0.15239096 0.071389735 0.37025002 7566191
-0.15158123 0.071389735 0.37025002 7500653
-0.1507715 0.071389735 0.37025002 7566446
-0.14996175 0.071389735 0.37025002 7566448
-0.14915203 0.071389735 0.37025002 7238253
-0.14824212 0.071341529 0.37 7304816
-0.14733332 0.071293332 0.36975002 7566448
-0.14642562 0.071245126 0.36950001 7566189
-0.145519 0.071196921 0.36925003 7762798
-0.14461349 0.071148716 0.36900002 7631982
-0.14380649 0.071148716 0.36900002 7500655
-0.14299949 0.071148716 0.36900002 7566448
-0.1421925 0.071148716 0.36900002 7566189
-0.14138548 0.071148716 0.36900002 7500653
-0.14067374 0.071196921 0.36925003 7107437
-0.13996089 0.071245126 0.36950001 7370609
-0.1391528 0.071245126 0.36950001 7107437
-0.13834471 0.071245126 0.36950001 7369586
-0.13753662 0.071245126 0.36950001 7369586
-0.13645099 0.071100511 0.36875001 7238253
-0.13481688 0.070666678 0.36650002 7434603
-0.13392392 0.070618473 0.36625001 7434603
-0.13312294 0.070618473 0.36625001 7566189
-0.13232195 0.070618473 0.36625001 7632239
-0.13161075 0.070666678 0.36650002 7566446
-0.13089846 0.070714891 0.36675003 7566189
-0.13009638 0.070714891 0.36675003 7566446
-0.12938243 0.070763089 0.36700001 7239021
-0.12857981 0.070763089 0.36700001 7435630
-0.12777719 0.070763089 0.36700001 7762798
-0.12697455 0.070763089 0.36700001 7631982
-0.12617193 0.070763089 0.36700001 7369067
-0.12528391 0.070714891 0.36675003 7500653
-0.12448183 0.070714891 0.36675003 7566700
-0.12359545 0.070666678 0.36650002 7565419
-0.12271015 0.070618473 0.36625001 7566189
-0.12182596 0.070570275 0.36600003 7566189
-0.12094285 0.07052207 0.36575001 7631982
-0.12014295 0.07052207 0.36575001 7500653
-0.11934306 0.07052207 0.36575001 7369067
-0.11854317 0.07052207 0.36575001 7566448
-0.11774328 0.07052207 0.36575001 7500653
-0.1169434 0.07052207 0.36575001 7632493
-0.11606412 0.070473865 0.3655 7500653
-0.11518594 0.070425667 0.36525002 7632239
-0.11415226 0.070281051 0.36450002 7566446
-0.1131996 0.070184648 0.36400002 7566446
-0.11232633 0.070136435 0.36375001 7369839
-0.11153082 0.070136435 0.36375001 7566446
-0.1107353 0.070136435 0.36375001 7238251
-0.10993978 0.070136435 0.36375001 7501423
-0.10921929 0.070184648 0.36400002 7631984
-0.10842323 0.070184648 0.36400002 7566191
-0.10755324 0.070136435 0.36375001 7697777
-0.10675772 0.070136435 0.36375001 7631982
-0.1059622 0.070136435 0.36375001 7500653
-0.10509441 0.070088238 0.36350003 7566448
-0.10429944 0.070088238 0.36350003 7435632
-0.10357565 0.070136435 0.36375001 7501423
-0.10278014 0.070136435 0.36375001 7631982
-0.10198462 0.070136435 0.36375001 7631982
-0.10118911 0.070136435 0.36375001 7697775
-0.10039359 0.070136435 0.36375001 7369839
-0.099529617 0.070088238 0.36350003 7435632
-0.098734647 0.070088238 0.36350003 7566189
-0.097872317 0.070040032 0.36325002 7566446
-0.097077899 0.070040032 0.36325002 7370607
-0.096217208 0.069991827 0.36300001 7435632
-0.095357619 0.069943629 0.36275002 7697777
-0.094499111 0.069895424 0.36250001 7697775
-0.093706332 0.069895424 0.36250001 7632239
-0.092849463 0.069847219 0.36225003 7567216
-0.092057228 0.069847219 0.36225003 7632241
-0.091202006 0.069799013 0.36200002 7632241
-0.090347879 0.069750808 0.36175001 7632241
-0.089556739 0.069750808 0.36175001 7763827
-0.088765599 0.069750808 0.36175001 7632239
-0.087913655 0.06970261 0.36150002 7567218
-0.087123059 0.06970261 0.36150002 7369839
-0.08633247 0.06970261 0.36150002 7763570
-0.085541874 0.06970261 0.36150002 7828593
-0.084751271 0.06970261 0.36150002 7698034
-0.084018737 0.069750808 0.36175001 7567218
-0.083227597 0.069750808 0.36175001 7370609
-0.082436457 0.069750808 0.36175001 7370609
-0.08164531 0.069750808 0.36175001 7370607
-0.080854163 0.069750808 0.36175001 7501423
-0.080063023 0.069750808 0.36175001 7633011
-0.079271883 0.069750808 0.36175001 7698034
-0.07842651 0.06970261 0.36150002 7698034
-0.077635907 0.06970261 0.36150002 7435632
-0.076792166 0.069654405 0.36125001 7501423
-0.075949527 0.0696062 0.36100003 7567218
-0.075107977 0.069557995 0.36075002 7763825
-0.074267507 0.069509789 0.36050001 7895154
-0.073428147 0.069461592 0.36025003 7698032
-0.072640285 0.069461592 0.36025003 7633009
-0.071852423 0.069461592 0.36025003 7763825
-0.071064562 0.069461592 0.36025003 7763825
-0.0702767 0.069461592 0.36025003 7829872
-0.069488838 0.069461592 0.36025003 7763825
-0.0686533 0.069413386 0.36000001 7830388
-0.067865983 0.069413386 0.36000001 7567216
-0.067078665 0.069413386 0.36000001 7698802
-0.066291355 0.069413386 0.36000001 7763825
-0.065504037 0.069413386 0.36000001 7829620
-0.064716719 0.069413386 0.36000001 7567218
-0.063929401 0.069413386 0.36000001 7633009
-0.063142091 0.069413386 0.36000001 7763825
-0.062354773 0.069413386 0.36000001 7698032
-0.061567456 0.069413386 0.36000001 7763825
-0.060780142 0.069413386 0.36000001 7763568
-0.059992827 0.069413386 0.36000001 7829620
-0.059164394 0.069365181 0.35975 7698804
-0.058377624 0.069365181 0.35975 7829620
-0.057590853 0.069365181 0.35975 7829363
-0.056764618 0.069316976 0.35950002 7895156
-0.055978395 0.069316976 0.35950002 7763825
-0.055192176 0.069316976 0.35950002 7698802
-0.05440595 0.069316976 0.35950002 7763827
-0.053619727 0.069316976 0.35950002 7698551
-0.052833509 0.069316976 0.35950002 7567988
-0.052083477 0.069365181 0.35975 7567988
-0.051296704 0.069365181 0.35975 7829620
-0.050509937 0.069365181 0.35975 7633011
-0.049757726 0.069413386 0.36000001 7830390
-0.049004421 0.069461592 0.36025003 7830390
-0.048250012 0.069509789 0.36050001 7698802
-0.047461603 0.069509789 0.36050001 7830388
-0.046673197 0.069509789 0.36050001 7961206
-0.045884788 0.069509789 0.36050001 7961206
-0.045096375 0.069509789 0.36050001 7830390
-0.044277243 0.069461592 0.36025003 7830390
-0.043459203 0.069413386 0.36000001 7961206
-0.042642251 0.069365181 0.35975 7829620
-0.041855484 0.069365181 0.35975 7830390
-0.041068714 0.069365181 0.35975 7371122
-0.040281944 0.069365181 0.35975 7567988
-0.039522622 0.069413386 0.36000001 7239023
-0.038762208 0.069461592 0.36025003 7435630
-0.038000695 0.069509789 0.36050001 7567216
-0.037238095 0.069557995 0.36075002 7501425
-0.035684898 0.0696062 0.36100003 7369069
-0.035112884 0.070040032 0.36325002 7107435
-0.024498463 0.056542989 0.29325002 6908259
-0.023511371 0.055723522 0.289 7040102
-0.02250329 0.054807652 0.28425002 6711137
-0.02155447 0.053988185 0.28 6842977
-0.020848623 0.053747166 0.27875 6777950
-0.020184547 0.053602561 0.27800003 6976099
-0.019558959 0.053554356 0.27775002 5397582
-0.018883288 0.053361535 0.27675 3096372
-0.018195484 0.053120516 0.2755 2177323
-0.017577004 0.053072318 0.27525002 1125398
-0.016975036 0.053072318 0.27525002 927506
-0.016373068 0.053072318 0.27525002 1910792
-0.015756775 0.053024113 0.27500001 3488013
-0.015155354 0.053024113 0.27500001 5787675
-0.014553932 0.053024113 0.27500001 7300383
-0.01395251 0.053024113 0.27500001 7760924
-0.013351089 0.053024113 0.27500001 7958301
-0.012749667 0.053024113 0.27500001 8024598
-0.012148246 0.053024113 0.27500001 8484114
-0.011546824 0.053024113 0.27500001 8548622
-0.010955353 0.053072318 0.27525002 8680210
-0.010353385 0.053072318 0.27525002 8811026
-0.0097602727 0.053120516 0.2755 8876817
-0.0091577582 0.053120516 0.2755 8877071
-0.0085630063 0.053168725 0.27575001 8942864
-0.0079599451 0.053168725 0.27575001 8942864
-0.0073635532 0.05321693 0.27600002 8877069
-0.0067599444 0.05321693 0.27600002 8942348
-0.0061563361 0.05321693 0.27600002 8876817
-0.0055527273 0.05321693 0.27600002 8876817
-0.0049491185 0.05321693 0.27600002 8942348
-0.0043455102 0.05321693 0.27600002 8876809
-0.0037385121 0.053168725 0.27575001 8942087
-0.0031354504 0.053168725 0.27575001 9007880
-0.0025323885 0.053168725 0.27575001 8876817
-0.0019293267 0.053168725 0.27575001 8876817
-0.0013262648 0.053168725 0.27575001 8876555
-0.00072254729 0.053120516 0.2755 8942348
-0.00011992338 0.053072318 0.27525002 8942089
0.00048204497 0.053072318 0.27525002 9007880
0.0010830287 0.053024113 0.27500001 9073675
0.001682919 0.052975912 0.27475002 9007376
0.0022817156 0.052927706 0.27450001 9073682
0.0028820438 0.052927706 0.27450001 9205009
0.0034823718 0.052927706 0.27450001 9073682
0.0040826998 0.052927706 0.27450001 9139477
0.0046872934 0.052975912 0.27475002 9073423
0.0052929795 0.053024113 0.27500001 9073936
0.0058944011 0.053024113 0.27500001 9008657
0.0064958227 0.053024113 0.27500001 8942862
0.0070972443 0.053024113 0.27500001 8943114
0.0076986654 0.053024113 0.27500001 8942864
0.0083000874 0.053024113 0.27500001 8877071
0.0088934172 0.052975912 0.27475002 8877069
0.0094942916 0.052975912 0.27475002 8811276
0.010104352 0.053024113 0.27500001 8877323
0.010705774 0.053024113 0.27500001 8746255
0.011317475 0.053072318 0.27525002 8548622
0.011919443 0.053072318 0.27525002 8876817
0.012521411 0.053072318 0.27525002 8942350
0.01312338 0.053072318 0.27525002 8876303
0.013712881 0.053024113 0.27500001 8679438
0.014301291 0.052975912 0.27475002 8351495
0.014888605 0.052927706 0.27450001 8351495
0.015488934 0.052927706 0.27450001 8351245
0.016089262 0.052927706 0.27450001 8351506
0.016689589 0.052927706 0.27450001 8548626
0.017289918 0.052927706 0.27450001 8548372
0.017906539 0.052975912 0.27475002 8285204
0.018507415 0.052975912 0.27475002 8153877
0.01910829 0.052975912 0.27475002 8088336
0.019727098 0.053024113 0.27500001 8154131
0.020328518 0.053024113 0.27500001 7563555
0.020948969 0.053072318 0.27525002 6381345
0.021550937 0.053072318 0.27525002 4803610
0.022173025 0.053120516 0.2755 2238987
0.022796206 0.053168725 0.27575001 728594
0.023420485 0.05321693 0.27600002 467483
0.024024094 0.05321693 0.27600002 994078
0.024627702 0.05321693 0.27600002 2571052
0.025231309 0.05321693 0.27600002 5267279
0.025858318 0.053265128 0.27625 6516063
0.026462473 0.053265128 0.27625 7305066
0.027066629 0.053265128 0.27625 7305064
0.027670784 0.053265128 0.27625 7106917
0.02827494 0.053265128 0.27625 6646366
0.029271118 0.053988185 0.28 6251356
0.030603882 0.055289689 0.28675002 6184793
0.031830024 0.056350168 0.29225001 6317149
0.047516435 0.071245126 0.36950001 6185563
0.048389915 0.071341529 0.37 6185563
0.049199101 0.071341529 0.37 6251356
0.050075866 0.07143794 0.37050003 6317149
0.050954822 0.071534351 0.37100002 6251356
0.051835958 0.071630754 0.37150002 6447965
0.05271928 0.071727164 0.37200001 6185565
0.053604793 0.071823575 0.37250003 6251358
0.054492496 0.071919978 0.37300003 6185563
0.055345308 0.071968183 0.37325001 6185563
0.056199219 0.072016388 0.37350002 6185565
0.057054222 0.072064593 0.37375003 6448737
0.057910319 0.072112791 0.37400001 6317149
0.058767512 0.072160996 0.37425002 6514528
0.05962579 0.072209202 0.37450001 6251356
0.060485169 0.072257407 0.37475002 6185563
0.061345644 0.072305612 0.37500003 6317149
0.062248651 0.072402015 0.37550002 6185563
0.063111849 0.072450221 0.37575001 6317151
0.063933611 0.072450221 0.37575001 6382174
0.064798459 0.072498426 0.37600002 6382172
0.065664403 0.072546631 0.37625003 6447965
0.066487253 0.072546631 0.37625003 6251356
0.067354828 0.072594829 0.37650001 6448735
0.068223499 0.072643034 0.37675002 6579551
0.069139086 0.072739445 0.37725002 6382174
0.070010491 0.07278765 0.37750003 6185565
0.070882984 0.072835848 0.37775001 6185565
0.071709119 0.072835848 0.37775001 6382174
0.072583266 0.072884053 0.37800002 6119772
0.0734585 0.072932258 0.37825003 6054496
0.074334823 0.072980464 0.37850001 6317668
0.07521224 0.073028669 0.37875003 5988703
0.076090753 0.073076867 0.37900001 6317921
0.077021107 0.073173277 0.37950003 6251358
0.077902347 0.073221475 0.37975001 6185565
0.078836516 0.073317885 0.38025001 6186335
0.079720505 0.073366091 0.38050002 6251105
0.080552652 0.073366091 0.38050002 6448737
0.081438273 0.073414296 0.38075003 6316381
0.082324982 0.073462494 0.38100001 6382174
0.083267361 0.073558904 0.38150001 6382174
0.084211923 0.073655315 0.38200003 6317151
0.085103005 0.073703513 0.38225001 6054749
0.085938983 0.073703513 0.38225001 6054747
0.08677496 0.073703513 0.38225001 6120540
0.087610938 0.073703513 0.38225001 5989469
0.088446908 0.073703513 0.38225001 5989469
0.089282885 0.073703513 0.38225001 6055262
0.090177804 0.073751718 0.38250002 6054749
0.091490224 0.074137352 0.38450003 6251356
0.092511222 0.074281961 0.38525003 6185563
0.093414329 0.074330166 0.38550001 6251356
0.094257414 0.074330166 0.38550001 6185817
0.095162176 0.074378371 0.38575003 6251356
0.096130244 0.074474774 0.38625002 6251358
0.09703774 0.07452298 0.38650003 6382174
0.098009638 0.07461939 0.38700002 6447965
0.098919854 0.074667588 0.38725001 6185563
0.099831179 0.074715793 0.38750002 6251358
0.10074359 0.074763998 0.38775003 6448737
0.10159159 0.074763998 0.38775003 6448737
0.1024396 0.074763998 0.38775003 6120802
0.1032876 0.074763998 0.38775003 6252388
0.10413561 0.074763998 0.38775003 6317668
0.10498361 0.074763998 0.38775003 6186335
0.10583162 0.074763998 0.38775003 6383714
0.10674839 0.074812204 0.38800001 6252641
0.1077356 0.074908607 0.38850001 6187618
0.1090045 0.075197831 0.39000002 6253158
0.11027995 0.075487055 0.39150003 6449254
0.11127809 0.075583465 0.39200002 6515047
0.11220692 0.075631671 0.39225003 6120802
0.11313682 0.075679868 0.39250001 6187365
0.11399521 0.075679868 0.39250001 6187618
0.11492676 0.075728074 0.39275002 6383714
0.1157857 0.075728074 0.39275002 6383461
0.11664464 0.075728074 0.39275002 6383463
0.11757836 0.075776272 0.39300001 6383463
0.1185132 0.075824484 0.39325002 6383978
0.11998035 0.076210111 0.39525002 6449767
0.12099762 0.076306514 0.39575002 6514277
0.12194011 0.076354727 0.39600003 6645863
0.12288368 0.076402925 0.39625001 6515047
0.12382835 0.07645113 0.39650002 6317668
0.12477411 0.076499335 0.39675003 6515047
0.12572096 0.076547533 0.39700001 6515300
0.12674862 0.076643944 0.39750001 6515560
0.12793902 0.076836757 0.39850003 6515562
0.12897216 0.076933168 0.39900002 6318951
0.13000748 0.077029571 0.39950001 6582123
0.13112688 0.077174187 0.40025002 6253160
0.13224958 0.077318795 0.40100002 6122087
0.13320954 0.077367 0.40125 6253158
0.13417062 0.077415206 0.40150002 6120542
0.13504869 0.077415206 0.40150002 6316379
0.13592677 0.077415206 0.40150002 5921364
0.13680485 0.077415206 0.40150002 5724244
0.13768293 0.077415206 0.40150002 5526863
0.13959633 0.077993646 0.40450001 5330508
0.14056778 0.078041852 0.40475002 5264461
0.14145297 0.078041852 0.40475002 5198670
0.14233814 0.078041852 0.40475002 5263691
0.14322333 0.078041852 0.40475002 5526090
0.14410852 0.078041852 0.40475002 5263688
0.14499371 0.078041852 0.40475002 4738117
0.14587888 0.078041852 0.40475002 4803140
0.14667341 0.077993646 0.40450001 4934471
0.14755805 0.077993646 0.40450001 4409154
0.14853443 0.078041852 0.40475002 4343361
0.1495119 0.078090057 0.40500003 4868930
0.15039764 0.078090057 0.40500003 4868160
0.14997597 0.077415206 0.40150002 5000516
0.14953901 0.076740354 0.39800003 5066312
0.15031496 0.076692149 0.39775002 6120542
0.15186356 0.076595746 0.39725003 6119519
-0.19717586 0.072588854 0.37225002 7565419
-0.19662552 0.072686352 0.37275001 7434605
-0.19594164 0.072735101 0.37300003 6316124
-0.19564903 0.072930098 0.37400001 5656909
-0.19587296 0.073320098 0.37600002 5656911
-0.19569908 0.073563851 0.37725002 5459279
-0.19564891 0.073856354 0.37875003 5656658
-0.19610651 0.074343853 0.38125002 5986387
-0.19565688 0.074490108 0.38200003 6052950
-0.19494894 0.074538849 0.38225001 7302247
-0.19423993 0.074587606 0.38250002 7829363
-0.1935298 0.074636348 0.38275 8686469
-0.19281861 0.074685104 0.38300002 8422274
-0.19198099 0.074685104 0.38300002 7367789
-0.1910186 0.074636348 0.38275 7104104
-0.19005732 0.074587606 0.38250002 6841445
-0.18897346 0.074490108 0.38200003 6513503
-0.18801488 0.074441351 0.38175002 6776927
-0.18705741 0.074392602 0.38150001 6775903
-0.18622307 0.074392602 0.38150001 6643806
-0.18526727 0.074343853 0.38125002 6644319
-0.18443348 0.074343853 0.38125002 6711909
-0.18347929 0.074295104 0.38100001 7040874
-0.18252622 0.074246354 0.38075003 7171433
-0.18157421 0.074197605 0.38050002 7368042
-0.18050456 0.074100107 0.38000003 7302247
-0.17943709 0.074002609 0.37950003 7303017
-0.1783718 0.073905103 0.37900001 7368810
-0.17742583 0.073856354 0.37875003 7434605
-0.17648093 0.073807605 0.37850001 7500655
-0.17542112 0.073710106 0.37800002 7303019
-0.17436351 0.073612601 0.37750003 7499628
-0.17319314 0.073466353 0.37675002 7630701
-0.1722548 0.073417604 0.37650001 7499628
-0.17131758 0.073368855 0.37625003 7565421
-0.17049472 0.073368855 0.37625003 7303017
-0.16955912 0.073320098 0.37600002 7303274
-0.16873682 0.073320098 0.37600002 7434605
-0.16780286 0.073271349 0.37575001 7630701
-0.16687001 0.0732226 0.37550002 7630701
-0.16593824 0.073173851 0.37525001 7762800
-0.16500758 0.073125102 0.37500003 7762798
-0.16407798 0.073076352 0.37475002 7499626
-0.16325842 0.073076352 0.37475002 7566189
-0.16233046 0.073027596 0.37450001 7435630
-0.16151145 0.073027596 0.37450001 7370091
-0.16058515 0.072978854 0.37425002 7500907
-0.15976667 0.072978854 0.37425002 7500653
-0.15884201 0.072930098 0.37400001 7631982
-0.15802409 0.072930098 0.37400001 7697775
-0.15584004 0.072296351 0.37075001 7369067
-0.15492469 0.072247602 0.37050003 7697777
-0.15411441 0.072247602 0.37050003 7894386
-0.15320069 0.072198853 0.37025002 7828593
-0.15239096 0.072198853 0.37025002 7697777
-0.15158123 0.072198853 0.37025002 7566189
-0.1507715 0.072198853 0.37025002 7697775
-0.14996175 0.072198853 0.37025002 7369837
-0.14905131 0.072150096 0.37 7304814
-0.14814197 0.072101355 0.36975002 7369837
-0.14723371 0.072052598 0.36950001 7172460
-0.14632656 0.072003849 0.36925003 7631982
-0.14542048 0.0719551 0.36900002 7762798
-0.14461349 0.0719551 0.36900002 7697005
-0.14370905 0.071906351 0.36875001 7303274
-0.1429026 0.071906351 0.36875001 7369839
-0.14209615 0.071906351 0.36875001 7435630
-0.14138548 0.0719551 0.36900002 7369067
-0.14067374 0.072003849 0.36925003 7500653
-0.13986619 0.072003849 0.36925003 7435632
-0.1391528 0.072052598 0.36950001 7500402
-0.1382511 0.072003849 0.36925003 7500402
-0.13744356 0.072003849 0.36925003 7303276
-0.1365435 0.0719551 0.36900002 7762547
-0.13463296 0.071370102 0.36600003 7828591
-0.13383251 0.071370102 0.36600003 7763052
-0.13303207 0.071370102 0.36600003 7632236
-0.13223164 0.071370102 0.36600003 7566700
-0.13143121 0.071370102 0.36600003 7632236
-0.13071999 0.071418844 0.36625001 7434603
-0.1300077 0.071467601 0.36650002 7566189
-0.12929431 0.07151635 0.36675003 7697007
-0.12849222 0.07151635 0.36675003 7762800
-0.12769015 0.07151635 0.36675003 7566191
-0.12688807 0.07151635 0.36675003 7566189
-0.12608598 0.07151635 0.36675003 7434605
-0.1251985 0.071467601 0.36650002 7500653
-0.12431212 0.071418844 0.36625001 7566446
-0.12342683 0.071370102 0.36600003 7500653
-0.12262639 0.071370102 0.36600003 7566446
-0.12174274 0.071321346 0.36575001 7501677
-0.12094285 0.071321346 0.36575001 7434857
-0.12006082 0.071272597 0.3655 7763052
-0.11926148 0.071272597 0.3655 7697005
-0.11854317 0.071321346 0.36575001 7697005
-0.11774328 0.071321346 0.36575001 7566189
-0.1169434 0.071321346 0.36575001 7697775
-0.11606412 0.071272597 0.3655 7631984
-0.11518594 0.071223848 0.36525002 7434605
-0.11423056 0.071126349 0.36475003 7369069
-0.11327734 0.071028844 0.36425 7238000
-0.11232633 0.070931345 0.36375001 7238000
-0.11153082 0.070931345 0.36375001 7369839
-0.1107353 0.070931345 0.36375001 7566446
-0.10993978 0.070931345 0.36375001 7631982
-0.10914427 0.070931345 0.36375001 7762798
-0.10834876 0.070931345 0.36375001 7697007
-0.10755324 0.070931345 0.36375001 7566448
-0.10668435 0.070882604 0.36350003 7566446
-0.10588938 0.070882604 0.36350003 7566189
-0.10509441 0.070882604 0.36350003 7566191
-0.10429944 0.070882604 0.36350003 7500655
-0.10350447 0.070882604 0.36350003 7435630
-0.10263886 0.070833847 0.36325002 7632239
-0.10184444 0.070833847 0.36325002 7632236
-0.10105002 0.070833847 0.36325002 7565673
-0.10025559 0.070833847 0.36325002 7631982
-0.099461161 0.070833847 0.36325002 7239021
-0.098666742 0.070833847 0.36325002 7369837
-0.097804956 0.070785098 0.36300001 7435630
-0.097011082 0.070785098 0.36300001 7239021
-0.096150942 0.070736349 0.36275002 7239021
-0.095291898 0.070687599 0.36250001 7369839
-0.094499111 0.070687599 0.36250001 7435632
-0.093641713 0.07063885 0.36225003 7435632
-0.092849463 0.07063885 0.36225003 7698034
-0.091993697 0.070590101 0.36200002 7632241
-0.091139019 0.070541345 0.36175001 7566195
-0.090347879 0.070541345 0.36175001 7631988
-0.089494854 0.070492603 0.36150002 7697781
-0.088704258 0.070492603 0.36150002 7566195
-0.087913655 0.070492603 0.36150002 7631988
-0.087123059 0.070492603 0.36150002 7631988
-0.08633247 0.070492603 0.36150002 7631984
-0.085541874 0.070492603 0.36150002 7697775
-0.084751271 0.070492603 0.36150002 7698032
-0.083960675 0.070492603 0.36150002 7501425
-0.083170086 0.070492603 0.36150002 7239536
-0.08237949 0.070492603 0.36150002 7436402
-0.081588887 0.070492603 0.36150002 7501425
-0.080798291 0.070492603 0.36150002 7435630
-0.080007702 0.070492603 0.36150002 7501423
-0.079217106 0.070492603 0.36150002 7501425
-0.07837227 0.070443846 0.36125001 7763827
-0.077582218 0.070443846 0.36125001 7698034
-0.076739028 0.070395097 0.36100003 7698034
-0.075896926 0.070346348 0.36075002 7763825
-0.07505592 0.070297599 0.36050001 7633009
-0.074267507 0.070297599 0.36050001 7698804
-0.073428147 0.07024885 0.36025003 7633011
-0.072640285 0.07024885 0.36025003 7763825
-0.071852423 0.07024885 0.36025003 7830388
-0.071064562 0.07024885 0.36025003 7698802
-0.0702767 0.07024885 0.36025003 7567216
-0.069488838 0.07024885 0.36025003 7763825
-0.068700977 0.07024885 0.36025003 7567216
-0.067913108 0.07024885 0.36025003 7567218
-0.067078665 0.070200093 0.36000001 7633011
-0.066291355 0.070200093 0.36000001 7567218
-0.065504037 0.070200093 0.36000001 7633011
-0.064716719 0.070200093 0.36000001 7633011
-0.063929401 0.070200093 0.36000001 7633009
-0.063142091 0.070200093 0.36000001 7961204
-0.062354773 0.070200093 0.36000001 8026740
-0.061567456 0.070200093 0.36000001 8026740
-0.060780142 0.070200093 0.36000001 7829363
-0.059951164 0.070151344 0.35975 7960953
-0.059164394 0.070151344 0.35975 7501425
-0.058337059 0.070102595 0.35950002 8026742
-0.057550836 0.070102595 0.35950002 7829620
-0.056764618 0.070102595 0.35950002 7961206
-0.055939466 0.070053846 0.35925001 7763827
-0.055192176 0.070102595 0.35950002 7830390
-0.05440595 0.070102595 0.35950002 7830390
-0.053619727 0.070102595 0.35950002 7830390
-0.052833509 0.070102595 0.35950002 7698551
-0.052047286 0.070102595 0.35950002 7632758
-0.051296704 0.070151344 0.35975 7763574
-0.050509937 0.070151344 0.35975 8026999
-0.049757726 0.070200093 0.36000001 7830390
-0.049004421 0.07024885 0.36025003 7961976
-0.048216555 0.07024885 0.36025003 7633011
-0.047461603 0.070297599 0.36050001 7830390
-0.046673197 0.070297599 0.36050001 7765367
-0.045884788 0.070297599 0.36050001 7698804
-0.045065105 0.07024885 0.36025003 7961206
-0.044246517 0.070200093 0.36000001 7698802
-0.043459203 0.070200093 0.36000001 7633009
-0.042642251 0.070151344 0.35975 7829618
-0.041826397 0.070102595 0.35950002 7829618
-0.041040175 0.070102595 0.35950002 7567218
-0.040253952 0.070102595 0.35950002 7698034
-0.039495174 0.070151344 0.35975 7698034
-0.038735308 0.070200093 0.36000001 7632241
-0.036449138 0.070346348 0.36075002 7237230
-0.025781132 0.057183832 0.29325002 7237224
-0.024754019 0.056306329 0.28875002 7236454
-0.023746591 0.055428829 0.28425002 7039075
-0.022799522 0.054648824 0.28025001 7105892
-0.022166828 0.054600075 0.28 7237478
-0.021227304 0.053771324 0.27575001 6581345
