# .PCD v0.7 - Point Cloud Data file format
VERSION 0.7
FIELDS x y z rgb
SIZE 4 4 4 4
TYPE F F F U
COUNT 1 1 1 1
WIDTH 1140
HEIGHT 1
VIEWPOINT 0 0 0 1 0 0 0
POINTS 1140
DATA ascii
-0.20323996 0.061835546 0.30350003 4082516
-0.20257622 0.061835546 0.30350003 3952983
-0.20174614 0.06178461 0.30325001 4413536
-0.20091714 0.061733671 0.303 4412512
-0.20025449 0.061733671 0.303 3887967
-0.19942716 0.061682742 0.30275002 3494492
-0.19860092 0.061631802 0.30250001 3230805
-0.19810294 0.061682742 0.30275002 2770508
-0.19956036 0.062344901 0.30600002 3228744
-0.20084104 0.062956125 0.30900002 3358793
-0.20113695 0.06326174 0.31050003 2636871
-0.20061927 0.063312672 0.31075001 2570297
-0.1658022 0.0665216 0.32650003 3026472
-0.16597298 0.066878147 0.32825002 3092265
-0.16384679 0.067183755 0.32975 3223853
-0.16324931 0.067234695 0.33000001 2960938
-0.16277385 0.067336567 0.33050001 2566950
-0.15988222 0.067642182 0.33200002 2960681
-0.15927599 0.067693114 0.33225003 3026472
-0.15854937 0.067693114 0.33225003 2895143
-0.15806024 0.067794986 0.33275002 2895143
-0.15756893 0.067896858 0.33325002 2698536
-0.15707543 0.067998722 0.33375001 2960938
-0.15657975 0.068100594 0.33425 2894888
-0.13776906 0.078644216 0.38600001 2039579
-0.13603806 0.078134865 0.38350001 2630944
-0.13502309 0.078032993 0.38300002 3223851
-0.13418546 0.078032993 0.38300002 4276793
-0.13334785 0.078032993 0.38300002 4474172
-0.13373865 0.079764798 0.39150003 5000521
-0.13288245 0.079764798 0.39150003 5263691
-0.027752172 0.057200424 0.28075001 2369823
-0.026944848 0.056792941 0.27875 6582626
-0.026240751 0.056589201 0.27775002 5727832
-0.025425663 0.056130782 0.2755 3558458
-0.024823148 0.056130782 0.2755 1783844
-0.024242615 0.056181718 0.27575001 1124115
-0.023639552 0.056181718 0.27575001 1777409
-0.023057377 0.056232657 0.27600002 4473612
-0.022453768 0.056232657 0.27600002 6381595
-0.021850159 0.056232657 0.27600002 7104787
-0.021227304 0.056181718 0.27575001 7826965
-0.020605544 0.056130782 0.2755 8353559
-0.020003028 0.056130782 0.2755 8287246
-0.019382911 0.05607985 0.27525002 8549135
-0.018763883 0.05602891 0.27500001 8680208
-0.018162461 0.05602891 0.27500001 8614669
-0.017561039 0.05602891 0.27500001 8746507
-0.016975036 0.05607985 0.27525002 8811530
-0.016387938 0.056130782 0.2755 8877323
-0.015785422 0.056130782 0.2755 8942862
-0.015182909 0.056130782 0.2755 8746507
-0.014593625 0.056181718 0.27575001 8943114
-0.013990563 0.056181718 0.27575001 9074186
-0.013375363 0.056130782 0.2755 9008909
-0.012772849 0.056130782 0.2755 8943116
-0.012170333 0.056130782 0.2755 9008909
-0.011557322 0.05607985 0.27525002 9008655
-0.010955353 0.05607985 0.27525002 9139727
-0.010353385 0.05607985 0.27525002 9139981
-0.0097514167 0.05607985 0.27525002 9271567
-0.009149448 0.05607985 0.27525002 9271567
-0.0085474802 0.05607985 0.27525002 9139979
-0.0079455115 0.05607985 0.27525002 9205257
-0.0073435432 0.05607985 0.27525002 9271563
-0.006741575 0.05607985 0.27525002 9337358
-0.0061396067 0.05607985 0.27525002 9271565
-0.0055376384 0.05607985 0.27525002 9139718
-0.0049356697 0.05607985 0.27525002 9270786
-0.0043337015 0.05607985 0.27525002 9270534
-0.0037317334 0.05607985 0.27525002 9139464
-0.0031297652 0.05607985 0.27525002 9205261
-0.0025277967 0.05607985 0.27525002 9335823
-0.0019258284 0.05607985 0.27525002 9467157
-0.00132386 0.05607985 0.27525002 9336077
-0.0007218917 0.05607985 0.27525002 9270534
-0.00011992338 0.05607985 0.27525002 9270534
0.00048204497 0.05607985 0.27525002 9270280
0.0010840134 0.05607985 0.27525002 9467659
0.0016859815 0.05607985 0.27525002 9402638
0.0022858717 0.05602891 0.27500001 9271565
0.0028846688 0.055977978 0.27475002 9403149
0.0034823718 0.055927042 0.27450001 9337610
0.0040789815 0.055876102 0.27425 9468431
0.004674498 0.055825174 0.27400002 9468431
0.0052689207 0.055774234 0.27375001 9402638
0.0058676084 0.055774234 0.27375001 9468431
0.0064662965 0.055774234 0.27375001 9599247
0.0070649842 0.055774234 0.27375001 9599245
0.0076636719 0.055774234 0.27375001 9402636
0.0082699051 0.055825174 0.27400002 9599245
0.0088691404 0.055825174 0.27400002 9403151
0.0094597349 0.055774234 0.27375001 9403151
0.010058424 0.055774234 0.27375001 9534224
0.010657111 0.055774234 0.27375001 9599499
0.011255799 0.055774234 0.27375001 9599245
0.011876138 0.055876102 0.27425 9467911
0.01247592 0.055876102 0.27425 9337610
0.013087621 0.055927042 0.27450001 9468946
0.01368795 0.055927042 0.27450001 9468946
0.014288277 0.055927042 0.27450001 9336845
0.014888605 0.055927042 0.27450001 9468942
0.015474826 0.055876102 0.27425 9468942
0.016059956 0.055825174 0.27400002 9468942
0.016659191 0.055825174 0.27400002 9272079
0.017258424 0.055825174 0.27400002 9337872
0.017857658 0.055825174 0.27400002 9336845
0.018473733 0.055876102 0.27425 9534222
0.019090902 0.055927042 0.27450001 9468944
0.019709164 0.055977978 0.27475002 9272331
0.020328518 0.05602891 0.27500001 9468431
0.02092994 0.05602891 0.27500001 9206286
0.02153136 0.05602891 0.27500001 9206288
0.022132784 0.05602891 0.27500001 9468946
0.022734204 0.05602891 0.27500001 9206288
0.023335626 0.05602891 0.27500001 9075220
0.023937047 0.05602891 0.27500001 9271827
0.02453847 0.05602891 0.27500001 9009679
0.025162745 0.05607985 0.27525002 8812813
0.025764715 0.05607985 0.27525002 8746766
0.026390629 0.056130782 0.2755 8812048
0.026993144 0.056130782 0.2755 8680462
0.02759566 0.056130782 0.2755 8484114
0.028198175 0.056130782 0.2755 8286746
0.028800689 0.056130782 0.2755 7564070
0.029429888 0.056181718 0.27575001 4474643
0.03003295 0.056181718 0.27575001 1779719
0.030663786 0.056232657 0.27600002 664336
0.031295717 0.056283589 0.27625 1456162
0.032015346 0.056487333 0.27725002 4149830
0.032709938 0.056640141 0.27800003 6645596
0.03331792 0.056640141 0.27800003 6842973
0.033895392 0.056589201 0.27775002 6382424
0.034533884 0.056640141 0.27800003 6250840
0.035615902 0.057404168 0.28175002 6119254
0.037389457 0.059237845 0.29075003 6184790
0.056626808 0.080172285 0.39350003 6250836
0.057487395 0.080172285 0.39350003 6316629
0.059133314 0.080070406 0.39300001 6251356
0.060194217 0.079204507 0.38875002 6513755
0.061005149 0.079153568 0.38850001 6447962
0.06181499 0.079102635 0.38825002 6513755
0.062623739 0.079051703 0.38800001 6381915
0.063431397 0.079000771 0.38775003 6448737
0.064030737 0.078695156 0.38625002 6317149
0.064581528 0.078338608 0.38450003 6711391
0.06537988 0.078287669 0.38425002 6579551
0.066177152 0.078236736 0.384 6580321
0.066973321 0.078185804 0.38375002 6448735
0.067724228 0.078083932 0.38325003 6711137
0.068517663 0.078032993 0.38300002 6711137
0.06876675 0.077370837 0.37975001 6711137
0.06923072 0.07696335 0.37775001 6842466
0.070056856 0.07696335 0.37775001 6842466
0.070836075 0.076912418 0.37750003 6842466
0.071661666 0.076912418 0.37750003 6842466
0.072487257 0.076912418 0.37750003 7039075
0.073312841 0.076912418 0.37750003 7039075
0.073549248 0.076301187 0.37450001 7236708
0.074219339 0.076148391 0.37375003 6974052
0.07498654 0.076097451 0.37350002 6974052
0.0757019 0.075995579 0.37300003 6908259
0.076415077 0.075893715 0.37250003 6842725
0.07707423 0.075740904 0.37175003 7105640
0.077782482 0.075639032 0.37125 7170150
0.07854148 0.0755881 0.37100002 7301734
0.07924591 0.075486228 0.37050003 7105892
0.080002166 0.075435288 0.37025002 7106149
0.080429941 0.075078741 0.36850002 7105892
0.080960281 0.074824065 0.36725003 7105892
0.081652135 0.074722201 0.36675003 7106149
0.082398005 0.074671261 0.36650002 7040356
0.083086036 0.074569389 0.36600003 6908770
0.08377187 0.074467517 0.3655 7171688
0.084397674 0.074314713 0.36475003 7105895
0.08507859 0.074212842 0.36425 6909286
0.085698389 0.074060038 0.36350003 7040102
0.086314894 0.073907234 0.36275002 7302247
0.086988159 0.073805362 0.36225003 7171431
0.087659232 0.073703483 0.36175001 7303271
0.088328116 0.073601618 0.36125001 7237476
0.089056507 0.073550686 0.36100003 7171942
0.08972156 0.073448807 0.36050001 7106149
0.090384439 0.073346943 0.36000001 6909286
0.091045126 0.073245071 0.35950002 7171688
0.091192745 0.072735719 0.35700002 7433574
0.091844685 0.072633848 0.35650003 7499367
0.09255939 0.072582908 0.35625002 7105122
0.093207501 0.072481044 0.35575002 7434087
0.093919471 0.072430104 0.35550001 7237224
0.09456376 0.072328232 0.35500002 7237478
0.095273003 0.072277293 0.35475001 7105638
0.095981151 0.07222636 0.35450003 7302249
0.096619964 0.072124489 0.354 7302247
0.097256593 0.072022617 0.35350001 7237224
0.097960368 0.071971685 0.35325003 7302247
0.098663047 0.071920753 0.35300002 7434603
0.099294208 0.071818881 0.35250002 7171688
0.099994145 0.071767941 0.35225001 7171688
0.10069302 0.071717009 0.35200003 6975333
0.10124665 0.071564205 0.35125002 7303017
0.101797 0.071411394 0.35050002 7303017
0.10241723 0.071309529 0.35000002 7499878
0.10303527 0.071207657 0.34950003 7434087
0.10365111 0.071105778 0.34900001 7171685
0.10426479 0.071003914 0.34850001 7105892
0.10495161 0.070952974 0.34825 7237735
0.10556146 0.070851102 0.34775001 7237478
0.10616911 0.070749238 0.34725001 7040102
0.10685156 0.070698299 0.347 7237481
0.10745538 0.070596427 0.34650001 7303271
0.1081351 0.070545495 0.34625003 7171431
0.10873509 0.070443623 0.34575 7237224
0.10941207 0.070392691 0.34550002 7171685
0.1097691 0.070138015 0.34425002 7434085
0.11028118 0.069985203 0.34350002 7302499
0.1108708 0.069883339 0.34300002 7368292
0.11153957 0.069832399 0.34275001 7368292
0.11228917 0.069832399 0.34275001 7499878
0.11295631 0.069781467 0.34250003 7302497
0.11362235 0.069730528 0.34225002 7303271
0.1142873 0.069679588 0.34200001 7433833
0.11495116 0.069628663 0.34175003 7499367
0.11561392 0.069577724 0.34150001 7433574
0.11619043 0.069475852 0.34100002 7433574
0.11685045 0.069424912 0.34075001 7237481
0.11742312 0.069323048 0.34025002 7237481
0.11799359 0.069221176 0.33975002 7237224
0.11864924 0.069170237 0.33950001 7105638
0.11930382 0.069119304 0.33925003 7040104
0.11986881 0.069017433 0.33875 7433833
0.12052065 0.0689665 0.33850002 7499113
0.12090272 0.068762757 0.33750001 7433833
0.1211903 0.068508081 0.33625001 7302247
0.12183503 0.068457149 0.33600003 7303271
0.12238745 0.06835527 0.3355 7237478
0.12302945 0.068304338 0.33525002 7237478
0.12367034 0.068253398 0.33500001 7237478
0.12431015 0.068202466 0.33475003 7303528
0.12494885 0.068151534 0.33450001 7237735
0.12549254 0.068049662 0.33400002 7105638
0.12612851 0.067998722 0.33375001 7303017
0.1267634 0.06794779 0.33350003 7237224
0.1273016 0.067845918 0.333 7434087
0.12783764 0.067744046 0.33250001 6908516
0.12846816 0.067693114 0.33225003 7040356
0.12880592 0.067489371 0.33125001 7434087
0.12923709 0.067336567 0.33050001 7368294
0.12976328 0.067234695 0.33000001 7302247
0.13038613 0.067183755 0.32975 7499113
0.13100789 0.067132823 0.32950002 7499367
0.13162856 0.067081891 0.32925001 7236706
0.13224813 0.067030959 0.32900003 7171685
0.13286662 0.066980019 0.32875001 7171685
0.13348399 0.06692908 0.3285 7303271
0.13399816 0.066827208 0.32800001 7171431
0.13451013 0.066725343 0.32750002 7237224
0.13481347 0.0665216 0.32650003 6909286
0.13521621 0.066368796 0.32575002 6909286
0.13571998 0.066266924 0.32525003 7171431
0.13632643 0.066215985 0.32500002 7499626
0.13693178 0.066165052 0.32475001 7368040
0.13753605 0.06611412 0.32450002 7499113
0.13813922 0.066063181 0.32425001 7303017
0.13852718 0.065910377 0.32350001 7171688
0.13869667 0.065655701 0.32225001 7237224
0.13918515 0.065553829 0.32175002 7302501
0.1397801 0.065502889 0.3215 7171685
0.14048322 0.065502889 0.3215 7040356
0.14107655 0.065451957 0.32125002 7105895
0.14177912 0.065451957 0.32125002 7171431
0.14237081 0.065401018 0.32100001 7368294
0.14284998 0.065299153 0.32050002 7237224
0.14343892 0.065248214 0.32025 7105895
0.14391428 0.065146342 0.31975001 7237481
0.14438744 0.065044478 0.31925002 7433833
0.14497201 0.064993538 0.31900001 7104868
0.14555551 0.064942606 0.31875002 7237735
0.1462526 0.064942606 0.31875002 7303526
0.14683445 0.064891666 0.31850001 7303271
0.14741519 0.064840727 0.31825 7368294
0.14811119 0.064840727 0.31825 7499880
0.14869033 0.064789794 0.31800002 7434087
0.14926834 0.064738862 0.31775001 7237478
0.14984529 0.06468793 0.31750003 7434087
0.15042111 0.06463699 0.31725001 7434087
0.15111493 0.06463699 0.31725001 7237224
0.15168911 0.064586051 0.317 7171688
0.15238239 0.064586051 0.317 7237481
0.15295495 0.064535119 0.31675002 7434087
0.15340514 0.064433254 0.31625003 7630699
0.15385315 0.064331375 0.31575 7565160
0.15417661 0.064178579 0.31500003 7433833
0.1547426 0.064127639 0.31475002 7565158
0.15518403 0.064025767 0.31425002 7368292
0.15574729 0.063974828 0.31400001 7565673
0.15630946 0.063923895 0.31375003 7697259
0.15699564 0.063923895 0.31375003 7499880
0.15755615 0.063872963 0.31350002 7369064
0.15824178 0.063872963 0.31350002 7171688
0.15880065 0.063822024 0.31325001 7171688
0.15923116 0.063720152 0.31275001 7368810
0.15965948 0.063618287 0.31225002 7499880
0.16021399 0.063567348 0.31200001 7434087
0.1606385 0.063465476 0.31150001 7499626
0.16119026 0.063414536 0.31125 7303274
0.16174094 0.063363604 0.31100002 7303528
0.16229053 0.063312672 0.31075001 7697257
0.16283904 0.06326174 0.31050003 7763052
0.16351809 0.06326174 0.31050003 7433833
0.16419716 0.06326174 0.31050003 7303017
0.16474347 0.0632108 0.31025001 7566446
0.16542196 0.0632108 0.31025001 7303017
0.16596664 0.063159861 0.31 7566189
0.16651021 0.063108929 0.30975002 7237481
0.16651295 0.062854253 0.30850002 7171690
0.16678117 0.062701449 0.30775002 7303017
0.1673182 0.062650509 0.3075 7566189
0.16785412 0.062599577 0.30725002 7303271
0.16838893 0.062548637 0.30700001 7369319
0.16906035 0.062548637 0.30700001 7370091
0.16973175 0.062548637 0.30700001 7303274
0.17040317 0.062548637 0.30700001 7303017
0.17107455 0.062548637 0.30700001 7237481
0.17160612 0.062497709 0.30675003 7566189
0.17213656 0.062446769 0.30650002 7368812
0.17252497 0.062344901 0.30600002 7566191
0.17276971 0.062192094 0.30525002 7368810
0.17315319 0.062090226 0.30475003 7368294
0.17367709 0.062039286 0.30450001 7763052
0.174343 0.062039286 0.30450001 7697259
0.17500895 0.062039286 0.30450001 7303528
0.17567489 0.062039286 0.30450001 7237478
0.17648561 0.062090226 0.30475003 7565671
0.1772974 0.062141158 0.30500001 7303526
0.17796443 0.062141158 0.30500001 7172712
0.1787779 0.062192094 0.30525002 7041126
0.17929851 0.062141158 0.30500001 7041642
0.17996554 0.062141158 0.30500001 7172458
0.18048452 0.062090226 0.30475003 7237735
0.18085378 0.06198835 0.30425 7303528
0.18122086 0.061886478 0.30375001 7171688
0.18158577 0.06178461 0.30325001 7368810
0.18179822 0.061631802 0.30250001 7303271
0.18155505 0.061326195 0.30100003 7303526
0.18221334 0.061326195 0.30100003 7303526
0.18271971 0.061275259 0.30075002 7434087
0.18322502 0.061224319 0.30050001 7499113
0.18388219 0.061224319 0.30050001 7762287
0.18438588 0.061173387 0.30025002 7433835
0.18504252 0.061173387 0.30025002 7433833
0.18554454 0.061122451 0.30000001 7302247
0.18604547 0.061071511 0.29975 7566189
0.186701 0.061071511 0.29975 7698029
0.18720031 0.061020579 0.29950002 7434085
0.1878553 0.061020579 0.29950002 7434857
0.18835296 0.060969643 0.29925001 7303274
0.18884951 0.060918711 0.29900002 7171688
0.18934497 0.060867772 0.29875001 7434603
0.18983932 0.060816836 0.2985 7632236
0.19033262 0.060765903 0.29825002 7499880
0.19066472 0.060664035 0.29775003 7697257
0.19115524 0.060613096 0.29750001 7565671
0.1916447 0.06056216 0.29725 7499880
0.19213305 0.060511228 0.29700002 7565673
0.19262031 0.060460288 0.29675001 7499367
0.19310647 0.060409356 0.29650003 7565673
0.19342817 0.06030748 0.296 7303528
0.19391161 0.060256552 0.29575002 7369319
0.19439395 0.060205612 0.29550001 7303269
0.19487521 0.06015468 0.29525003 7303526
0.19535536 0.060103744 0.29500002 7369319
0.19600052 0.060103744 0.29500002 7303524
0.19647901 0.060052805 0.29475001 7370089
0.19712363 0.060052805 0.29475001 7303528
-0.20581175 0.060902853 0.29575002 3823457
-0.20846006 0.061881002 0.30050001 3364187
-0.20763002 0.061829522 0.30025002 3821910
-0.20697336 0.061829522 0.30025002 3689043
-0.20648851 0.061881002 0.30050001 3229008
-0.2058313 0.061881002 0.30050001 2834767
-0.20551552 0.061983969 0.30100003 3425617
-0.20502737 0.062035449 0.30125001 3227979
-0.20504695 0.062241379 0.30225003 2834763
-0.20472404 0.062344339 0.30275002 3295055
-0.20423043 0.062395819 0.303 3229262
-0.20373575 0.062447302 0.30325001 3492434
-0.20307253 0.062447302 0.30325001 3887190
-0.20240934 0.062447302 0.30325001 4019289
-0.20174614 0.062447302 0.30325001 4348002
-0.20091714 0.062395819 0.303 4348256
-0.20025449 0.062395819 0.303 4216416
-0.19959183 0.062395819 0.303 3428184
-0.19892918 0.062395819 0.303 2967885
-0.19859371 0.062498786 0.30350003 2901062
-0.20135377 0.063579895 0.30875 3032135
-0.20181599 0.063940272 0.31050003 2767687
-0.1756456 0.066102505 0.32100001 3027248
-0.16631001 0.067441024 0.32750002 3158058
-0.16384679 0.067904361 0.32975 3025704
-0.16324931 0.067955844 0.33000001 3092522
-0.16277385 0.068058804 0.33050001 2960936
-0.16217363 0.068110287 0.33075002 3092524
-0.16169435 0.068213254 0.33125001 2566950
-0.15903629 0.068316214 0.33175001 2764329
-0.15843007 0.068367697 0.33200002 2960428
-0.15794149 0.068470657 0.33250001 3026474
-0.15756893 0.068625107 0.33325002 2829352
-0.15719309 0.06877955 0.33400002 2894888
-0.13663818 0.078355148 0.38050002 1909020
-0.13580602 0.078355148 0.38050002 3290673
-0.13506256 0.078406632 0.38075003 4540222
-0.029646866 0.057916909 0.28125 0
-0.028980166 0.057813946 0.28075001 1119502
-0.028214615 0.05750506 0.27925003 6778470
-0.027480338 0.057247654 0.27800003 5989469
-0.026727358 0.05693876 0.27650002 3885888
-0.026004562 0.056681354 0.27525002 1389858
-0.025402592 0.056681354 0.27525002 1585438
-0.024823148 0.05673283 0.2755 3093274
-0.024220634 0.05673283 0.2755 4473360
-0.023639552 0.056784313 0.27575001 6316570
-0.023036491 0.056784313 0.27575001 7104789
-0.022453768 0.0568358 0.27600002 8023313
-0.021850159 0.0568358 0.27600002 8483094
-0.021227304 0.056784313 0.27575001 8483344
-0.020624243 0.056784313 0.27575001 8549135
-0.020003028 0.05673283 0.2755 8680975
-0.019382911 0.056681354 0.27525002 8746001
-0.018780941 0.056681354 0.27525002 8614921
-0.018162461 0.05662987 0.27500001 9008909
-0.017561039 0.05662987 0.27500001 8877071
-0.016975036 0.056681354 0.27525002 8877839
-0.016373068 0.056681354 0.27525002 8878093
-0.015785422 0.05673283 0.2755 8878093
-0.015182909 0.05673283 0.2755 8877839
-0.014580393 0.05673283 0.2755 9140241
-0.013977879 0.05673283 0.2755 9074188
-0.013375363 0.05673283 0.2755 8943112
-0.012761259 0.056681354 0.27525002 9140495
-0.01215929 0.056681354 0.27525002 9139977
-0.011557322 0.056681354 0.27525002 9139977
-0.010955353 0.056681354 0.27525002 9337360
-0.010353385 0.056681354 0.27525002 9337360
-0.0097425599 0.05662987 0.27500001 9336843
-0.0091411378 0.05662987 0.27500001 9337097
-0.0085397167 0.05662987 0.27500001 9205511
-0.0079382947 0.05662987 0.27500001 9337097
-0.0073368731 0.05662987 0.27500001 9140231
-0.0067354515 0.05662987 0.27500001 9008643
-0.0061340299 0.05662987 0.27500001 9336845
-0.0055326084 0.05662987 0.27500001 9205257
-0.0049311868 0.05662987 0.27500001 9336327
-0.0043297652 0.05662987 0.27500001 9532939
-0.0037283439 0.05662987 0.27500001 9467659
-0.0031269223 0.05662987 0.27500001 9336845
-0.002523205 0.05657839 0.27475002 9336847
-0.0019223301 0.05657839 0.27475002 9335823
-0.0013226576 0.05662987 0.27500001 9336847
-0.00072123599 0.05662987 0.27500001 9270280
-0.00011981445 0.05662987 0.27500001 9467659
0.0004816071 0.05662987 0.27500001 9336073
0.0010830287 0.05662987 0.27500001 9336325
0.0016844502 0.05662987 0.27500001 9336843
0.0022858717 0.05662987 0.27500001 9336845
0.0028846688 0.05657839 0.27475002 9271565
0.0034823718 0.056526907 0.27450001 9336843
0.0040752636 0.056423943 0.27400002 9402638
0.004670233 0.05637246 0.27375001 9402636
0.0052689207 0.05637246 0.27375001 9337610
0.0058622505 0.056320984 0.27350003 9468429
0.0064603915 0.056320984 0.27350003 9468429
0.0070585329 0.056320984 0.27350003 9402638
0.0076566734 0.056320984 0.27350003 9468431
0.0082548149 0.056320984 0.27350003 9468429
0.0088529559 0.056320984 0.27350003 9402636
0.0094510969 0.056320984 0.27350003 9403149
0.010040051 0.056269497 0.27325001 9402636
0.010637647 0.056269497 0.27325001 9599245
0.011235241 0.056269497 0.27325001 9533452
0.011843662 0.056320984 0.27350003 9598732
0.012464548 0.056423943 0.27400002 9665040
0.013075701 0.056475423 0.27425 9402636
0.013675482 0.056475423 0.27425 9534476
0.014275264 0.056475423 0.27425 9403151
0.014875045 0.056475423 0.27425 9534222
0.015460721 0.056423943 0.27400002 9600017
0.016059956 0.056423943 0.27400002 9534226
0.01664399 0.05637246 0.27375001 9337360
0.017242678 0.05637246 0.27375001 9468944
0.017857658 0.056423943 0.27400002 9600017
0.018473733 0.056475423 0.27425 9468433
0.019073514 0.056475423 0.27425 9468431
0.019691231 0.056526907 0.27450001 9534224
0.020310039 0.05657839 0.27475002 9468944
0.020910915 0.05657839 0.27475002 9468944
0.021511789 0.05657839 0.27475002 9468942
0.022112664 0.05657839 0.27475002 9468942
0.022713538 0.05657839 0.27475002 9403151
0.023314415 0.05657839 0.27475002 9337360
0.023915289 0.05657839 0.27475002 9206288
0.024516163 0.05657839 0.27475002 9206286
0.025139891 0.05662987 0.27500001 8878091
0.025741313 0.05662987 0.27500001 8812813
0.026366683 0.056681354 0.27525002 8878093
0.026968652 0.056681354 0.27525002 9008909
0.02757062 0.056681354 0.27525002 8746253
0.02817259 0.056681354 0.27525002 8812307
0.028800689 0.05673283 0.2755 8484112
0.029403206 0.05673283 0.2755 8419104
0.03003295 0.056784313 0.27575001 7300898
0.030636011 0.056784313 0.27575001 4934422
0.031267397 0.0568358 0.27600002 139008
0.031899869 0.056887276 0.27625 1060891
0.032562856 0.05699024 0.27675 2309676
0.03319807 0.057041723 0.27700001 5990487
0.033834375 0.057093207 0.27725002 6909790
0.034471769 0.057144687 0.2775 6711130
0.035110261 0.05719617 0.27775002 6250838
0.036199939 0.057968393 0.28150001 6185043
0.037436798 0.05894655 0.28625003 6053200
0.059344023 0.080054045 0.38875002 6054999
0.060155507 0.080002561 0.38850001 6186333
0.060965896 0.079951078 0.38825002 6316379
0.06181499 0.079951078 0.38825002 6513501
0.062623739 0.079899594 0.38800001 6382426
0.063431397 0.079848118 0.38775003 6645341
0.064072184 0.079590708 0.38650003 6645341
0.064581528 0.079178855 0.38450003 6448219
0.06537988 0.079127371 0.38425002 6447965
0.066134065 0.079024412 0.38375002 6645344
0.066929691 0.078972928 0.38350001 6579551
0.067724228 0.078921445 0.38325003 6579551
0.068517663 0.078869961 0.38300002 6711391
0.068630934 0.078046255 0.37900001 6841950
0.06923072 0.077788845 0.37775001 6842466
0.070010491 0.077737369 0.37750003 6579805
0.070836075 0.077737369 0.37750003 6645598
0.071661666 0.077737369 0.37750003 6908259
0.072487257 0.077737369 0.37750003 6842720
0.073312841 0.077737369 0.37750003 6974306
0.073500149 0.077068105 0.37425002 6777184
0.074219339 0.076965146 0.37375003 7040356
0.074936345 0.076862179 0.37325001 6842718
0.075651161 0.076759212 0.37275001 7040354
0.076363787 0.076656252 0.37225002 6974306
0.07707423 0.076553293 0.37175003 7236454
0.077834867 0.076501809 0.37150002 7171685
0.07854148 0.076398842 0.37100002 6974306
0.07924591 0.076295882 0.37050003 7105120
0.080002166 0.076244399 0.37025002 7236706
0.080429941 0.075884029 0.36850002 7302499
0.080905169 0.075575136 0.36700001 7302499
0.081596471 0.075472176 0.36650002 7171683
0.082341798 0.075420693 0.36625001 7105892
0.083029278 0.075317726 0.36575001 7105892
0.083714575 0.075214766 0.36525002 6974052
0.084397674 0.075111799 0.36475003 7040102
0.085020199 0.074957356 0.36400002 7171688
0.085698389 0.074854396 0.36350003 7105638
0.086314894 0.074699946 0.36275002 7303271
0.086988159 0.074596986 0.36225003 6908768
0.087659232 0.074494019 0.36175001 7303269
0.088328116 0.07439106 0.36125001 7171685
0.089056507 0.074339576 0.36100003 7303271
0.08972156 0.074236609 0.36050001 7302501
0.090321667 0.074082166 0.35975 7105122
0.090791866 0.073824756 0.3585 6974052
0.091256604 0.073567346 0.35725001 7171685
0.091909088 0.073464386 0.35675001 7368040
0.09255939 0.073361427 0.35625002 6908259
0.093207501 0.07325846 0.35575002 7040356
0.093919471 0.073206976 0.35550001 7105895
0.09456376 0.073104016 0.35500002 7302501
0.095273003 0.073052533 0.35475001 7368294
0.095981151 0.073001049 0.35450003 6973284
0.096619964 0.072898082 0.354 7171431
0.097325377 0.072846606 0.35375002 7237478
0.097960368 0.072743647 0.35325003 7433833
0.098663047 0.072692163 0.35300002 7171431
0.099364623 0.07264068 0.35275 7040872
0.10006512 0.072589196 0.35250002 6844515
0.10076453 0.072537713 0.35225001 7237735
0.10139076 0.072434753 0.35175002 7171431
0.10194221 0.072280303 0.35100001 7237478
0.10241723 0.072074383 0.35000002 7434085
0.10296156 0.071919933 0.34925002 7368292
0.10365111 0.071868449 0.34900001 7237478
0.10426479 0.07176549 0.34850001 7171685
0.10495161 0.071714006 0.34825 7237224
0.10556146 0.071611047 0.34775001 7171431
0.10616911 0.07150808 0.34725001 7171685
0.10685156 0.071456596 0.347 7171685
0.10745538 0.071353637 0.34650001 7171688
0.1081351 0.071302161 0.34625003 7171942
0.10873509 0.071199186 0.34575 7303271
0.10941207 0.07114771 0.34550002 7368294
0.10984881 0.070941783 0.34450001 7434087
0.11020091 0.070684373 0.34325001 7499365
0.1108708 0.070632897 0.34300002 7564388
0.11153957 0.070581414 0.34275001 7432802
0.11220726 0.07052993 0.34250003 7434083
0.11295631 0.07052993 0.34250003 7171683
0.11362235 0.070478447 0.34225002 7171942
0.1142873 0.070426963 0.34200001 7171431
0.11495116 0.070375487 0.34175003 7434087
0.11552928 0.07027252 0.34125 7367779
0.11619043 0.070221037 0.34100002 7499365
0.11676472 0.070118077 0.34050003 7434087
0.11742312 0.070066594 0.34025002 7434087
0.11799359 0.069963634 0.33975002 7105895
0.11864924 0.069912151 0.33950001 7040872
0.11930382 0.069860667 0.33925003 7106919
0.11986881 0.0697577 0.33875 7303271
0.12052065 0.069706224 0.33850002 7237478
0.12099228 0.069551781 0.33775002 7368810
0.12128041 0.069294371 0.33650002 7303019
0.12183503 0.069191404 0.33600003 7368040
0.12247866 0.06913992 0.33575001 7303271
0.12302945 0.069036961 0.33525002 7434603
0.12367034 0.068985477 0.33500001 7499113
0.12431015 0.068934001 0.33475003 7433320
0.12494885 0.068882518 0.33450001 7237224
0.12549254 0.06877955 0.33400002 7105895
0.12612851 0.068728067 0.33375001 7105895
0.12666838 0.068625107 0.33325002 7237478
0.1273016 0.068573624 0.333 7236454
0.12783764 0.068470657 0.33250001 7105895
0.12846816 0.068419181 0.33225003 7302501
0.12900035 0.068316214 0.33175001 7434087
0.12923709 0.068058804 0.33050001 7367781
0.12976328 0.067955844 0.33000001 7498343
0.13038613 0.067904361 0.32975 7367781
0.13100789 0.067852885 0.32950002 7433574
0.13172852 0.067852885 0.32950002 7368294
0.13234863 0.067801401 0.32925001 7171685
0.13296765 0.067749918 0.32900003 7499878
0.13348399 0.06764695 0.3285 7302499
0.13410029 0.067595474 0.32825002 7237478
0.13461281 0.067492515 0.32775003 7171688
0.13501993 0.067338064 0.32700002 6909286
0.13511243 0.067029171 0.32550001 7171688
0.13571998 0.066977695 0.32525003 7303017
0.13632643 0.066926211 0.32500002 7237226
0.13682637 0.066823252 0.32450002 7237478
0.13743009 0.066771768 0.32425001 7302499
0.13792621 0.066668801 0.32375002 7630183
0.13831307 0.066514358 0.32300001 7499367
0.13858908 0.066308431 0.32200003 7236454
0.13918515 0.066256948 0.32175002 7171431
0.1397801 0.066205464 0.3215 6974306
0.14048322 0.066205464 0.3215 7171685
0.14107655 0.066153988 0.32125002 7040102
0.14177912 0.066153988 0.32125002 6909540
0.14237081 0.066102505 0.32100001 6909538
0.14284998 0.065999538 0.32050002 7106149
0.14343892 0.065948054 0.32025 7040356
0.14380176 0.065793619 0.31950003 7303271
0.14438744 0.065742135 0.31925002 7236708
0.14497201 0.065690644 0.31900001 7499626
0.14555551 0.065639168 0.31875002 7434087
0.1462526 0.065639168 0.31875002 7434087
0.14683445 0.065587685 0.31850001 7369064
0.147531 0.065587685 0.31850001 7237478
0.14811119 0.065536201 0.31825 7303271
0.14869033 0.065484725 0.31800002 7434087
0.14926834 0.065433241 0.31775001 7499878
0.14984529 0.065381758 0.31750003 7237474
0.15053965 0.065381758 0.31750003 7237476
0.15111493 0.065330274 0.31725001 7303271
0.15180875 0.065330274 0.31725001 7368810
0.15238239 0.065278791 0.317 7303017
0.15295495 0.065227315 0.31675002 7499626
0.15352641 0.065175831 0.31650001 7303019
0.15397497 0.065072872 0.31600001 7368810
0.15442133 0.064969905 0.31550002 7434087
0.1548655 0.064866945 0.31500003 7565671
0.15530749 0.064763978 0.3145 7303271
0.1558713 0.064712502 0.31425002 7434857
0.156434 0.064661011 0.31400001 7302247
0.15699564 0.064609535 0.31375003 7565673
0.15768179 0.064609535 0.31375003 7369064
0.15824178 0.064558052 0.31350002 7434857
0.15880065 0.064506568 0.31325001 7303271
0.15935844 0.064455092 0.31300002 7171942
0.1597873 0.064352125 0.3125 7434857
0.16021399 0.064249158 0.31200001 7303271
0.1606385 0.064146198 0.31150001 7237735
0.16119026 0.064094715 0.31125 7434857
0.16174094 0.064043239 0.31100002 7303528
0.16229053 0.063991755 0.31075001 7566443
0.16283904 0.063940272 0.31050003 7171942
0.16351809 0.063940272 0.31050003 7237481
0.16419716 0.063940272 0.31050003 7566443
0.16474347 0.063888788 0.31025001 7434857
0.16542196 0.063888788 0.31025001 7237478
0.16596664 0.063837305 0.31 7368810
0.16651021 0.063785829 0.30975002 7303017
0.16624308 0.063425459 0.30800003 7369321
0.16664568 0.063322492 0.3075 6910310
0.1673182 0.063322492 0.3075 7041896
0.16785412 0.063271008 0.30725002 7107689
0.16838893 0.063219525 0.30700001 7106919
0.16906035 0.063219525 0.30700001 7434857
0.16973175 0.063219525 0.30700001 7433833
0.17040317 0.063219525 0.30700001 7828845
0.17107455 0.063219525 0.30700001 7303271
0.17174597 0.063219525 0.30700001 7566189
0.17227697 0.063168049 0.30675003 7499626
0.17280687 0.063116565 0.30650002 7565419
0.1729112 0.062910631 0.3055 7368812
0.17315319 0.062756196 0.30475003 7434605
0.17367709 0.062704712 0.30450001 7237481
0.174343 0.062704712 0.30450001 7434603
0.17500895 0.062704712 0.30450001 7630953
0.17567489 0.062704712 0.30450001 7499878
0.17648561 0.062756196 0.30475003 7303526
0.1772974 0.062807672 0.30500001 7303528
0.17796443 0.062807672 0.30500001 7303274
0.1787779 0.062859155 0.30525002 6975079
0.17929851 0.062807672 0.30500001 7303528
0.17996554 0.062807672 0.30500001 7237478
0.18033645 0.062704712 0.30450001 7632236
0.18085378 0.062653229 0.30425 7171942
0.18122086 0.062550262 0.30375001 7172712
0.18158577 0.062447302 0.30325001 7434857
0.18194847 0.062344339 0.30275002 7434857
0.18155505 0.061983969 0.30100003 7303269
0.18221334 0.061983969 0.30100003 7369571
0.18271971 0.061932486 0.30075002 7434085
0.18337746 0.061932486 0.30075002 7236456
0.18388219 0.061881002 0.30050001 7697005
0.18438588 0.061829522 0.30025002 7630699
0.18488842 0.061778039 0.30000001 7630699
0.18554454 0.061778039 0.30000001 7434857
0.18604547 0.061726555 0.29975 7566446
0.186701 0.061726555 0.29975 7303271
0.18735656 0.061726555 0.29975 7303269
0.1878553 0.061675079 0.29950002 7632232
0.18851031 0.061675079 0.29950002 7434855
0.1890074 0.061623592 0.29925001 7434857
0.18950343 0.061572116 0.29900002 7499880
0.18983932 0.061469149 0.2985 7763052
0.19033262 0.061417669 0.29825002 7499878
0.19082479 0.061366186 0.29800001 7369060
0.19131589 0.061314706 0.29775003 7369319
0.1916447 0.061211739 0.29725 7172712
0.19213305 0.061160263 0.29700002 7303528
0.19262031 0.061108775 0.29675001 7434855
0.19310647 0.061057299 0.29650003 7434853
0.19359155 0.061005816 0.29625002 7237733
0.19391161 0.060902853 0.29575002 7237476
0.19439395 0.060851369 0.29550001 7237478
0.19487521 0.060799889 0.29525003 7434857
0.19535536 0.060748406 0.29500002 7434853
0.19600052 0.060748406 0.29500002 7501157
0.19647901 0.060696922 0.29475001 7434855
0.19712363 0.060696922 0.29475001 7565419
-0.20929125 0.06258972 0.30075002 3887967
-0.2086335 0.06258972 0.30075002 3363674
-0.20780289 0.062537692 0.30050001 2641232
-0.20714569 0.062537692 0.30050001 3099986
-0.2066603 0.06258972 0.30075002 2901322
-0.20600256 0.06258972 0.30075002 3032142
-0.2056862 0.062693775 0.30125001 3228242
-0.20536767 0.06279783 0.30175 3425617
-0.20504695 0.062901892 0.30225003 3229260
-0.20472404 0.063005947 0.30275002 3425608
-0.20423043 0.063057967 0.303 3294801
-0.20356777 0.063057967 0.303 3165527
-0.20290512 0.063057967 0.303 3298396
-0.20240934 0.063110001 0.30325001 3954528
-0.20174614 0.063110001 0.30325001 4020323
-0.20108292 0.063110001 0.30325001 4019553
-0.20041972 0.063110001 0.30325001 3624793
-0.19975652 0.063110001 0.30325001 2507336
-0.19909331 0.063110001 0.30325001 2900808
-0.20121107 0.063994475 0.3075 2834756
-0.20233202 0.064566784 0.31025001 3032133
-0.20129888 0.064670838 0.31075001 2305843
-0.17621028 0.066751964 0.32075003 3223853
-0.17055911 0.067012101 0.32200003 2895915
-0.16664372 0.06800063 0.32675001 3288876
-0.16643697 0.068208747 0.32775003 3288874
-0.16597298 0.068312801 0.32825002 3092267
-0.16431841 0.068520911 0.32925001 3288876
-0.16372257 0.068572946 0.32950002 2697507
-0.16265073 0.068729028 0.33025002 2764329
-0.15831076 0.069041193 0.33175001 2764076
-0.15770398 0.06909322 0.33200002 2567467
-0.13977452 0.079550855 0.38225001 1842198
-0.13730291 0.078614347 0.37775001 2566178
-0.13638645 0.078562327 0.37750003 4409152
-0.13663818 0.079186663 0.38050002 4541508
-0.031436153 0.058427475 0.28075001 132609
-0.030767264 0.058323421 0.28025001 0
-0.03012746 0.058271389 0.28 4146234
-0.029462399 0.058167335 0.27950001 6844517
-0.028722106 0.057907194 0.27825001 6515811
-0.028063059 0.057803139 0.27775002 4872783
-0.027183784 0.05723083 0.27500001 1848358
-0.026582362 0.05723083 0.27500001 1847329
-0.025980942 0.05723083 0.27500001 2438684
-0.025402592 0.057282861 0.27525002 4606742
-0.024800625 0.057282861 0.27525002 6579228
-0.024220634 0.057334885 0.2755 7366676
-0.023639552 0.057386916 0.27575001 7958805
-0.023036491 0.057386916 0.27575001 8219920
-0.022453768 0.057438947 0.27600002 8548626
-0.021850159 0.057438947 0.27600002 8746001
-0.021227304 0.057386916 0.27575001 8746001
-0.020624243 0.057386916 0.27575001 8680462
-0.020003028 0.057334885 0.2755 8942862
-0.019382911 0.057282861 0.27525002 8876809
-0.018763883 0.05723083 0.27500001 9008393
-0.018162461 0.05723083 0.27500001 9139981
-0.017561039 0.05723083 0.27500001 9139727
-0.016959617 0.05723083 0.27500001 8942862
-0.016373068 0.057282861 0.27525002 8942862
-0.0157711 0.057282861 0.27525002 9073934
-0.015169133 0.057282861 0.27525002 9139468
-0.014567164 0.057282861 0.27525002 9205261
-0.013965195 0.057282861 0.27525002 9139466
-0.013363227 0.057282861 0.27525002 9073671
-0.012761259 0.057282861 0.27525002 9336847
-0.012148246 0.05723083 0.27500001 9139981
-0.011546824 0.05723083 0.27500001 9139981
-0.010945403 0.05723083 0.27500001 9139981
-0.010343981 0.05723083 0.27500001 9139979
-0.0097425599 0.05723083 0.27500001 9205511
-0.0091328286 0.057178807 0.27475002 9205509
-0.0085319532 0.057178807 0.27475002 9271815
-0.0079310788 0.057178807 0.27475002 9337097
-0.0073302039 0.057178807 0.27475002 9337095
-0.006729329 0.057178807 0.27475002 9205511
-0.0061284541 0.057178807 0.27475002 9205511
-0.0055275792 0.057178807 0.27475002 9073925
-0.0049267043 0.057178807 0.27475002 9204741
-0.0043258294 0.057178807 0.27475002 9205257
-0.0037249548 0.057178807 0.27475002 9139464
-0.0031240799 0.057178807 0.27475002 9139979
-0.0025209088 0.057126775 0.27450001 9139981
-0.0019205809 0.057126775 0.27450001 9271313
-0.0013214552 0.057178807 0.27475002 9205259
-0.0007205804 0.057178807 0.27475002 9205259
-0.00011970554 0.057178807 0.27475002 9336845
0.00048116932 0.057178807 0.27475002 9336843
0.0010830287 0.05723083 0.27500001 9467913
0.0016844502 0.05723083 0.27500001 9533452
0.0022837939 0.057178807 0.27475002 9336845
0.0028820438 0.057126775 0.27450001 9402640
0.0034792002 0.057074744 0.27425 9468433
0.0040715449 0.056970689 0.27375001 9533456
0.004665968 0.056918666 0.27350003 9599249
0.0052641095 0.056918666 0.27350003 9599247
0.0058568916 0.056866635 0.27325001 9599245
0.0064544859 0.056866635 0.27325001 9468431
0.0070520802 0.056866635 0.27325001 9402638
0.0076496741 0.056866635 0.27325001 9205511
0.0082472684 0.056866635 0.27325001 9665292
0.0088448627 0.056866635 0.27325001 9468431
0.009433818 0.056814604 0.273 9402638
0.010030866 0.056814604 0.273 9468429
0.010618181 0.05676258 0.27275002 9599245
0.011214682 0.05676258 0.27275002 9468429
0.011811183 0.05676258 0.27275002 9533452
0.012430429 0.056866635 0.27325001 9599245
0.013051862 0.056970689 0.27375001 9534476
0.013663017 0.057022721 0.27400002 9468681
0.014262252 0.057022721 0.27400002 9534476
0.014861486 0.057022721 0.27400002 9468944
0.015446614 0.056970689 0.27375001 9403149
0.016045302 0.056970689 0.27375001 9468942
0.01664399 0.056970689 0.27375001 9468946
0.017242678 0.056970689 0.27375001 9534224
0.017841363 0.056970689 0.27375001 9730833
0.018456895 0.057022721 0.27400002 9665040
0.019073514 0.057074744 0.27425 9533452
0.019673295 0.057074744 0.27425 9534222
0.020291558 0.057126775 0.27450001 9468944
0.020891886 0.057126775 0.27450001 9468944
0.021492213 0.057126775 0.27450001 9468946
0.022092544 0.057126775 0.27450001 9468946
0.02269287 0.057126775 0.27450001 9402899
0.023293199 0.057126775 0.27450001 9534233
0.023893526 0.057126775 0.27450001 9402899
0.024493854 0.057126775 0.27450001 9533972
0.025117038 0.057178807 0.27475002 9337106
0.025717914 0.057178807 0.27475002 9271817
0.026342735 0.05723083 0.27500001 9206286
0.026944157 0.05723083 0.27500001 9139466
0.027545577 0.05723083 0.27500001 9271313
0.02817259 0.057282861 0.27525002 9008909
0.028774556 0.057282861 0.27525002 8942862
0.029376525 0.057282861 0.27525002 8877071
0.03000572 0.057334885 0.2755 8746518
0.030636011 0.057386916 0.27575001 8483866
0.031239074 0.057386916 0.27575001 7300385
0.031871002 0.057438947 0.27600002 3620369
0.032504026 0.057490971 0.27625 204035
0.033108182 0.057490971 0.27625 1981993
0.033742849 0.057543002 0.27650002 3756605
0.034347549 0.057543002 0.27650002 6385245
0.034983851 0.057595026 0.27675 6777180
0.0357177 0.057803139 0.27775002 6513751
0.036782876 0.05853153 0.28125 5987668
0.037796881 0.05915587 0.28425002 5921621
0.039398421 0.06066468 0.2915 5856600
0.060116798 0.080799527 0.38825002 5988954
0.060965896 0.080799527 0.38825002 6251356
0.061775185 0.0807475 0.38800001 6382426
0.062583387 0.080695473 0.38775003 6448219
0.063390501 0.080643445 0.38750002 6513755
0.064196512 0.080591418 0.38725001 6513755
0.064539529 0.079967082 0.38425002 6513755
0.065337345 0.079915047 0.384 6579805
0.066134065 0.079863027 0.38375002 6645344
0.06688606 0.079758972 0.38325003 6382172
0.067680046 0.079706937 0.38300002 6513755
0.068472937 0.07965491 0.38275 6645341
0.068495125 0.078718409 0.37825003 6842720
0.06923072 0.078614347 0.37775001 6448989
0.070056856 0.078614347 0.37775001 6776927
0.070836075 0.078562327 0.37750003 6711134
0.071661666 0.078562327 0.37750003 6842720
0.072487257 0.078562327 0.37750003 6908511
0.073312841 0.078562327 0.37750003 6842720
0.073500149 0.077885963 0.37425002 6908511
0.074219339 0.077781908 0.37375003 6974304
0.074936345 0.077677846 0.37325001 6908513
0.075651161 0.077573791 0.37275001 6908770
0.076363787 0.077469736 0.37225002 6908770
0.077126056 0.077417701 0.37200001 6974306
0.077834867 0.077313654 0.37150002 7105892
0.07854148 0.077209599 0.37100002 7105892
0.07924591 0.077105545 0.37050003 7105890
0.079948142 0.077001482 0.37 7105890
0.080648206 0.076897427 0.36950001 6974306
0.080960281 0.076429173 0.36725003 6974306
0.081596471 0.076273091 0.36650002 7302501
0.082341798 0.076221064 0.36625001 7105122
0.083029278 0.076117009 0.36575001 7237476
0.083657272 0.075960919 0.36500001 7236706
0.084281981 0.075804837 0.36425 7171685
0.084961802 0.075700782 0.36375001 7105895
0.085639447 0.075596727 0.36325002 7236708
0.086314894 0.075492673 0.36275002 7368292
0.086988159 0.075388618 0.36225003 7368292
0.087659232 0.075284556 0.36175001 7105890
0.088389248 0.075232528 0.36150002 6909540
0.088994831 0.075076446 0.36075002 7171688
0.089597121 0.074920364 0.36000001 7368294
0.090133376 0.074712254 0.35900003 7237478
0.090728559 0.074556164 0.35825002 7105638
0.091256604 0.074348047 0.35725001 7171688
0.091909088 0.074243993 0.35675001 7237478
0.09255939 0.074139938 0.35625002 7171683
0.093207501 0.074035883 0.35575002 7368292
0.093853429 0.073931836 0.35525003 7040102
0.09456376 0.073879801 0.35500002 7106149
0.095273003 0.073827773 0.35475001 7171685
0.095981151 0.073775746 0.35450003 7237478
0.096688204 0.073723719 0.35425001 7171685
0.097325377 0.073619664 0.35375002 7105895
0.098029695 0.073567629 0.35350001 7105895
0.098732919 0.073515609 0.35325003 7171431
0.099435046 0.073463574 0.35300002 7105895
0.10013609 0.073411547 0.35275 7237224
0.10076453 0.073307492 0.35225001 7499626
0.10146283 0.073255464 0.35200003 7171685
0.10216004 0.073203437 0.35175002 7040354
0.10263669 0.072995327 0.35075003 7303269
0.10303527 0.07273519 0.34950003 7171685
0.10365111 0.072631128 0.34900001 7040102
0.10426479 0.072527073 0.34850001 6975079
0.10495161 0.072475038 0.34825 7171688
0.10556146 0.072370984 0.34775001 7171685
0.10624555 0.072318964 0.34750003 7237476
0.10685156 0.072214901 0.347 7303271
0.10745538 0.072110847 0.34650001 7303274
0.1081351 0.072058819 0.34625003 7171685
0.10873509 0.071954764 0.34575 7171942
0.10941207 0.071902737 0.34550002 7041126
0.10992853 0.071746655 0.34475002 7106149
0.11020091 0.071434483 0.34325001 7499365
0.1108708 0.071382456 0.34300002 7302499
0.11153957 0.071330428 0.34275001 7237476
0.11220726 0.071278401 0.34250003 7368294
0.11287385 0.071226373 0.34225002 7368294
0.11353935 0.071174338 0.34200001 7171685
0.11420376 0.071122319 0.34175003 7237224
0.11486707 0.071070284 0.34150001 7368810
0.11544465 0.070966229 0.34100002 7303271
0.11610524 0.070914201 0.34075001 7106147
0.11676472 0.070862174 0.34050003 7237735
0.11742312 0.070810147 0.34025002 7368294
0.11799359 0.070706092 0.33975002 7368294
0.11864924 0.070654064 0.33950001 7237224
0.11921589 0.07055001 0.33900002 7171431
0.11986881 0.070497975 0.33875 7236454
0.12052065 0.070445955 0.33850002 7237478
0.12099228 0.070289865 0.33775002 7171431
0.12128041 0.070029728 0.33650002 7171431
0.12183503 0.069925673 0.33600003 7237224
0.12247866 0.069873646 0.33575001 7171942
0.12302945 0.069769591 0.33525002 7171942
0.12367034 0.069717556 0.33500001 7171685
0.12431015 0.069665536 0.33475003 7302501
0.12494885 0.069613501 0.33450001 7302501
0.12549254 0.069509447 0.33400002 7171685
0.12612851 0.069457419 0.33375001 7303271
0.12666838 0.069353364 0.33325002 6974306
0.1273016 0.06930133 0.333 7237478
0.12783764 0.069197275 0.33250001 7106149
0.12846816 0.069145255 0.33225003 7171431
0.12900035 0.069041193 0.33175001 7368040
0.12933485 0.068833083 0.33075002 7302247
0.12976328 0.068677001 0.33000001 7499626
0.13038613 0.068624966 0.32975 7368040
0.13110729 0.068624966 0.32975 7302501
0.13172852 0.068572946 0.32950002 7434087
0.13234863 0.068520911 0.32925001 7171431
0.13296765 0.068468891 0.32900003 7368294
0.13358559 0.068416856 0.32875001 7368294
0.13410029 0.068312801 0.32825002 7106149
0.13471548 0.068260774 0.32800001 6975079
0.13501993 0.068052664 0.32700002 6975079
0.13511243 0.067740493 0.32550001 6909286
0.13571998 0.067688465 0.32525003 7237224
0.13622156 0.06758441 0.32475001 7237478
0.13682637 0.067532383 0.32450002 7237735
0.13743009 0.067480356 0.32425001 7237478
0.13792621 0.067376301 0.32375002 7236708
0.13820602 0.067168184 0.32275 7368040
0.13869667 0.067064129 0.32225001 6974306
0.13918515 0.066960074 0.32175002 7171683
0.13988881 0.066960074 0.32175002 7171685
0.14048322 0.066908039 0.3215 7105892
0.14107655 0.066856019 0.32125002 7105895
0.14177912 0.066856019 0.32125002 6908516
0.14237081 0.066803984 0.32100001 6909286
0.14296141 0.066751964 0.32075003 7171942
0.14343892 0.066647902 0.32025 7237733
0.14380176 0.066491827 0.31950003 6909538
0.14438744 0.066439793 0.31925002 6975333
0.14497201 0.066387765 0.31900001 7171942
0.14555551 0.066335738 0.31875002 7303269
0.1462526 0.066335738 0.31875002 7303271
0.14683445 0.06628371 0.31850001 7303269
0.147531 0.06628371 0.31850001 7434085
0.14811119 0.066231675 0.31825 7630183
0.14869033 0.066179655 0.31800002 7630181
0.14926834 0.066127621 0.31775001 7237478
0.14996326 0.066127621 0.31775001 7171685
0.15053965 0.066075601 0.31750003 7434085
0.15123402 0.066075601 0.31750003 7434087
0.15180875 0.066023566 0.31725001 7434087
0.15250257 0.066023566 0.31725001 7237478
0.15307567 0.065971538 0.317 7040872
0.15364769 0.065919511 0.31675002 6976103
0.15409678 0.065815456 0.31625003 7171942
0.15454368 0.065711401 0.31575 7434085
0.15498841 0.065607347 0.31525001 7565158
0.15543094 0.065503292 0.31475002 7367781
0.15599529 0.065451257 0.3145 7565160
0.15655856 0.065399237 0.31425002 7564906
0.15712072 0.065347202 0.31400001 7565421
0.15768179 0.065295182 0.31375003 7565421
0.15824178 0.065243147 0.31350002 7433833
0.15880065 0.06519112 0.31325001 7499626
0.15935844 0.065139093 0.31300002 7237478
0.1597873 0.06503503 0.3125 7369064
0.16008562 0.064878955 0.31175002 7369064
0.1606385 0.064826921 0.31150001 7303271
0.16119026 0.064774893 0.31125 7565419
0.16174094 0.064722866 0.31100002 7369064
0.16229053 0.064670838 0.31075001 7369321
0.16283904 0.064618811 0.31050003 7237735
0.16351809 0.064618811 0.31050003 7435884
0.16406494 0.064566784 0.31025001 7171942
0.16474347 0.064566784 0.31025001 7237735
0.16528867 0.064514756 0.31 7369064
0.1658328 0.064462729 0.30975002 7763052
0.16637582 0.064410701 0.30950001 7499880
0.16624308 0.064098537 0.30800003 7172712
0.16678117 0.064046502 0.30775002 7172712
0.1673182 0.063994475 0.3075 7303274
0.16785412 0.063942447 0.30725002 7369064
0.16852607 0.063942447 0.30725002 7499878
0.16919804 0.063942447 0.30725002 7434855
0.16986997 0.063942447 0.30725002 7303528
0.17054193 0.063942447 0.30725002 7237735
0.17121388 0.063942447 0.30725002 7237735
0.17174597 0.06389042 0.30700001 7565673
0.17241736 0.06389042 0.30700001 7697259
0.17294784 0.063838392 0.30675003 7369064
0.17333569 0.06373433 0.30625001 7369064
0.17315319 0.063422166 0.30475003 7368810
0.17381968 0.063422166 0.30475003 7368810
0.174343 0.063370138 0.30450001 7303274
0.17500895 0.063370138 0.30450001 7434087
0.17567489 0.063370138 0.30450001 7697259
0.17648561 0.063422166 0.30475003 7303271
0.1772974 0.063474193 0.30500001 7631982
0.17796443 0.063474193 0.30500001 7303017
0.17863148 0.063474193 0.30500001 7237735
0.17929851 0.063474193 0.30500001 7303528
0.17981803 0.063422166 0.30475003 7434087
0.18033645 0.063370138 0.30450001 7827049
0.18070519 0.063266084 0.30400002 7565673
0.18107171 0.063162029 0.30350003 7434857
0.18143606 0.063057967 0.303 7368292
0.18194847 0.063005947 0.30275002 7565671
0.1820074 0.06279783 0.30175 7434853
0.18236466 0.062693775 0.30125001 7369060
0.18287161 0.062641747 0.30100003 7434855
0.18337746 0.06258972 0.30075002 7237224
0.18388219 0.062537692 0.30050001 7762798
0.18438588 0.062485665 0.30025002 7564906
0.18488842 0.062433634 0.30000001 7303271
0.18554454 0.062433634 0.30000001 7172710
0.18604547 0.062381603 0.29975 7500905
0.186701 0.062381603 0.29975 7369064
0.18735656 0.062381603 0.29975 7565673
0.18801209 0.062381603 0.29975 7565671
0.18851031 0.062329579 0.29950002 7565160
0.1890074 0.062277548 0.29925001 7697257
0.18950343 0.062225524 0.29900002 7106147
0.18999833 0.062173493 0.29875001 7632236
0.19033262 0.062069438 0.29825002 7434085
0.19082479 0.062017411 0.29800001 7434853
0.19131589 0.061965384 0.29775003 7501677
0.19180588 0.061913356 0.29750001 7434857
0.19213305 0.061809301 0.29700002 7828843
0.19262031 0.06175727 0.29675001 7303271
0.19310647 0.061705247 0.29650003 7434857
0.19359155 0.061653215 0.29625002 7434857
0.19407551 0.061601184 0.296 7566700
0.19455843 0.061549161 0.29575002 7106665
0.19504021 0.061497129 0.29550001 7303274
