# .PCD v0.7 - Point Cloud Data file format
VERSION 0.7
FIELDS x y z
SIZE 4 4 4
TYPE F F F
COUNT 1 1 1
WIDTH 1364
HEIGHT 1
VIEWPOINT 0 0 0 1 0 0 0
POINTS 1364
DATA ascii
0.25579232 0.39936233 0.001054793
0.25598073 0.40089333 0.001512189
0.25624499 0.4026719 0.0018583806
0.25632417 0.40403387 0.0024218715
0.25782463 0.39791656 0.00076662132
0.25803241 0.39921555 0.0011447035
0.25783378 0.40077105 0.0015961614
0.25855374 0.40238261 0.0018323668
0.25862411 0.40372247 0.0021938239
0.25992635 0.39758828 0.0010369859
0.26013499 0.39896044 0.0014059081
0.25996494 0.40063992 0.0015948022
0.260589 0.40227693 0.0017212393
0.26068637 0.40355667 0.0020645265
0.2615923 0.39735484 0.0012951877
0.26181397 0.39859098 0.0017048761
0.26207498 0.40050882 0.00179746
0.2623601 0.40224209 0.0019066994
0.26228234 0.40328196 0.0021277899
0.26410085 0.39498481 0.0012158484
0.26323572 0.39673027 0.001494927
0.26358256 0.39839384 0.0019069454
0.26382759 0.40016618 0.0020964907
0.26405153 0.40190718 0.0022848793
0.26361516 0.40313613 0.0022043632
0.26597518 0.39327383 0.00095546769
0.26569217 0.39465046 0.0013143064
0.26540864 0.39641821 0.0017505828
0.2657046 0.39798698 0.0022074759
0.26585671 0.39946169 0.0024261633
0.26591372 0.40123516 0.0025287366
0.26743394 0.39434284 0.0013890775
0.26769751 0.39599329 0.0019153458
0.26800227 0.39760014 0.002372345
0.26805863 0.39910772 0.0028214746
0.2678296 0.40056604 0.0029655283
0.26925305 0.39447358 0.0015019428
0.26945925 0.39574015 0.0018563832
0.26951963 0.39711365 0.0023921635
0.26939648 0.39877665 0.0029112531
0.27136272 0.39416459 0.0014699156
0.27153856 0.39533457 0.0018713746
0.27167508 0.3967424 0.0023997575
0.27124593 0.39791039 0.0027397498
0.27354503 0.39384553 0.0015513822
0.27369475 0.39501107 0.0019628631
0.2736825 0.39625716 0.0024749106
0.27525574 0.39325044 0.0015222083
0.27546406 0.3944943 0.0019623262
0.27539197 0.39597642 0.0024765709
0.27527454 0.39699605 0.0028309359
0.27719396 0.39133561 0.0011135194
0.27707604 0.39232957 0.0014470236
0.27705991 0.39415726 0.0020051214
0.27718136 0.39576864 0.0025945259
0.27713105 0.39672345 0.0029082845
0.27933332 0.39063901 0.0011598963
0.2790975 0.3919065 0.0015323284
0.2793588 0.39381444 0.0021522443
0.27921027 0.39533955 0.0026131158
0.27835962 0.39649293 0.0028842031
0.28107294 0.39042473 0.0012956433
0.28136146 0.39198017 0.0017712027
0.28138718 0.39375275 0.0023420267
0.2814289 0.39457744 0.0026676576
0.28276479 0.39015716 0.0013130613
0.28297845 0.39171663 0.0017905449
0.28305411 0.39339653 0.0023987438
0.28520855 0.38964942 0.0013331959
0.28510854 0.39136848 0.0019371994
0.28507373 0.39298591 0.0024587181
0.28718928 0.38772628 0.0010616933
0.28719196 0.38920614 0.0015115546
0.28727058 0.39102432 0.0021392051
0.28716677 0.39253858 0.0026493464
0.28846839 0.38611516 0.00077876804
0.28868148 0.38734454 0.0011959615
0.28888804 0.38887092 0.0017152309
0.28896701 0.3905327 0.002332641
0.28880441 0.39199334 0.0028493288
0.29074368 0.38539964 0.00088227872
0.29035938 0.38707668 0.001311072
0.29051426 0.38852665 0.0018714571
0.29066721 0.39011338 0.0025275394
0.29044646 0.3912808 0.0030041621
0.29273251 0.3850376 0.0010851423
0.29248124 0.38665923 0.0015316691
0.29251543 0.38803574 0.0020749215
0.29249221 0.3893095 0.0025825417
0.29446074 0.38474873 0.0012226817
0.29454851 0.38622773 0.0017296247
0.29457065 0.38754579 0.0023075924
0.29441932 0.38869032 0.0028107341
0.2961106 0.38443229 0.0012565647
0.29616547 0.38590109 0.001789736
0.29607549 0.38717914 0.0023746549
0.29586715 0.38827759 0.0029965977
0.2980473 0.38403055 0.0012859497
0.29776224 0.38557288 0.0019232311
0.29756176 0.38674411 0.0023920077
0.29751614 0.38778973 0.0030346222
0.29970682 0.38399264 0.0015940818
0.29948109 0.38494381 0.0019708362
0.29923993 0.38618103 0.0026880945
0.3008813 0.38428593 0.0023327596
0.30048457 0.38511369 0.0027659372
0.032217659 0.25352657 -0.014007357
0.033680782 0.25420329 -0.013639492
0.034128498 0.25548047 -0.013544394
0.034314092 0.25722864 -0.013479571
0.034488048 0.25881952 -0.013384681
0.035287 0.2682133 -0.013411079
0.036364362 0.27151933 -0.013863799
0.03694107 0.27289471 -0.013880176
0.037443396 0.27430108 -0.013857074
0.037864484 0.27688307 -0.013938867
0.038181718 0.28067052 -0.014064443
0.037220705 0.27066541 -0.012929356
0.038459882 0.27269226 -0.01279965
0.038766123 0.27486783 -0.013099509
0.038993955 0.27713639 -0.01325181
0.03896568 0.27881309 -0.013411927
0.039810982 0.28065333 -0.013119995
0.040070098 0.28275311 -0.013285691
0.040915005 0.28482494 -0.013283197
0.041175336 0.28657475 -0.013488384
0.046092235 0.32802501 -0.011049939
0.040248059 0.27722409 -0.012663989
0.040677495 0.2786645 -0.012612264
0.041157912 0.28007731 -0.012549373
0.042147912 0.28231961 -0.012416144
0.042389747 0.28453776 -0.012630374
0.042632036 0.28628916 -0.012789904
0.042704046 0.2880227 -0.0130055
0.043121371 0.29135644 -0.013274246
0.04322698 0.29276618 -0.013402231
0.043357555 0.29436749 -0.013539261
0.043854855 0.29567149 -0.01343611
0.047167588 0.33041751 -0.011480153
0.047967069 0.33162495 -0.010755061
0.048946146 0.33292267 -0.011090363
0.043802496 0.2847459 -0.012102339
0.04402297 0.28603768 -0.012157208
0.044609591 0.28822532 -0.012154832
0.044543523 0.29028925 -0.012435823
0.044960182 0.2922647 -0.012514498
0.045188189 0.29402295 -0.012633754
0.04533625 0.29582533 -0.012773735
0.045530371 0.29807791 -0.012967705
0.046244957 0.30021542 -0.013053844
0.050021209 0.33438274 -0.010969751
0.050603874 0.33555001 -0.010005946
0.046191055 0.29020101 -0.011637515
0.046666257 0.29208928 -0.011678969
0.04697457 0.29370084 -0.011737213
0.047218308 0.29592255 -0.011910084
0.047419325 0.29817545 -0.012149652
0.047692724 0.29991081 -0.012369485
0.048007175 0.30153334 -0.01260312
0.049305882 0.30286545 -0.012398557
0.051654309 0.33627698 -0.010983144
0.052380439 0.33740661 -0.010314108
0.053927835 0.33859339 -0.010779951
0.048559442 0.29568243 -0.011260862
0.049184818 0.29796648 -0.011351168
0.049569614 0.29953727 -0.011481646
0.049779862 0.30131224 -0.011759538
0.050926026 0.30325231 -0.011797528
0.051015619 0.30537167 -0.012447351
0.055699304 0.34118155 -0.0098842541
0.051238682 0.30147466 -0.011164292
0.05268836 0.30366316 -0.011140494
0.05281166 0.30543801 -0.011569823
0.052883808 0.30724981 -0.012021873
0.053271938 0.30874163 -0.012147365
0.056726046 0.34195289 -0.010189404
0.05761135 0.34282839 -0.010204322
0.054238904 0.30560553 -0.010910546
0.054691982 0.30696225 -0.010996604
0.054983079 0.30902061 -0.01122757
0.055105027 0.31115958 -0.011484043
0.055564325 0.31310183 -0.011531549
0.055802453 0.31487098 -0.01173902
0.056252293 0.31624293 -0.011824629
0.057211731 0.31798896 -0.011825681
0.058405977 0.34335086 -0.010679461
0.059253257 0.3448216 -0.009942539
0.060110003 0.34576336 -0.0097665424
0.056862857 0.31139168 -0.010448616
0.056961771 0.31276774 -0.010612041
0.057286117 0.31446588 -0.010730195
0.057729948 0.31640738 -0.010940792
0.05867653 0.31859884 -0.011121635
0.061381351 0.34710976 -0.0096906731
0.060197566 0.31916979 -0.010531987
0.060657237 0.32058698 -0.010888624
0.061365187 0.32228744 -0.011259995
0.061600599 0.32359469 -0.011676525
0.063101895 0.34885126 -0.0096306792
0.06245051 0.32040167 -0.0099409539
0.062887073 0.32189175 -0.010261677
0.063000023 0.32375386 -0.010913401
0.063389845 0.32523069 -0.01122127
0.066139489 0.35198981 -0.010183303
0.064903095 0.32425651 -0.0099659897
0.064726189 0.32594037 -0.010641565
0.066791698 0.33002576 -0.010788493
0.066886716 0.33095762 -0.01105471
0.068031758 0.35430515 -0.0095475866
0.069606356 0.35583928 -0.0091461809
0.067620203 0.32903773 -0.0099378712
0.068399191 0.33148798 -0.010308766
0.068566844 0.33349979 -0.010808281
0.069230542 0.33508185 -0.010880613
0.071189493 0.35728842 -0.0089027612
0.069064856 0.3301447 -0.0094589069
0.069907799 0.33201629 -0.0095588006
0.070539609 0.3332527 -0.0095465966
0.070683651 0.33514649 -0.0099907042
0.071206778 0.33702582 -0.010315073
0.073619388 0.35888359 -0.0094575603
0.072550774 0.33684111 -0.0095069855
0.073217869 0.33906919 -0.01007574
0.073565409 0.34071255 -0.010649979
0.075473137 0.36139885 -0.0082404548
0.076402128 0.36222932 -0.0082542188
0.074675083 0.33918041 -0.0093444567
0.075165182 0.34056965 -0.0096946573
0.076123275 0.34234601 -0.0099110045
0.077285588 0.36308968 -0.008132007
0.076705955 0.34050149 -0.0088512404
0.077623427 0.3423644 -0.0091237715
0.077932969 0.34410295 -0.0097411135
0.078810789 0.34614062 -0.010284915
0.080173627 0.36462963 -0.0088882074
0.081089079 0.36543778 -0.0085790716
0.079258084 0.34221613 -0.0082894415
0.079550035 0.343963 -0.0088313855
0.080269359 0.34619981 -0.0095611997
0.080321372 0.34777498 -0.010364734
0.082654893 0.36646253 -0.008442021
0.081643105 0.34637269 -0.0089411754
0.082116708 0.34786123 -0.0094216885
0.084433302 0.36730266 -0.0088675348
0.083426759 0.34757078 -0.0085597513
0.084142596 0.34926924 -0.0090226885
0.085341953 0.35117233 -0.0093971482
0.087099664 0.3695049 -0.0080999183
0.088049218 0.37056771 -0.0075962045
0.085702598 0.34969512 -0.0083607286
0.08660116 0.35111427 -0.0085907085
0.087725416 0.35274929 -0.0087893317
0.08935234 0.37111923 -0.0084595475
0.090053521 0.37241182 -0.007368457
0.088959232 0.35310835 -0.0082859742
0.089351512 0.35478798 -0.0089933677
0.091232061 0.37313905 -0.0078479629
0.091982707 0.37395129 -0.0074754586
0.090936229 0.35462949 -0.0081816418
0.091212943 0.35649705 -0.0090607554
0.092698924 0.35819292 -0.0093085263
0.093489632 0.37461457 -0.008146381
0.094245024 0.37568218 -0.007035376
0.09322571 0.35652024 -0.0081390338
0.094135255 0.35824043 -0.008611341
0.09433458 0.35965097 -0.0092859222
0.095402695 0.3753576 -0.0085852304
0.095869213 0.37628227 -0.007526747
0.096931666 0.37722653 -0.006782576
0.094906747 0.35651022 -0.0075160884
0.095915176 0.35832593 -0.0078421012
0.096192822 0.36017519 -0.0085519589
0.097552456 0.37680057 -0.008007749
0.09845861 0.37790534 -0.0070150131
0.099415615 0.37892947 -0.0059691058
0.097900629 0.35978624 -0.0075598066
0.09799324 0.36198282 -0.0085925376
0.10000747 0.37821406 -0.0079710484
0.100488 0.37924501 -0.0068990602
0.099540256 0.361837 -0.0077182674
0.099947512 0.36349076 -0.0083627459
0.10113239 0.36507243 -0.0086596077
0.10231904 0.3798697 -0.007587357
0.10165051 0.36195526 -0.0067832163
0.10207137 0.36357287 -0.0074268696
0.10313276 0.36531746 -0.0078591816
0.10454383 0.38111141 -0.0074301683
0.10459267 0.36529893 -0.0072860564
0.10509694 0.36626503 -0.0076065087
0.10632679 0.38176596 -0.0076852334
0.10705552 0.38266182 -0.0069967601
0.10680708 0.36715433 -0.0074370932
0.10719062 0.3684172 -0.0080063306
0.10829569 0.38316461 -0.007192113
0.10881379 0.38386548 -0.0065798615
0.10873377 0.36820406 -0.0073096254
0.10989631 0.36992002 -0.0078081931
0.11082659 0.38442814 -0.0071499008
0.11064947 0.368615 -0.0067087915
0.11179266 0.37034854 -0.0071173697
0.11175738 0.37161252 -0.0078541134
0.11203978 0.38531181 -0.0064937291
0.11340056 0.38569665 -0.0068120575
0.11340886 0.37068701 -0.0064904545
0.11359075 0.37215313 -0.0071593574
0.11392995 0.37399238 -0.0080127604
0.11521172 0.38642821 -0.0068941987
0.1151825 0.3719207 -0.0062635634
0.11556266 0.37366953 -0.0070576477
0.11590382 0.37551227 -0.0079236925
0.11727328 0.37686843 -0.0081354389
0.11665034 0.38749629 -0.0063327309
0.11696669 0.37370875 -0.0064510698
0.11781781 0.37522197 -0.006967904
0.11870091 0.37698141 -0.0076179649
0.12033045 0.3753655 -0.0061109657
0.12020902 0.376903 -0.0070167584
0.12087236 0.37830177 -0.0075019677
0.12226852 0.39036161 -0.0061194175
0.12218342 0.37713555 -0.0064537716
0.12268406 0.37902975 -0.0072394051
0.12354215 0.39159542 -0.005551171
0.12456882 0.39154041 -0.006207082
0.12404185 0.379067 -0.0068498193
0.12535112 0.38057441 -0.0070991409
0.12587625 0.38203037 -0.0075489939
0.1262794 0.39216527 -0.0063161948
0.12562503 0.37875104 -0.0061585628
0.12705949 0.38005874 -0.0062974039
0.12725507 0.38219166 -0.0072372993
0.12824547 0.39258444 -0.006571257
0.12859257 0.39383775 -0.0054585095
0.12958193 0.39475766 -0.0048505608
0.12843056 0.38020286 -0.0059185075
0.12898119 0.38180247 -0.0065161833
0.12913756 0.38336155 -0.0071405931
0.12983486 0.39267462 -0.0068132705
0.13061796 0.39378482 -0.0061949184
0.13104655 0.39534456 -0.0049013048
0.1308305 0.38171425 -0.0059395647
0.1310267 0.38338104 -0.0066600977
0.13214195 0.39380777 -0.0065573603
0.13262984 0.39560246 -0.0052364389
0.13268876 0.38230979 -0.005741572
0.13324447 0.38391778 -0.0063166586
0.13362162 0.38540745 -0.006779497
0.13459799 0.38751635 -0.0071429899
0.13365771 0.39432532 -0.0065448489
0.13452944 0.3956638 -0.0057927007
0.13541669 0.39660645 -0.0052202707
0.13505286 0.38351649 -0.0057277074
0.13572103 0.385189 -0.0062490525
0.13594227 0.38715267 -0.00679417
0.13625339 0.38897464 -0.0070907287
0.13696085 0.39706817 -0.0053817686
0.13790762 0.39816409 -0.0044427719
0.13720416 0.38348424 -0.0050800545
0.13742922 0.38486117 -0.0056333714
0.13770689 0.3866933 -0.0062227091
0.13790856 0.38872701 -0.0067605232
0.13846548 0.3902224 -0.0069550183
0.13900436 0.39698055 -0.0060257534
0.13932875 0.39808801 -0.0051954999
0.13898423 0.3847681 -0.0050648646
0.1394107 0.3863593 -0.0055881958
0.13965417 0.38829452 -0.0061735059
0.13994595 0.39028749 -0.0066749989
0.14063692 0.39706337 -0.0063898363
0.1409473 0.39830586 -0.0054960642
0.14150006 0.39950573 -0.0042641028
0.14101498 0.38669041 -0.0051825978
0.14208867 0.38865992 -0.0056285867
0.14205539 0.39051697 -0.0063291537
0.14265968 0.39190587 -0.0065952963
0.14189914 0.39707366 -0.0067194332
0.14296445 0.39851868 -0.0060032429
0.14345132 0.39987609 -0.0048870048
0.14414391 0.40061855 -0.004196913
0.14414594 0.38875666 -0.0050648181
0.14428656 0.39048964 -0.0057544559
0.14452162 0.39252654 -0.0064740689
0.14544334 0.39983839 -0.0056295367
0.14586398 0.40103048 -0.0043272944
0.14590251 0.39025438 -0.0052826046
0.1462563 0.39224163 -0.0061048963
0.14717439 0.40013096 -0.0057382332
0.14751895 0.40122312 -0.004708901
0.14739287 0.39021346 -0.0049114446
0.14824262 0.39213029 -0.0057173283
0.14952597 0.40025467 -0.0058571147
0.14949451 0.40116462 -0.0051218518
0.14977999 0.39103529 -0.0048346506
0.15098386 0.39309818 -0.0057109944
0.15169375 0.40011305 -0.0060420097
0.1517382 0.40130204 -0.005061694
0.15215676 0.39199519 -0.0049723065
0.15277368 0.392993 -0.0054210047
0.15284817 0.39501175 -0.0062446208
0.15347236 0.39630815 -0.0064761885
0.15344639 0.39992964 -0.0061317226
0.15365891 0.40127832 -0.0052118176
0.15428989 0.40249318 -0.0041162209
0.15430349 0.39270797 -0.0049793478
0.15458344 0.39464891 -0.0058189351
0.15477143 0.39613536 -0.0062762261
0.15523842 0.40101638 -0.0056808712
0.15573074 0.40226367 -0.0046027792
0.15590508 0.39252344 -0.0045862175
0.15673158 0.39434487 -0.0053849141
0.15718229 0.3960242 -0.0059527992
0.15760703 0.40109175 -0.0057787015
0.15784581 0.40235272 -0.004873821
0.15891935 0.40353638 -0.0039099045
0.15916085 0.39448804 -0.0049388343
0.15923664 0.39624184 -0.0056273532
0.15941042 0.39835322 -0.0059956447
0.15974577 0.40040991 -0.0059251804
0.15999302 0.40241808 -0.005346755
0.16037777 0.40381715 -0.0040679793
0.16083141 0.39471677 -0.0046433844
0.16104561 0.39616176 -0.0052269739
0.1612829 0.39818618 -0.0056844959
0.16149716 0.40008703 -0.0057766521
0.1617467 0.40229595 -0.0055489838
0.16200238 0.40393484 -0.0043659448
0.16260225 0.40477088 -0.0035936185
0.16210088 0.3944203 -0.0041179466
0.16273664 0.39590541 -0.0046582706
0.16300611 0.39789003 -0.005325878
0.16323343 0.39988109 -0.005601509
0.16340755 0.40195608 -0.0056725354
0.16382185 0.40365306 -0.004782368
0.16410486 0.40494606 -0.0037218058
0.16409363 0.39615044 -0.0045187902
0.16514757 0.39753747 -0.0048119733
0.16539903 0.39955389 -0.0052945511
0.16563778 0.40137327 -0.0054461304
0.16591136 0.4033117 -0.0049397638
0.16613691 0.40500635 -0.0038867821
0.16738683 0.39734033 -0.0043808855
0.16757478 0.39899519 -0.0048803827
0.16793367 0.40117711 -0.0050875042
0.1680198 0.40322787 -0.004908178
0.16830565 0.4048354 -0.0040193414
0.16967061 0.39780357 -0.0041149594
0.16936465 0.3990235 -0.0045504044
0.1695402 0.40119639 -0.0048648915
0.1698747 0.40319827 -0.0048203841
0.17006126 0.40468806 -0.0041539432
0.17115028 0.39914817 -0.004274887
0.17139576 0.40108436 -0.0046107243
0.17162216 0.40286645 -0.0046148952
0.1718583 0.40491176 -0.0041202386
0.17330065 0.39879137 -0.0038580948
0.17356227 0.40073702 -0.0043411846
0.17379768 0.40256089 -0.0044910065
0.17405242 0.40466166 -0.0041780178
0.17467988 0.40595385 -0.0033335716
0.17508616 0.3989296 -0.0036260763
0.17572494 0.40037218 -0.0040153111
0.1759712 0.4022527 -0.0042761634
0.17623079 0.40434831 -0.0041043214
0.17641756 0.40578356 -0.0033640724
0.17732139 0.40013912 -0.0037389381
0.17769793 0.40189078 -0.0040389611
0.17792797 0.40370136 -0.0041224142
0.17824456 0.40546471 -0.0034952203
0.17967454 0.40174296 -0.0038664422
0.18010342 0.40339357 -0.0039994344
0.18037012 0.40540451 -0.003515254
0.18209006 0.40168115 -0.003650811
0.18228175 0.40309721 -0.0038307344
0.18255256 0.4052498 -0.0037495731
0.18318203 0.40663958 -0.0030615667
0.18381463 0.40133667 -0.0034340192
0.18401979 0.40285045 -0.0037618256
0.18430459 0.40508839 -0.0038717291
0.18468073 0.40677932 -0.0030886864
0.18509847 0.40120167 -0.0032145476
0.18574211 0.40254405 -0.0035186538
0.18605399 0.40486103 -0.003856279
0.186296 0.40686232 -0.0033446592
0.18690453 0.40784246 -0.0028097245
0.1878702 0.40319079 -0.0034979871
0.18828234 0.404984 -0.0037718157
0.18849413 0.40668648 -0.0035166808
0.18887611 0.40798584 -0.0028584707
0.18981542 0.40322077 -0.0032871461
0.19044656 0.40460834 -0.0035502962
0.19067605 0.40642467 -0.0035387259
0.19087487 0.40793025 -0.0029800825
0.19217324 0.40431422 -0.0033461645
0.19242337 0.40621543 -0.0035627624
0.19261286 0.40781567 -0.0031444526
0.19391133 0.40408856 -0.0031859442
0.19416973 0.40598166 -0.0034426881
0.1941973 0.40748024 -0.0031572643
0.1961135 0.40386322 -0.0029981332
0.19634879 0.40568027 -0.0031732917
0.19648761 0.40687001 -0.0030120045
0.19833107 0.40394723 -0.0028153092
0.19851357 0.4053224 -0.0029338642
0.19869769 0.40692475 -0.0026861907
0.20006031 0.40508044 -0.0025170438
0.20039651 0.40660557 -0.0023766828
0.2016813 0.40637901 -0.0021819342
0.21675697 0.40599304 -7.6435557e-05
0.03960127 0.28520006 -0.014076851
0.039873779 0.28694868 -0.014321033
0.0415406 0.28905046 -0.013761334
0.042081308 0.2903336 -0.013673733
0.04220105 0.29200354 -0.01382705
0.047261562 0.33037952 -0.012619378
0.048649281 0.33221754 -0.012418889
0.04946591 0.33322385 -0.012140035
0.045225792 0.29997742 -0.013472547
0.046225365 0.30249649 -0.013732486
0.050454874 0.3339507 -0.012879177
0.051191818 0.33500993 -0.01254552
0.048217185 0.30399364 -0.013265667
0.048474558 0.30569273 -0.013785893
0.048984289 0.30761749 -0.014214819
0.05192158 0.33554837 -0.012819111
0.053206045 0.33743095 -0.011972717
0.05031452 0.30604941 -0.013005663
0.050983924 0.30776501 -0.013210078
0.051186893 0.30958664 -0.013614841
0.051393699 0.31140134 -0.013929563
0.052526277 0.31485894 -0.014004152
0.054096445 0.33785722 -0.012455477
0.05522453 0.33916426 -0.012061863
0.056119341 0.34041214 -0.011678282
0.052276678 0.30802566 -0.012547459
0.052764248 0.30945149 -0.012621253
0.053064648 0.31109357 -0.012780886
0.053297348 0.31320697 -0.013034671
0.053758673 0.31570625 -0.013360486
0.055206556 0.31757003 -0.013035886
0.055204164 0.31909066 -0.01371685
0.057269279 0.34117562 -0.012074926
0.058051392 0.34235165 -0.011872102
0.055718772 0.31691092 -0.012412503
0.056527823 0.31887308 -0.012659245
0.056815933 0.32050985 -0.013174691
0.059123561 0.34354022 -0.011858167
0.060166359 0.34455997 -0.011806418
0.06090717 0.3459034 -0.011168455
0.0586388 0.32080957 -0.01214937
0.059124626 0.32270467 -0.012715355
0.059242673 0.32451314 -0.01337111
0.06164081 0.34603867 -0.011920909
0.062961988 0.3474763 -0.011650492
0.060443185 0.32250607 -0.011886487
0.060896728 0.32450631 -0.012448879
0.061141878 0.32624942 -0.012920078
0.06199415 0.32824016 -0.013079485
0.062410783 0.32977372 -0.013365926
0.062841877 0.32599655 -0.011822869
0.063674487 0.32811895 -0.012058514
0.06417542 0.33041516 -0.012558714
0.06473539 0.33174673 -0.012733077
0.067898199 0.35321504 -0.010941433
0.064355023 0.32698634 -0.011223348
0.065146469 0.32840404 -0.011204427
0.06546732 0.3301433 -0.011646482
0.066107251 0.33196554 -0.011907052
0.066606514 0.33348155 -0.012183053
0.066992663 0.33508655 -0.012454906
0.069003142 0.35395694 -0.011267875
0.069670528 0.35502031 -0.010722576
0.068733141 0.33583352 -0.01156546
0.068859786 0.33773836 -0.012277869
0.069469325 0.33902279 -0.012400363
0.070969686 0.35542637 -0.011300169
0.071631007 0.35655713 -0.010588924
0.070215426 0.33736292 -0.0111222
0.070917644 0.33908352 -0.0114475
0.07163275 0.34026816 -0.011627615
0.072281435 0.35580248 -0.011759659
0.073220603 0.35727492 -0.011083954
0.074159257 0.35834709 -0.010623633
0.073294945 0.34109139 -0.010994034
0.074056365 0.3432197 -0.011534858
0.074354179 0.34495068 -0.012131628
0.075002506 0.35740328 -0.011985463
0.075511992 0.35895473 -0.011104736
0.076036327 0.36049524 -0.010057068
0.077029653 0.36175275 -0.0096190423
0.075666748 0.34302807 -0.010455652
0.076069675 0.34464148 -0.010979545
0.076510832 0.34620148 -0.011475927
0.077075072 0.35932627 -0.011698489
0.07790713 0.36077631 -0.011144103
0.078364708 0.36213988 -0.010339873
0.078923382 0.36331892 -0.0094792321
0.077452309 0.34481514 -0.010356991
0.077795729 0.34597746 -0.010701384
0.078550346 0.34765786 -0.01127813
0.079809561 0.36241779 -0.010990015
0.080645218 0.36377436 -0.010302501
0.079966977 0.34939715 -0.011441707
0.082017146 0.36413598 -0.010753145
0.082858562 0.36534637 -0.010193901
0.08138223 0.34896064 -0.010465315
0.082169607 0.35001108 -0.010606857
0.083569057 0.35184515 -0.010910299
0.0847461 0.36619246 -0.010511366
0.085360482 0.3673037 -0.0097327009
0.08602979 0.36831465 -0.0088669201
0.085127249 0.35340881 -0.010858815
0.086760916 0.36767951 -0.010338623
0.087247439 0.36888233 -0.0093030222
0.087098382 0.35488871 -0.01037817
0.088758208 0.36938459 -0.0099312132
0.089592174 0.37049612 -0.0094315857
0.088665567 0.3558667 -0.0099974088
0.089310475 0.35716623 -0.010567879
0.09056592 0.35867482 -0.010859289
0.090659469 0.37103057 -0.0099499105
0.091748275 0.37233946 -0.0094662737
0.090658858 0.35737315 -0.0099347131
0.091814667 0.35843572 -0.0099876663
0.092875555 0.35966608 -0.010124906
0.09350013 0.37302524 -0.0097926175
0.094281062 0.37413624 -0.0091961902
0.093593419 0.36086571 -0.010360242
0.094541639 0.36224872 -0.010517087
0.09510494 0.37330857 -0.010167145
0.095803082 0.3743284 -0.009672951
0.096193098 0.36251816 -0.0097849462
0.096165679 0.36429197 -0.010634746
0.097742505 0.37450537 -0.010029174
0.098070621 0.37592185 -0.0092341341
0.097463198 0.36281577 -0.0092663951
0.098137811 0.3640672 -0.0096197696
0.098797254 0.36589807 -0.010164371
0.099420562 0.36777526 -0.010482389
0.10006109 0.37592247 -0.01000037
0.10038372 0.3773711 -0.0090858946
0.10022566 0.36536193 -0.0092677474
0.10111683 0.36746567 -0.0097815106
0.10131072 0.36939797 -0.010347623
0.10163896 0.37108079 -0.010611097
0.10208247 0.37259915 -0.010840936
0.10164656 0.37619102 -0.010219153
0.1022603 0.37752786 -0.0096908724
0.10278577 0.37882712 -0.0089128213
0.10296161 0.36748973 -0.0090770246
0.10327253 0.36914846 -0.0097152656
0.10337401 0.37131786 -0.010386231
0.10335649 0.37300622 -0.010679528
0.10407823 0.37764171 -0.0100345
0.10441374 0.37904412 -0.0092353271
0.10515229 0.38044634 -0.0084946603
0.10482177 0.36807352 -0.008670209
0.10497849 0.36955765 -0.0093141738
0.10517194 0.37152749 -0.010025727
0.10598419 0.37314126 -0.010344685
0.10642412 0.3791551 -0.0097158458
0.10647704 0.38084421 -0.0086892201
0.10717563 0.38180333 -0.0080580059
0.1065393 0.3695235 -0.0088024111
0.10733185 0.37117928 -0.0093162321
0.10797086 0.37306565 -0.0098530343
0.10863882 0.374843 -0.010188427
0.10864518 0.3789908 -0.01033079
0.10867814 0.38072741 -0.0094467159
0.1091131 0.3824766 -0.0083432905
0.10915889 0.37124273 -0.0087482594
0.10978562 0.37256715 -0.0091522802
0.10999483 0.37451425 -0.0097866729
0.11020107 0.3764101 -0.01019516
0.11024203 0.37811071 -0.010335782
0.11037874 0.38123795 -0.0096061369
0.11096935 0.38236046 -0.0090816338
0.11151934 0.38349232 -0.0084405849
0.11120585 0.37260824 -0.0085627893
0.11182498 0.37394917 -0.0089471005
0.11201102 0.37598291 -0.0096942224
0.11231246 0.37777138 -0.01004569
0.11313926 0.38408196 -0.0083965519
0.11385204 0.37598467 -0.0090667447
0.11424079 0.3779881 -0.0096327849
0.11522665 0.37977523 -0.0096924081
0.11526244 0.3840498 -0.0090723215
0.11554208 0.38519713 -0.0083894022
0.11529887 0.37658751 -0.0087449001
0.11638012 0.37776282 -0.008856209
0.11697802 0.37973374 -0.0093002627
0.1171198 0.38178271 -0.0096305832
0.1174875 0.38373783 -0.0096665928
0.11752962 0.38556436 -0.0087413434
0.11794206 0.38685673 -0.0077119297
0.11908516 0.38768929 -0.0073575987
0.11819986 0.37777513 -0.0081738168
0.11876375 0.37925917 -0.0086034043
0.11890251 0.38136044 -0.0090945316
0.11910073 0.38332656 -0.0095474189
0.11925812 0.3853589 -0.0093783895
0.11980237 0.38710168 -0.0086298538
0.12036577 0.38823292 -0.0075846943
0.12107813 0.38912454 -0.0068690465
0.12033077 0.37919408 -0.0080636619
0.12064319 0.38104659 -0.0086128321
0.12086466 0.38297161 -0.0091221035
0.12121233 0.38506356 -0.0093141254
0.12130813 0.38711828 -0.0089382762
0.12180005 0.38863295 -0.008160267
0.122365 0.38972995 -0.0073069306
0.12182651 0.37919027 -0.0076117604
0.12239819 0.38064906 -0.0079588983
0.12276114 0.38281298 -0.008586592
0.12327403 0.38510549 -0.0091087352
0.12362375 0.38706398 -0.0089186598
0.12388046 0.38865975 -0.0084177572
0.1239314 0.39019045 -0.0072047822
0.12416758 0.38134024 -0.0077359127
0.12484065 0.38299373 -0.0081232684
0.12566732 0.38466915 -0.0084708901
0.12585279 0.38660377 -0.0086287828
0.12611778 0.38873753 -0.0082900487
0.12582986 0.39057809 -0.0075672753
0.12743826 0.3842555 -0.007866757
0.12762703 0.38623777 -0.0082759224
0.12788728 0.38845071 -0.0081626913
0.12814377 0.3905969 -0.0078535955
0.12876712 0.39168593 -0.0073388531
0.12920454 0.38447428 -0.0074650706
0.12935521 0.38597116 -0.0077935075
0.12953092 0.38804448 -0.0079181222
0.12997629 0.39008501 -0.007870771
0.13026783 0.39182934 -0.0074402303
0.13047555 0.38430551 -0.0071007861
0.13108276 0.38571072 -0.0073835072
0.13145621 0.38775513 -0.0076850099
0.13156024 0.38986665 -0.0077254646
0.13189204 0.3917892 -0.0075010895
0.13250726 0.39294377 -0.0071403291
0.13295873 0.38624409 -0.007125149
0.13309003 0.38778031 -0.0074116685
0.13388439 0.38972917 -0.0075066159
0.13410184 0.39149347 -0.0073894849
0.13435051 0.39336425 -0.0071324194
0.13546836 0.39465028 -0.006715476
0.13571452 0.38980544 -0.0072649447
0.13630046 0.39114901 -0.0072606271
0.13651673 0.39300206 -0.0072686882
0.13683641 0.39497542 -0.0067830635
0.13759366 0.39631975 -0.0061613638
0.13792723 0.39103606 -0.0070804171
0.13826557 0.39273772 -0.0071192305
0.13854523 0.39492553 -0.0071034762
0.13883474 0.39634874 -0.0064216075
0.13942504 0.39110184 -0.0069465018
0.14029323 0.39250189 -0.0069551691
0.14073443 0.39463612 -0.0071058045
0.14051497 0.39632455 -0.0067289481
0.14230084 0.39273468 -0.0068033272
0.14299285 0.39469939 -0.0070017921
0.14288709 0.39648843 -0.0070508644
0.14378123 0.39778432 -0.0068041976
0.14474623 0.39442965 -0.0068600853
0.1449606 0.39631212 -0.0070776087
0.1451664 0.39803693 -0.0067374841
0.14579898 0.3990863 -0.0062599275
0.14649127 0.39422876 -0.0067208093
0.14671184 0.39611983 -0.0070050959
0.14692757 0.39789525 -0.0069096861
0.14729005 0.39927429 -0.0063647572
0.14866066 0.39399126 -0.0063869762
0.14890027 0.39582595 -0.0067920592
0.14912389 0.39763817 -0.0068685128
0.14934568 0.39922166 -0.0064366404
0.15045887 0.3941749 -0.0062286146
0.15108986 0.39542085 -0.0065259594
0.1513173 0.3972407 -0.0066663474
0.15153341 0.39895439 -0.0064628934
0.15294817 0.39709041 -0.0065240795
0.15329093 0.39870071 -0.0064219614
0.15487239 0.39713168 -0.0063346247
0.15509486 0.39889011 -0.0062605441
0.1557546 0.40049306 -0.0059311022
0.15660942 0.3969087 -0.0061680847
0.15727249 0.39863828 -0.006148316
0.15749967 0.4003056 -0.0059578349
0.05074231 0.33316514 -0.014147581
0.052499484 0.33377647 -0.014420686
0.053115211 0.33558407 -0.013548666
0.05379748 0.33674207 -0.013174843
0.054539021 0.33529449 -0.014573488
0.05504597 0.33719081 -0.013601966
0.055890996 0.33867115 -0.012985514
0.053774621 0.31771433 -0.014151635
0.056889877 0.33730528 -0.014371878
0.057108898 0.33913839 -0.013386171
0.057884011 0.34068432 -0.012877722
0.056185454 0.32135236 -0.013986525
0.058847163 0.33888271 -0.014337111
0.059337139 0.34064671 -0.013664716
0.060090903 0.34248373 -0.013284157
0.058564145 0.32482067 -0.013801851
0.059455127 0.326828 -0.013817467
0.060079712 0.32864168 -0.013931639
0.060346868 0.33035514 -0.01426358
0.060367875 0.33237252 -0.014632509
0.060869474 0.34048045 -0.014769224
0.061696507 0.3426162 -0.014099922
0.061724223 0.34443823 -0.01332509
0.062548876 0.3461332 -0.012705877
0.063644111 0.34764388 -0.012154963
0.0624041 0.33079439 -0.013645801
0.062307857 0.33239692 -0.014013454
0.062344458 0.33440235 -0.014411332
0.063388057 0.34493276 -0.014053984
0.064047404 0.34613153 -0.013833291
0.064649262 0.34791252 -0.012880888
0.065319553 0.3495771 -0.011970981
0.064082131 0.33261481 -0.013331639
0.064315997 0.33437705 -0.013675091
0.064263925 0.33599415 -0.014024565
0.065642297 0.34663689 -0.014530245
0.066212036 0.34801078 -0.013769045
0.066577271 0.34996167 -0.012700588
0.067128301 0.35128528 -0.012096699
0.067807451 0.35244828 -0.01161722
0.065881848 0.33645067 -0.013510883
0.066791251 0.33778423 -0.013451084
0.068445913 0.34594554 -0.014383917
0.068234578 0.34770399 -0.014398824
0.068410747 0.34969458 -0.013710215
0.068870611 0.35162389 -0.012929489
0.069212668 0.35319704 -0.012149555
0.06875442 0.3399547 -0.013233231
0.069548227 0.34201929 -0.013661013
0.069802888 0.34379795 -0.013935938
0.070062302 0.3455362 -0.013926147
0.070334636 0.34725124 -0.014051057
0.070633896 0.3494336 -0.013942255
0.070900001 0.35162148 -0.013621842
0.070910566 0.35359061 -0.012770479
0.07175716 0.35483566 -0.01227931
0.070906065 0.34222937 -0.013077516
0.07158009 0.34344897 -0.013161446
0.071912736 0.34513721 -0.013355037
0.07215181 0.34691501 -0.013572813
0.072399363 0.34920347 -0.01383268
0.072638325 0.35147187 -0.013824639
0.072891787 0.35317078 -0.01355396
0.07327304 0.35513908 -0.012743969
0.07404495 0.35662422 -0.012073475
0.073955454 0.3472001 -0.013061794
0.074200653 0.34940264 -0.013461331
0.074406944 0.3512232 -0.013655827
0.074641727 0.35298538 -0.013683897
0.074954875 0.35510001 -0.013289112
0.075469002 0.35689542 -0.012488777
0.075560443 0.34754109 -0.012594929
0.076045498 0.34899753 -0.012864632
0.076660909 0.3508364 -0.013238764
0.0768589 0.3526845 -0.013559276
0.077071905 0.35446838 -0.013526904
0.07738331 0.35659325 -0.01318364
0.077912726 0.35848361 -0.012514485
0.078008369 0.35970378 -0.011865659
0.07760638 0.34897378 -0.012300428
0.078747436 0.35063115 -0.012573956
0.079071738 0.35234526 -0.013077648
0.07928706 0.3541725 -0.013447989
0.079545714 0.35641235 -0.013460482
0.079845756 0.35853881 -0.013141365
0.079705499 0.36040488 -0.012201139
0.080773346 0.36204475 -0.011762973
0.080649875 0.35061187 -0.011784646
0.080843441 0.35202125 -0.012434277
0.081133761 0.35378075 -0.013013619
0.081333429 0.35615918 -0.013379198
0.081588909 0.3583917 -0.013436805
0.081809103 0.36011067 -0.013188385
0.082188889 0.36210972 -0.012356432
0.082750045 0.3638218 -0.011501078
0.082184061 0.35171419 -0.011615237
0.082924686 0.35406113 -0.012439501
0.083149754 0.35635853 -0.013067593
0.083639346 0.35822883 -0.013323091
0.084014483 0.35991484 -0.013437947
0.083954722 0.36186144 -0.013228276
0.084273942 0.36384794 -0.01234406
0.084750682 0.36532518 -0.011382006
0.084504418 0.35437903 -0.011757997
0.085075043 0.35627311 -0.012410523
0.085659847 0.35784405 -0.012829854
0.086182222 0.3596895 -0.013153177
0.085710227 0.36170426 -0.013390659
0.086033925 0.36368489 -0.01302982
0.086742863 0.36545923 -0.0124035
0.087213576 0.36691573 -0.011454046
0.087336294 0.35747525 -0.011990856
0.087863408 0.35949293 -0.012678829
0.088587172 0.36118221 -0.012885044
0.088583559 0.36310935 -0.01308628
0.088727362 0.36511174 -0.012811859
0.088852562 0.36737841 -0.012074368
0.08960171 0.36875311 -0.011292007
0.08988145 0.3609331 -0.012319378
0.090279631 0.36295083 -0.012619151
0.090443864 0.36505163 -0.012775992
0.090825103 0.36697167 -0.01247082
0.091167077 0.36896119 -0.011723928
0.0917596 0.37059355 -0.01082378
0.091749512 0.36146629 -0.011649901
0.092149906 0.36308861 -0.012002548
0.092432998 0.3648501 -0.012273054
0.092652209 0.36664885 -0.012342793
0.092902787 0.36886996 -0.012091546
0.093264617 0.37079966 -0.011275791
0.093563378 0.3718257 -0.010618986
0.093544416 0.36266214 -0.011186486
0.094290562 0.36433396 -0.011486202
0.09450011 0.36620516 -0.01182242
0.094909161 0.36865625 -0.011900405
0.09541788 0.37064686 -0.011520093
0.095531948 0.37214091 -0.010957446
0.095986269 0.37325597 -0.010395946
0.096613459 0.36642182 -0.011193241
0.096952744 0.36827868 -0.011419342
0.097624525 0.37032574 -0.011302833
0.097619154 0.37214023 -0.011029202
0.097887807 0.37351757 -0.01056767
0.098854572 0.36860445 -0.010846683
0.099452808 0.36991617 -0.010953783
0.099666864 0.37170994 -0.010984329
0.099953406 0.37386706 -0.010723098
0.10106577 0.37190878 -0.01087345
0.10164329 0.37383798 -0.010822516
0.10213301 0.37563005 -0.010473366
0.10359541 0.37427703 -0.010726806
0.10375421 0.37561014 -0.010593802
0.10394448 0.37685597 -0.010271129
0.10536309 0.37402719 -0.010549396
0.10595327 0.37534454 -0.010559116
0.10617456 0.37710267 -0.010448499
0.10722536 0.37827682 -0.010315425
0.10772245 0.375065 -0.010346309
0.10839477 0.37677985 -0.010432723
0.10810443 0.37818378 -0.010395098
0.11087281 0.37870511 -0.010310418
0.1107033 0.38035619 -0.010184125
0.11141653 0.38192865 -0.0094262138
0.11175194 0.37857753 -0.010204294
0.11239511 0.38034156 -0.010173863
0.11274166 0.38233531 -0.0096229305
0.11345389 0.38330957 -0.0091014979
0.11408962 0.38026583 -0.0099779163
0.11487859 0.38221329 -0.0098673766
0.11508585 0.38338158 -0.0095311068
0.11681586 0.38327324 -0.0097512025
0.061879963 0.34176624 -0.014894662
0.06617073 0.34597534 -0.014847474
0.067565702 0.34157258 -0.01440335
0.067927219 0.34373036 -0.014554258
0.067733891 0.34551582 -0.014633859
0.086822197 0.36146212 -0.013261497
0.08700189 0.36277381 -0.013203604
0.087683514 0.3613683 -0.013165036
0.087876678 0.36266032 -0.013131103
0.21243241 0.19966803 0.040905707
0.21293658 0.1982156 0.040867101
0.21300538 0.19650066 0.040470589
0.21180597 0.19986957 0.041023511
0.2114282 0.19850297 0.041202009
0.21154349 0.1965237 0.040641487
0.22150937 0.19475089 0.039793491
0.22178391 0.19350272 0.040270481
0.22176483 0.19147447 0.040399693
0.22158746 0.18986259 0.04050497
0.22004448 0.19630148 0.039323613
0.22020645 0.19511227 0.039623499
0.22054441 0.19372639 0.039831813
0.22051997 0.19151194 0.040244766
0.22039586 0.18990825 0.040540405
0.22040956 0.18877725 0.040683869
0.21796404 0.19864263 0.039378807
0.21867639 0.1971163 0.039338149
0.21907699 0.19574952 0.039363932
0.21905215 0.19110261 0.040062223
0.21877393 0.19003277 0.040271837
0.21911547 0.18861209 0.040414184
0.21719189 0.19899654 0.039468389
0.21706681 0.19800569 0.03954852
0.21545972 0.19968665 0.039999712
0.21540643 0.19830582 0.039837863
0.21540272 0.18863599 0.039798737
0.21488312 0.18715 0.040025715
0.21374635 0.20012064 0.040320545
0.21396098 0.1980608 0.040002689
0.2133428 0.19591479 0.039949276
0.21337368 0.19510619 0.038944893
0.21423525 0.19072343 0.039497495
0.21431451 0.1888946 0.039702646
0.21398297 0.18735291 0.040169906
0.21234426 0.20045018 0.040685322
0.21231757 0.19511211 0.039241679
0.21273999 0.19296245 0.038782343
0.21318753 0.19145177 0.038693398
0.21327884 0.18964322 0.039617155
0.22286661 0.19570069 0.037724953
0.22273791 0.19484386 0.038415547
0.22284165 0.19334306 0.038218971
0.22264975 0.19206215 0.037761867
0.22160739 0.19630863 0.038181726
0.2214281 0.19487563 0.039098151
0.22193773 0.19314796 0.039189689
0.22198835 0.19148128 0.038967174
0.22176348 0.19021501 0.038894974
0.22135362 0.18909623 0.03890723
0.21980743 0.19839732 0.038229253
0.22032055 0.19680753 0.038745735
0.22072206 0.18807463 0.040004585
0.2196781 0.18695775 0.039001241
0.21814035 0.20061049 0.038187858
0.21851091 0.19910248 0.03894975
0.21817753 0.19538081 0.038001362
0.21897231 0.19332559 0.038433123
0.21905036 0.19234249 0.038592704
0.21864037 0.18762785 0.040371038
0.21861485 0.18667279 0.039761718
0.21840791 0.18618727 0.038596921
0.21703944 0.20091584 0.038771611
0.21707147 0.19990402 0.039152589
0.21756832 0.18969609 0.039654668
0.21704021 0.18816058 0.040163487
0.217002 0.18666752 0.039543297
0.21665753 0.185955 0.03879853
0.21536645 0.20126012 0.039499614
0.21585254 0.20037606 0.03970499
0.21602546 0.1881035 0.040052064
0.21537004 0.18664391 0.039919302
0.21514511 0.18621776 0.038688242
0.21358545 0.20150246 0.039689731
0.21261211 0.20094933 0.039880484
0.21341129 0.19623129 0.039230991
0.21468057 0.19113563 0.037524674
0.21360721 0.18686391 0.039325655
0.21419258 0.18622614 0.037835274
0.21130471 0.20076443 0.039698381
0.21414796 0.19230264 0.037261348
0.21309328 0.18724188 0.038386568
0.21010379 0.19984879 0.039350592
0.22278579 0.1969122 0.036269657
0.22311909 0.1932794 0.035984326
0.2229307 0.19182107 0.037266158
0.2225358 0.19068116 0.03654597
0.22246774 0.18926419 0.03572496
0.22158696 0.19835548 0.03679876
0.22220115 0.19712858 0.037079968
0.22208506 0.1902861 0.037891269
0.2212878 0.18864651 0.037080012
0.22130994 0.18793137 0.035496235
0.22038847 0.20061605 0.036607359
0.22063357 0.19955055 0.037010942
0.22051586 0.18781605 0.038311332
0.21998642 0.18730478 0.036743969
0.21873698 0.20240495 0.036792111
0.21876486 0.201111 0.03753243
0.219346 0.19972733 0.037750863
0.21865843 0.18652101 0.036305465
0.21749632 0.20261189 0.037215311
0.2169812 0.20167226 0.038392536
0.21712907 0.19704176 0.03857195
0.21769039 0.19616577 0.038070749
0.21689609 0.18623312 0.035340693
0.21564808 0.20273194 0.038332757
0.21547531 0.2021271 0.038883999
0.21570092 0.19707018 0.038949382
0.2147972 0.19614834 0.039123118
0.21499506 0.18629187 0.035710011
0.21441266 0.20303717 0.038615078
0.21368194 0.20230335 0.038937259
0.2141031 0.19709338 0.039280631
0.21363777 0.195986 0.038823318
0.21309875 0.19520538 0.038077686
0.21370418 0.18631078 0.036374349
0.21205346 0.20226002 0.039429702
0.21304476 0.1944526 0.037099931
0.21347179 0.19349721 0.037269171
0.2127894 0.18710057 0.034792148
0.21014081 0.20079331 0.039320916
0.212598 0.1891316 0.035285778
0.21280852 0.18827108 0.035110299
0.22488736 0.19474481 0.034400024
0.22527757 0.1938493 0.034012906
0.22429618 0.19871265 0.034614407
0.22436062 0.19743857 0.034588344
0.22422217 0.19566235 0.03469551
0.22410133 0.19328362 0.034689009
0.2241502 0.19201925 0.034304999
0.22387573 0.19029412 0.033830777
0.22342296 0.18881521 0.033820245
0.22255625 0.2008571 0.035129614
0.22304976 0.19958264 0.035173982
0.22183487 0.18777661 0.034631021
0.22134881 0.20259255 0.035406318
0.22125174 0.20138897 0.035723902
0.22033049 0.18676445 0.034514904
0.21938403 0.18631627 0.034653969
0.21962161 0.20292976 0.035820603
0.21850324 0.18561952 0.03392259
0.21780857 0.18440524 0.033091698
0.21791014 0.20350711 0.036631379
0.2179981 0.19189794 0.036862303
0.21703361 0.19105768 0.03658545
0.21682487 0.18534093 0.033741679
0.21639675 0.20423995 0.037148647
0.21532306 0.1854215 0.034228191
0.21431135 0.20422964 0.037791383
0.21382582 0.18514505 0.033886064
0.21333508 0.20433655 0.038147267
0.21252254 0.19335607 0.035875164
0.21251823 0.18571442 0.033515111
0.21113712 0.18599114 0.03261758
0.27797046 0.18015663 0.034091074
0.27788222 0.17860599 0.034056529
0.27685913 0.18240061 0.034217611
0.27684048 0.18061356 0.034225471
0.27673262 0.17867799 0.034190889
0.27661577 0.1767305 0.034096327
0.27611434 0.17481415 0.034002129
0.27596977 0.17249835 0.03377758
0.27586952 0.17096104 0.033583604
0.27529931 0.19433416 0.034644529
0.27520868 0.19278182 0.034567282
0.27473047 0.19125116 0.034505676
0.27510324 0.1842161 0.034348007
0.27502167 0.18266636 0.034371033
0.27492139 0.18073376 0.034383751
0.27481115 0.17879549 0.034347665
0.27469787 0.17685829 0.03426272
0.27458602 0.17493305 0.034141649
0.27443591 0.17260398 0.033910017
0.2743035 0.17065218 0.033659697
0.27402595 0.20047303 0.034921873
0.27402323 0.19907218 0.034904603
0.27375194 0.19442248 0.034697525
0.27366698 0.19287476 0.03460978
0.27354732 0.19093023 0.034520943
0.27286798 0.18590561 0.03441621
0.27318972 0.184718 0.034421902
0.27309525 0.18278483 0.034450367
0.27298829 0.18084702 0.034455806
0.27287671 0.17890768 0.034413055
0.27276409 0.17696819 0.034345176
0.2726638 0.17505327 0.034233741
0.2725091 0.17271258 0.03402536
0.2723777 0.17075871 0.033805087
0.27191493 0.16961384 0.033690799
0.27261087 0.21472955 0.035627671
0.27249789 0.21279387 0.035482135
0.27240863 0.21124339 0.035362091
0.27208805 0.20249489 0.035039298
0.27217963 0.20073703 0.035030454
0.27208835 0.19918528 0.034987364
0.27258897 0.19449042 0.034706604
0.27172247 0.19298574 0.034606766
0.27213269 0.19114383 0.03451195
0.27125901 0.18668172 0.034467086
0.27127162 0.18483905 0.034479294
0.2711626 0.18290015 0.034534223
0.27104726 0.18096022 0.034570355
0.27093399 0.17901884 0.034501709
0.27082169 0.17707935 0.034399927
0.27070925 0.17514125 0.034277055
0.27057827 0.17282622 0.034097765
0.270457 0.17088856 0.033917286
0.27032754 0.16894166 0.033693399
0.27019989 0.16699754 0.033472814
0.26998338 0.1650752 0.033265959
0.26996151 0.1631368 0.033102039
0.26996714 0.16141596 0.032970071
0.27091664 0.21456784 0.035645388
0.2705633 0.21290788 0.035462152
0.27063289 0.21142577 0.03536116
0.27000383 0.20320213 0.035096485
0.26987183 0.2008718 0.035100523
0.26958588 0.19902116 0.035018966
0.26889181 0.19781706 0.034946419
0.26904276 0.18691355 0.034485392
0.26895076 0.18497807 0.034523897
0.26883048 0.18303764 0.034557421
0.26871631 0.18109995 0.03449041
0.26860139 0.17916107 0.034425486
0.2684879 0.17721988 0.034344546
0.26839584 0.17529246 0.034280382
0.26827553 0.17297675 0.034212522
0.26814508 0.1710303 0.034047347
0.26801577 0.16908361 0.033848919
0.2679038 0.16716155 0.033586524
0.26776206 0.16519587 0.033395801
0.26764488 0.16325514 0.03327078
0.26835304 0.16204815 0.033193547
0.26650992 0.1571109 0.03278432
0.26903778 0.22130804 0.035614755
0.26860261 0.21924092 0.035652425
0.26850989 0.21769436 0.035630174
0.26814851 0.2048714 0.03502183
0.26808202 0.20331745 0.035038285
0.26795515 0.20098646 0.035044298
0.26782975 0.19905071 0.034951672
0.26769939 0.19711472 0.034816392
0.2675727 0.19517566 0.034683164
0.26709321 0.19364668 0.034621123
0.26710367 0.18703006 0.034428056
0.26702759 0.18509781 0.034453653
0.26692855 0.1831616 0.034464851
0.26677713 0.18121661 0.034397904
0.26666316 0.17927852 0.034305684
0.26654714 0.17733876 0.034240238
0.26648211 0.17541927 0.034205005
0.26635599 0.17309912 0.034172844
0.26620179 0.1711441 0.034049951
0.26607063 0.16919675 0.033858284
0.26596633 0.16726835 0.033636782
0.26583168 0.16531967 0.033365287
0.26570547 0.16337247 0.033214539
0.26507765 0.15913811 0.032888677
0.26537409 0.15756328 0.032818418
0.26528481 0.15601426 0.032735948
0.26765561 0.22071891 0.03554431
0.26705629 0.21933597 0.035514031
0.26695779 0.21739918 0.035486098
0.26668406 0.21556403 0.03527768
0.2662181 0.20498815 0.034870423
0.26613718 0.20343649 0.034890782
0.26601031 0.20110586 0.034857903
0.26589599 0.19917011 0.034783341
0.2657983 0.19723707 0.034688212
0.2656759 0.195299 0.034609679
0.26554033 0.19335534 0.034565669
0.2652567 0.19150142 0.034434922
0.26506591 0.18937774 0.034337372
0.26519582 0.18715511 0.034301613
0.26516917 0.18523255 0.034248296
0.26507288 0.18329601 0.034226365
0.2649301 0.18135028 0.034195136
0.26476562 0.17940241 0.034091424
0.26462346 0.17745934 0.034057003
0.2645418 0.17553273 0.034056019
0.26441413 0.17321171 0.034043755
0.26430157 0.17127837 0.033928435
0.2641342 0.16931687 0.033757698
0.26404068 0.16739373 0.033494975
0.26394174 0.16546622 0.033221044
0.26379716 0.16350888 0.033000775
0.26359054 0.16167079 0.032852717
0.26357242 0.15962943 0.03271655
0.26346794 0.15769333 0.032530867
0.26318005 0.15596794 0.032365672
0.26512209 0.21945687 0.035341457
0.26505601 0.21751206 0.035298225
0.26490375 0.21559954 0.035103884
0.2642917 0.20510745 0.034676228
0.26419389 0.20355645 0.034671333
0.26405314 0.20122829 0.03464172
0.26393902 0.19929214 0.034575447
0.26384971 0.19735567 0.034490556
0.26375812 0.19541572 0.034481667
0.26364002 0.19347952 0.034422141
0.26352739 0.19154286 0.034336507
0.26337397 0.18960097 0.034174852
0.26330093 0.18728703 0.034013912
0.26328573 0.18537433 0.03394784
0.26320088 0.18343724 0.033897631
0.26309797 0.18149826 0.033827964
0.26293191 0.17954248 0.033754464
0.26275232 0.17758796 0.033684634
0.2626085 0.1756472 0.033675976
0.26251838 0.17333743 0.033640724
0.26241127 0.17141318 0.033543665
0.26224074 0.1694565 0.033381056
0.26215401 0.16753763 0.033090048
0.26208553 0.16562718 0.032817349
0.26196581 0.16369225 0.032619935
0.26180705 0.16172096 0.032459028
0.2616913 0.15977287 0.032292031
0.26158544 0.15783989 0.03219378
0.26147747 0.15590301 0.032021206
0.26318076 0.21957712 0.035219137
0.26308623 0.21764174 0.035158508
0.26316971 0.21589938 0.035017371
0.26222995 0.20555238 0.034503806
0.26226974 0.20367783 0.034527577
0.26213261 0.20134559 0.034434471
0.26201737 0.1994098 0.034337107
0.26189789 0.19747707 0.034260873
0.26182103 0.19553845 0.034232099
0.26172602 0.19360495 0.034215778
0.26162276 0.19166854 0.034130082
0.26149797 0.18973476 0.033987917
0.26139191 0.18741529 0.033766381
0.26135316 0.18550503 0.033645712
0.26128531 0.18357167 0.033535141
0.26118419 0.18162405 0.033460025
0.26103035 0.1796661 0.03335014
0.26086912 0.17771381 0.033290103
0.2607224 0.17577922 0.033242084
0.26062995 0.1734651 0.033197284
0.26053107 0.17154594 0.033094756
0.26038221 0.16960508 0.032880399
0.26033437 0.16771562 0.032648005
0.2602343 0.16579646 0.032398101
0.26007676 0.16385396 0.032220602
0.25992858 0.16189159 0.032066833
0.25980362 0.15993115 0.031911716
0.25970894 0.1579937 0.03173022
0.25948718 0.15590167 0.03156985
0.25869733 0.15380494 0.031196469
0.25858971 0.15190022 0.031124935
0.2588588 0.14998022 0.03096192
0.2584095 0.14854063 0.030644186
0.26123393 0.21969742 0.035145663
0.26112419 0.21776713 0.035079766
0.26057687 0.20560454 0.034353185
0.26034161 0.20379865 0.034337729
0.26020348 0.20146227 0.034211714
0.26008677 0.19952722 0.034109954
0.25996712 0.19759393 0.034086958
0.25984684 0.19566077 0.034039054
0.25977454 0.19372773 0.034034375
0.25967547 0.19179606 0.033921942
0.259572 0.18985963 0.033769161
0.25944746 0.18754646 0.03354108
0.25936589 0.18562204 0.033380907
0.25925016 0.18368275 0.033256743
0.2591117 0.18172848 0.033163901
0.25900632 0.17976907 0.033051997
0.25892767 0.17783143 0.032948237
0.25880891 0.17591089 0.032882202
0.25872546 0.17358747 0.032842401
0.25861356 0.17167655 0.032764997
0.25850314 0.16975814 0.032561857
0.25840473 0.16784465 0.032311026
0.25829187 0.16593641 0.032096442
0.25814322 0.16400059 0.031894505
0.2579813 0.16202521 0.031717528
0.25787869 0.16008101 0.031517707
0.25778899 0.15814815 0.031328201
0.25765163 0.15579762 0.031064497
0.25755084 0.15389869 0.030920256
0.25750402 0.15206227 0.030878086
0.25743285 0.1501836 0.030726334
0.25729734 0.14827637 0.030385029
0.25944209 0.21972995 0.035114639
0.25917706 0.21788569 0.035036016
0.25891665 0.21604446 0.034882896
0.25887564 0.20545602 0.034243569
0.25840035 0.203924 0.034165945
0.25881502 0.20206983 0.034096353
0.25792736 0.19761375 0.033928894
0.25790668 0.19577801 0.033921368
0.25779191 0.19384313 0.033853617
0.25769368 0.19191888 0.033763517
0.25758758 0.18997683 0.03360356
0.2577014 0.18776385 0.033421807
0.25774691 0.18571506 0.033238459
0.25771508 0.18392473 0.033104412
