# .PCD v0.7 - Point Cloud Data file format
VERSION 0.7
FIELDS x y z
SIZE 4 4 4
TYPE F F F
COUNT 1 1 1
WIDTH 1364
HEIGHT 1
VIEWPOINT 0 0 0 1 0 0 0
POINTS 1364
DATA ascii
0.47947857 -0.2629959 0.016270638
0.48051363 -0.26445332 0.015516696
0.48190421 -0.2657671 0.014655246
0.28965288 -0.03004951 0.021463515
0.2908681 -0.031147657 0.021692755
0.29233947 -0.032322112 0.022881832
0.4768973 -0.26301831 0.016736887
0.47824576 -0.26420549 0.016118454
0.47929934 -0.26560885 0.015292265
0.48032773 -0.26689079 0.014553218
0.28713608 -0.029958801 0.021507414
0.28822032 -0.031122144 0.021715293
0.28940615 -0.03242306 0.021824947
0.29062092 -0.033263139 0.022353638
0.47554231 -0.26420182 0.016416
0.47669464 -0.26561326 0.01574548
0.47806615 -0.26689783 0.015068609
0.47919363 -0.26763386 0.014502618
0.28619754 -0.031052845 0.021650303
0.28646874 -0.032156341 0.022083584
0.28808999 -0.033612363 0.021542791
0.28879365 -0.034837745 0.022152891
0.47404161 -0.26518235 0.016198073
0.47509414 -0.26694638 0.015445913
0.47654417 -0.2679604 0.014805317
0.28502411 -0.033329066 0.022095514
0.28618652 -0.034710169 0.022066671
0.28725252 -0.036351476 0.0223644
0.47105184 -0.26600471 0.016064426
0.47277534 -0.26620057 0.015837409
0.47383815 -0.26791787 0.015084641
0.28487867 -0.034402695 0.020844119
0.28563297 -0.035723429 0.020829581
0.2862711 -0.037148859 0.021509206
0.28714401 -0.038517751 0.022303497
0.46929559 -0.26642969 0.015939327
0.47100696 -0.26738501 0.015367762
0.47238708 -0.26887581 0.014660975
0.28437737 -0.037302312 0.019520434
0.28559551 -0.039163083 0.019956442
0.28689098 -0.039794631 0.021015435
0.46723893 -0.2661685 0.015964694
0.46803916 -0.26738343 0.01531811
0.46933681 -0.26859248 0.014738648
0.28367832 -0.039222274 0.018945929
0.28489345 -0.040282212 0.019664546
0.28630301 -0.041174602 0.020713661
0.28629139 -0.042437516 0.021244444
0.28369251 -0.040934492 0.019396232
0.28475243 -0.04220397 0.019762753
0.53236037 -0.0075243753 0.022103533
0.53338653 -0.0083357887 0.022013474
0.53448606 -0.0096105216 0.022037251
0.53583735 -0.011226739 0.022014914
0.53693134 -0.01286545 0.021907605
0.53759092 -0.014139972 0.021881031
0.52712888 -0.0035764351 0.02227019
0.52795255 -0.0045368294 0.022361232
0.5309574 -0.0077871587 0.022612773
0.53208506 -0.0094139064 0.02277917
0.53323966 -0.010641405 0.022775922
0.53458238 -0.012271686 0.022725636
0.53587562 -0.013933097 0.022531375
0.53701687 -0.015493527 0.022232817
0.51974761 0.0030037612 0.022390049
0.52078211 0.0019736632 0.022524944
0.52212095 0.00050815888 0.022691052
0.52352488 -0.0010383765 0.02277045
0.5245688 -0.002381868 0.022803199
0.52581859 -0.0041271434 0.022891706
0.52716976 -0.005751926 0.02300421
0.52828908 -0.0070104431 0.023103962
0.52956676 -0.0087209223 0.02326306
0.53084451 -0.010424942 0.023360169
0.53191018 -0.011741387 0.023371488
0.53330684 -0.013327178 0.023253717
0.53458703 -0.015003788 0.023045065
0.53588068 -0.016657921 0.022759829
0.53714305 -0.018175632 0.022483962
0.54367608 -0.026689649 0.022397576
0.54453802 -0.027831323 0.022613226
0.54544973 -0.029098334 0.02278739
0.54664314 -0.030565338 0.022867016
0.54830581 -0.032238159 0.022665257
0.54933006 -0.03359035 0.022559676
0.55009323 -0.034607492 0.02246464
0.5535056 -0.038929641 0.02234236
0.5545032 -0.040294781 0.022362377
0.55562216 -0.041584469 0.02229913
0.55691355 -0.043262605 0.022188861
0.55818212 -0.044948649 0.022036709
0.55919194 -0.046297822 0.02191025
0.51407945 0.0060831979 0.02243978
0.51491433 0.0051493645 0.022597488
0.5165869 0.0037783345 0.022759689
0.51800394 0.0025067739 0.022935491
0.51935595 0.00090258656 0.02323794
0.52065367 -0.00054210291 0.023431815
0.52187753 -0.0021170937 0.023596874
0.52316248 -0.0035822401 0.023612922
0.52441943 -0.0053119953 0.023663025
0.52571589 -0.0069939927 0.023758566
0.52683467 -0.008245036 0.023774737
0.52814233 -0.0099139102 0.023847857
0.52945852 -0.011573175 0.023880143
0.53053933 -0.012872341 0.023846
0.53196347 -0.014434706 0.023724545
0.533315 -0.016059319 0.023520358
0.53456938 -0.017748887 0.023298435
0.53590775 -0.019373337 0.023041511
0.53699929 -0.020659583 0.022836149
0.53817093 -0.022426426 0.022706844
0.5395903 -0.024007866 0.022640357
0.54079306 -0.025199246 0.022670545
0.54207951 -0.026880106 0.022949738
0.54322374 -0.028514424 0.02327382
0.54414219 -0.029597238 0.023407131
0.54629469 -0.032186318 0.023515619
0.54724616 -0.033057172 0.023350438
0.54836899 -0.034840912 0.023261035
0.5496648 -0.036505014 0.023105562
0.55067235 -0.037904788 0.023044808
0.5520559 -0.039513953 0.023002131
0.55319607 -0.041285478 0.023087362
0.55431169 -0.042567082 0.023037137
0.55569953 -0.044178948 0.022925356
0.55703199 -0.045825664 0.022801654
0.55807918 -0.047152955 0.022666305
0.55945349 -0.048778951 0.022412274
0.56070465 -0.05064835 0.022216786
0.56145614 -0.052033007 0.022134
0.56224966 -0.053876232 0.022019101
0.50993556 0.0080214972 0.022839407
0.51104736 0.0072776377 0.022795372
0.51233953 0.0055585927 0.023094287
0.51383668 0.0041912515 0.023168907
0.51496154 0.0029685921 0.023340972
0.51640201 0.0013201669 0.023596754
0.51804733 0.0003434848 0.023650819
0.52078813 -0.0028204953 0.02404788
0.52213413 -0.0044458653 0.024123762
0.53086293 -0.015339699 0.024067229
0.53226107 -0.016924288 0.023887707
0.53353304 -0.018601922 0.023702277
0.53424054 -0.020206764 0.023802279
0.53584671 -0.02160685 0.023488585
0.53701794 -0.02337929 0.023433065
0.53840303 -0.024983281 0.023399709
0.53928554 -0.026420975 0.023646368
0.5406189 -0.027830292 0.023801787
0.55457962 -0.045038484 0.023629079
0.55588353 -0.046699267 0.023566075
0.5570302 -0.047972869 0.023371678
0.55803144 -0.049885485 0.023360454
0.55925053 -0.051579628 0.023115797
0.56031817 -0.053458925 0.022867184
0.56146771 -0.05531304 0.022504603
0.56253743 -0.056626339 0.022121839
0.56301433 -0.057878524 0.022026671
0.50619447 0.010678189 0.022648897
0.50751489 0.0092341267 0.022942863
0.50868684 0.0075323018 0.023383077
0.51001191 0.0063703079 0.023517858
0.51133233 0.0047079911 0.023681881
0.51261193 0.0029113144 0.02390925
0.5135591 0.0017471754 0.02401573
0.51460654 0.00057068269 0.024148351
0.55946952 -0.055206701 0.023454282
0.55999428 -0.056436218 0.023279065
0.5610463 -0.057750743 0.022864366
0.56245041 -0.059370995 0.022406971
0.56351835 -0.061261192 0.022289524
0.56490171 -0.062513933 0.02204893
0.56616229 -0.063998684 0.021898253
0.56732166 -0.065613322 0.021760626
0.56809694 -0.066858642 0.021602793
0.49837235 0.016849851 0.022314049
0.49937221 0.015523015 0.022643484
0.50073051 0.014231447 0.022835471
0.50213486 0.012851985 0.022935769
0.50331378 0.011355935 0.023103353
0.50488275 0.010076727 0.02320829
0.50613087 0.008500047 0.023564044
0.56024009 -0.058905356 0.023324864
0.56113178 -0.060567666 0.023126567
0.56226712 -0.062143192 0.02293543
0.56332541 -0.063462973 0.02282369
0.56465882 -0.065107532 0.022702362
0.56609857 -0.06672027 0.022394747
0.56689912 -0.068283901 0.022235643
0.56791568 -0.069868319 0.021879489
0.56875956 -0.071746714 0.021481726
0.49436951 0.018563602 0.022435954
0.49517182 0.017566588 0.022642836
0.4965291 0.016415773 0.022837866
0.49773785 0.01447236 0.023347339
0.49935183 0.012992023 0.02352722
0.5004096 0.011662022 0.023709763
0.50198799 0.010264013 0.023771882
0.50346369 0.0092558507 0.023811147
0.56418145 -0.066560075 0.023162464
0.56490582 -0.067818314 0.023024792
0.56513959 -0.069638476 0.023028279
0.56648582 -0.071273692 0.02242671
0.56795549 -0.072889559 0.02176784
0.56854683 -0.07412529 0.021534067
0.49178019 0.019731913 0.022459708
0.49285945 0.018136268 0.022815028
0.49415648 0.016670847 0.023112306
0.4951719 0.0152109 0.023500223
0.49618977 0.013927427 0.023781318
0.56487185 -0.071436763 0.023113148
0.56546301 -0.072712809 0.022796404
0.56654429 -0.073972009 0.02231938
0.56778628 -0.075258993 0.02182317
0.56834614 -0.076495782 0.021623332
0.48549789 0.022867588 0.022357887
0.48716003 0.021245584 0.022751348
0.48874509 0.019877646 0.022973616
0.48990676 0.018735941 0.023158776
0.49144247 0.017058022 0.023422364
0.49279854 0.015604854 0.023721984
0.49416974 0.014344562 0.02393817
0.56464303 -0.073808439 0.02312303
0.56535655 -0.075069614 0.022824723
0.56633812 -0.076853171 0.02244151
0.56756234 -0.078332402 0.022064475
0.56813657 -0.080142617 0.02211911
0.56947166 -0.081958376 0.021974413
0.57112795 -0.083197109 0.021636486
0.57236469 -0.084552281 0.021501554
0.57343626 -0.086261563 0.021371523
0.57439405 -0.088380784 0.021204853
0.4823302 0.024148155 0.022380764
0.48341343 0.023265602 0.022545395
0.48446307 0.021857863 0.022980899
0.48575813 0.020375777 0.023396317
0.48692834 0.01879885 0.023798063
0.48935243 0.017439155 0.023734074
0.5653761 -0.077503763 0.022901025
0.56836891 -0.082668826 0.022568667
0.56960464 -0.084591866 0.022525331
0.57049143 -0.085884787 0.02244023
0.571899 -0.087524831 0.022148469
0.57336569 -0.089162387 0.021712655
0.57436895 -0.09045136 0.021336729
0.57500088 -0.091739126 0.021104293
0.47605708 0.027698714 0.022237612
0.47775784 0.026584819 0.022292309
0.4791446 0.025362007 0.022456393
0.48078927 0.023899881 0.022714028
0.48206806 0.022159476 0.023234585
0.48312899 0.021070803 0.023554593
0.57077986 -0.088611059 0.02267489
0.57197297 -0.09021084 0.022333369
0.57313627 -0.091529779 0.02193876
0.57452494 -0.093187124 0.021444101
0.57549292 -0.095113866 0.021144109
0.57559061 -0.096634418 0.02123348
0.47235924 0.029629759 0.02217349
0.47374088 0.028515453 0.022368802
0.47478408 0.027086163 0.022644386
0.47632998 0.025426574 0.022921741
0.47781226 0.0241457 0.023110855
0.47887659 0.022789897 0.023448989
0.4799785 0.021967584 0.023651326
0.57084244 -0.091009587 0.02279412
0.57172894 -0.092841215 0.022585906
0.57304502 -0.094555601 0.022178145
0.57395869 -0.096168593 0.021914531
0.5747596 -0.097753063 0.021676874
0.57608902 -0.09932813 0.021174839
0.57697052 -0.10100202 0.020845555
0.47032747 0.030246506 0.022137931
0.47114944 0.028922625 0.022569263
0.47241738 0.027314065 0.022963298
0.47346357 0.025894661 0.023258155
0.47476175 0.024434259 0.023551978
0.47648773 0.022946097 0.023797318
0.47729871 0.021980302 0.024061866
0.57367867 -0.099215321 0.02218147
0.57499915 -0.10079052 0.021644006
0.57621264 -0.10211907 0.02115324
0.57676917 -0.10337939 0.020926576
0.46669948 0.030024771 0.022439929
0.46846011 0.029591586 0.022528764
0.46978992 0.027935639 0.023064455
0.47110638 0.026156569 0.023546884
0.47249636 0.025080681 0.023722686
0.573026 -0.10058097 0.022421934
0.57357442 -0.10183674 0.02218366
0.57477677 -0.10316566 0.021673603
0.57572383 -0.10476047 0.021260651
0.5764327 -0.10665146 0.021006187
0.46432051 0.030387644 0.022428147
0.46540347 0.029130872 0.022920271
0.46688381 0.028296053 0.023177458
0.46849671 0.027020274 0.023557231
0.46988174 0.025749659 0.023869967
0.57279456 -0.1029529 0.022430589
0.57317418 -0.10443392 0.022210017
0.57411009 -0.10639793 0.021770254
0.57559365 -0.1080643 0.021298759
0.57655537 -0.10937502 0.021031795
0.57746047 -0.1109897 0.020801658
0.46140933 0.031218246 0.022361724
0.46249565 0.030131681 0.022729453
0.46388251 0.02892652 0.023151919
0.57287943 -0.10752011 0.022241207
0.57412893 -0.10910327 0.021855805
0.57523578 -0.1104339 0.021532619
0.57641715 -0.1120161 0.021174919
0.57774532 -0.11343393 0.020732529
0.45569348 0.034267865 0.021897439
0.4570798 0.033033736 0.022266241
0.45845768 0.031619389 0.022671375
0.46016049 0.030608479 0.022856107
0.46093634 0.029352704 0.023322746
0.57295293 -0.10987498 0.022309165
0.5739395 -0.11179215 0.022051841
0.57522631 -0.11320332 0.021622691
0.57635945 -0.11501806 0.021139024
0.57718098 -0.11644132 0.020668274
0.45443627 0.033503558 0.02249467
0.45550987 0.032145198 0.022966303
0.45718345 0.030711053 0.023294067
0.45917794 0.029621949 0.023456832
0.57441485 -0.11454933 0.021901179
0.57449424 -0.11612206 0.021760199
0.57563961 -0.11770841 0.021133456
0.57654583 -0.11872265 0.020646473
0.45208356 0.033853088 0.022625886
0.45288938 0.032701395 0.023134308
0.57336527 -0.11773691 0.022080468
0.57423288 -0.11874507 0.021612488
0.57557017 -0.12035844 0.020854171
0.44739646 0.035414655 0.022212541
0.44904059 0.034526795 0.022579243
0.4506377 0.033111498 0.023221975
0.57308894 -0.12011009 0.021972688
0.57419282 -0.12183753 0.021325983
0.57518816 -0.12344178 0.020838095
0.57599068 -0.12498999 0.020484941
0.44392955 0.036844119 0.021838699
0.44505027 0.035874028 0.022180084
0.44615319 0.03460132 0.022714367
0.44729024 0.033509467 0.023213701
0.57293564 -0.12338946 0.021880366
0.5736528 -0.12468158 0.021575706
0.57461709 -0.12600826 0.021177161
0.57591236 -0.12768508 0.020632327
0.44041419 0.037766319 0.021620277
0.44213015 0.036726125 0.021971527
0.44346189 0.035273291 0.022522718
0.44432312 0.033828758 0.023129836
0.57394844 -0.12771732 0.021570887
0.57489908 -0.12904644 0.021139879
0.57588464 -0.13038529 0.020646349
0.57660717 -0.13229807 0.020201935
0.438306 0.037664391 0.021717774
0.43937182 0.036670368 0.02207954
0.44053537 0.03540257 0.022557726
0.44169787 0.034104571 0.023050096
0.57391971 -0.13010816 0.021546742
0.57455224 -0.13138989 0.021183593
0.57503659 -0.13302673 0.020829456
0.57569164 -0.13459152 0.020411057
0.43673575 0.036991864 0.022011966
0.43783092 0.035544138 0.022599213
0.43892553 0.034057558 0.023203487
0.57410282 -0.13495496 0.021063847
0.5752725 -0.13634622 0.020440197
0.57601011 -0.13765737 0.020035954
0.4335821 0.037330296 0.02192531
0.43496165 0.036020633 0.022526432
0.43655047 0.034390725 0.023201814
0.43769202 0.033597864 0.023501031
0.57297713 -0.1360127 0.021483557
0.57391685 -0.13734898 0.02096374
0.57495755 -0.13894705 0.020402648
0.57570952 -0.14038129 0.020023134
0.57610232 -0.14188914 0.019826772
0.42963162 0.038383435 0.021455539
0.43077698 0.037655052 0.021792283
0.43190852 0.036325838 0.022463189
0.43363756 0.035234645 0.022978019
0.43476799 0.034613412 0.023219094
0.57271945 -0.13838704 0.021426059
0.57311559 -0.14000994 0.021152172
0.57422 -0.14162384 0.020618789
0.57528257 -0.14299117 0.020166999
0.4283987 0.037871983 0.02174975
0.42953116 0.036585107 0.022407766
0.57215577 -0.14192075 0.02152626
0.57325685 -0.14304824 0.021007124
0.57461447 -0.14470127 0.02043226
0.57553929 -0.14603728 0.020073865
0.57616973 -0.14732166 0.019833805
0.4247978 0.038246121 0.021781942
0.42646435 0.03710537 0.022230184
0.42769894 0.035873357 0.022819135
0.57242292 -0.14435242 0.021319406
0.57312864 -0.14565553 0.020984942
0.57370955 -0.14724247 0.020724339
0.57503337 -0.14894611 0.020201826
0.5762189 -0.15048328 0.019732237
0.42129859 0.039392918 0.021484252
0.42245898 0.038212478 0.021944389
0.42358699 0.036939446 0.022449872
0.42500722 0.035846863 0.022923168
0.57265556 -0.14918569 0.020963365
0.57363278 -0.15054032 0.020527804
0.57487082 -0.15194511 0.019998716
0.5754872 -0.15327276 0.019602939
0.41980878 0.039113328 0.021668172
0.42095193 0.037464816 0.022358118
0.42237735 0.036304697 0.022792021
0.57220596 -0.15154056 0.020843606
0.57350183 -0.1529724 0.020255985
0.57451862 -0.15435198 0.019734953
0.41537079 0.039851263 0.021339575
0.41675854 0.039253265 0.021627713
0.4179571 0.037954971 0.022225641
0.41913435 0.037011486 0.022621639
0.57095331 -0.1529195 0.021041416
0.57181662 -0.15426454 0.020567253
0.5730623 -0.15568514 0.019951664
0.5736047 -0.15698771 0.019549953
0.41295898 0.040270071 0.021208419
0.41414571 0.039328415 0.021614878
0.41525772 0.037947793 0.02226384
0.41639313 0.036685366 0.022796014
0.57014179 -0.15555319 0.020923709
0.57129967 -0.15694048 0.020314654
0.57258415 -0.15859506 0.01968885
0.40938649 0.040677372 0.02116693
0.41116166 0.04025894 0.021294819
0.41260263 0.038531549 0.022002375
0.41432142 0.036992304 0.022625575
0.57003951 -0.15822381 0.020700447
0.57151777 -0.15975517 0.020011239
0.57260382 -0.1613851 0.01952265
0.57267863 -0.16322057 0.019505607
0.4081414 0.039964288 0.021453261
0.40960938 0.038952999 0.021861149
0.41082913 0.037544545 0.022387175
0.56954145 -0.15964673 0.020875528
0.5700438 -0.16092807 0.020635054
0.57085383 -0.16256385 0.020284371
0.57169574 -0.16421692 0.01990384
0.57279938 -0.16590096 0.019336568
0.40602818 0.040155988 0.02132169
0.40689352 0.038996097 0.021827608
0.40806168 0.03762228 0.02236188
0.5705452 -0.16553873 0.020334957
0.57185453 -0.16721933 0.019575855
0.5728454 -0.16833371 0.018990947
0.40295941 0.039976921 0.021216461
0.40416282 0.039060678 0.021690365
0.40564489 0.037765913 0.022269759
0.40682173 0.036908001 0.022643879
0.56983811 -0.16686304 0.020433571
0.57031995 -0.16844007 0.019964255
0.57120633 -0.16963913 0.019365888
0.40200773 0.038344622 0.021836096
0.40386018 0.037183028 0.022452189
0.56859666 -0.16953678 0.020318801
0.56990397 -0.1713358 0.019404827
0.39948928 0.03872091 0.021410903
0.40044746 0.03757681 0.022028327
0.56741416 -0.17088003 0.02039321
0.56852931 -0.17235559 0.019646464
0.56911486 -0.17369942 0.019183381
0.39681926 0.038431838 0.021213459
0.39801809 0.037191171 0.021907993
0.56616586 -0.17223725 0.02055675
0.56675583 -0.17358495 0.020080142
0.56791931 -0.17520183 0.019387973
0.56861758 -0.17658199 0.018878922
0.3940984 0.038555846 0.020913353
0.39527783 0.037243351 0.021556899
0.39615926 0.036088794 0.022177959
0.56546545 -0.17544706 0.020339537
0.56645298 -0.17655429 0.019754058
0.56766969 -0.17819989 0.018949226
0.56823808 -0.1795433 0.018445367
0.39166391 0.038437966 0.020738764
0.39287972 0.037530493 0.02122565
0.39401579 0.036084913 0.02193697
0.39520782 0.035235051 0.022439498
0.56528038 -0.17777829 0.020032639
0.56625414 -0.17918137 0.01928965
0.56732571 -0.18037784 0.018612614
0.38984469 0.037966121 0.020661157
0.39073446 0.03680319 0.02130474
0.39220297 0.035372112 0.022086015
0.56437165 -0.17887688 0.020159783
0.56470895 -0.18054909 0.019593941
0.56574476 -0.18172973 0.01887268
0.38824186 0.036563121 0.020928787
0.38915011 0.035374131 0.02169111
0.39033732 0.034542903 0.022234114
0.5630706 -0.18186037 0.01986875
0.5641405 -0.18333928 0.019033762
0.38707393 0.035207272 0.021296343
0.38793212 0.034366313 0.021922909
0.5620839 -0.18328951 0.019884102
0.56292081 -0.18434007 0.019257111
0.56384653 -0.18571781 0.018601999
0.38511595 0.034240592 0.021333193
0.56044459 -0.1845959 0.020259332
0.56126207 -0.1856337 0.019623607
0.56236136 -0.1872265 0.018863078
0.56320578 -0.18807361 0.018435931
0.38315961 0.033433903 0.021420088
0.55977327 -0.18718466 0.019972328
0.56098664 -0.1886209 0.019167384
0.56214231 -0.19035406 0.018480357
0.37906739 0.03390225 0.020566115
0.38060328 0.033323247 0.021092439
0.55962408 -0.19012859 0.019475298
0.56056398 -0.19158216 0.018853085
0.56114554 -0.19294721 0.018445995
0.37736636 0.033660434 0.020555083
0.37865368 0.032445271 0.021355091
0.55822074 -0.19141628 0.019798139
0.55882502 -0.19280149 0.019321593
0.56010467 -0.19432685 0.018653035
0.56060922 -0.1956387 0.018313279
0.37484956 0.033711541 0.020333985
0.37619188 0.032608382 0.021009656
0.37711921 0.03141984 0.021641098
0.55758363 -0.19376594 0.01963973
0.55863839 -0.19524854 0.019043852
0.55990249 -0.19695236 0.018399991
0.37181893 0.033402536 0.020156298
0.3732895 0.032648966 0.020690173
0.374562 0.031318635 0.021386122
0.37577182 0.030473007 0.021852106
0.55668557 -0.19486798 0.01980919
0.55703741 -0.19666551 0.019394189
0.55849177 -0.19828676 0.01867999
0.55944079 -0.19998583 0.018048322
0.37063706 0.03281169 0.020261375
0.37184957 0.031304415 0.02114103
0.37300453 0.030113369 0.021719219
0.55587447 -0.19838405 0.019492801
0.55679166 -0.19976221 0.018919613
0.55807048 -0.20131771 0.018156884
0.36939347 0.031667329 0.020662373
0.37066087 0.030281045 0.021429159
0.55554777 -0.20071784 0.019064546
0.55670124 -0.20232272 0.018284181
0.36641437 0.031423055 0.020309916
0.36786449 0.030531442 0.020998647
0.36822489 0.029717123 0.021421749
0.55396074 -0.20232935 0.01911607
0.55511916 -0.2037019 0.018370872
0.36556056 0.030425824 0.020671308
0.36572576 0.029473567 0.021128805
0.55242574 -0.20375064 0.019124083
0.55337769 -0.20492509 0.01852693
0.55402088 -0.20637983 0.017975889
0.36297745 0.030051375 0.020231817
0.36456743 0.028861362 0.021168308
0.55102211 -0.20471404 0.019230029
0.55193245 -0.20584665 0.018724242
0.55317837 -0.20739098 0.017997853
0.36030746 0.029479053 0.019808462
0.3615897 0.028568145 0.020558253
0.55033803 -0.20698687 0.018943036
0.55138338 -0.20855062 0.01834503
0.55230802 -0.21003398 0.017758846
0.35900015 0.028422197 0.01997738
0.36000773 0.027172133 0.020781524
0.5491218 -0.20841095 0.019121101
0.54969907 -0.20980075 0.018705564
0.55095112 -0.21135673 0.018006232
0.3573367 0.027142314 0.020161843
0.35834432 0.025896326 0.020932682
0.54836565 -0.21014225 0.019159894
0.5486176 -0.21179715 0.018778229
0.5498184 -0.21331851 0.018076962
0.55038971 -0.21496521 0.017608203
0.35543039 0.026139714 0.020141341
0.35670966 0.024574192 0.021083644
0.54717183 -0.21336396 0.019010384
0.54803318 -0.2144722 0.018479452
0.54918665 -0.21594618 0.017809119
0.55003881 -0.21703479 0.017339764
0.35322213 0.026170664 0.01966317
0.35418063 0.025000332 0.020325225
0.35518682 0.023765933 0.021038091
0.54664356 -0.21543162 0.018733786
0.54781801 -0.21693183 0.018030845
0.54893976 -0.21837193 0.017363397
0.3513498 0.024847031 0.019803725
0.35272318 0.023438385 0.020600595
0.35423088 0.022940364 0.021131475
0.54548591 -0.21670088 0.018775921
0.54605538 -0.21810769 0.018241804
0.54728466 -0.21967632 0.017421199
0.3498098 0.023668885 0.019938134
0.35107005 0.022145465 0.020751264
0.54427087 -0.21917887 0.018133739
0.54553223 -0.22059941 0.017200479
0.34719491 0.02354156 0.019507751
0.34846005 0.022674067 0.020049945
0.34979048 0.021277344 0.02082316
0.54319268 -0.22057261 0.017539319
0.54421031 -0.22172493 0.017072998
0.34587216 0.022517735 0.019697983
0.34698001 0.021427812 0.020270979
0.34767121 0.020333352 0.02081445
0.54208702 -0.22204374 0.016674576
0.54293299 -0.22332667 0.016245378
0.34369904 0.021843979 0.019681627
0.34471679 0.0206114 0.020267077
0.34572613 0.019394411 0.020887284
0.54078674 -0.22277583 0.01606364
0.54082698 -0.22375128 0.015397354
0.54124951 -0.22494267 0.014397408
0.34107968 0.021704413 0.019452786
0.3421855 0.020637129 0.019960053
0.34331489 0.019278871 0.02058083
0.53812528 -0.2231915 0.015169105
0.53929681 -0.22449243 0.014581226
0.54018366 -0.22578916 0.013958497
0.33800554 0.021460809 0.018955
0.33962765 0.020832842 0.019509997
0.34069973 0.019282052 0.02017854
0.34172755 0.018305231 0.02066773
0.53630239 -0.22479232 0.014668886
0.53726012 -0.22590938 0.014157647
0.53859341 -0.22694831 0.013581489
0.33734003 0.020941306 0.018953206
0.33797196 0.019533094 0.019541187
0.33926803 0.01798456 0.020266881
0.53434932 -0.22638761 0.014963428
0.53525376 -0.22741978 0.014294302
0.53644586 -0.22839049 0.013531358
0.33643919 0.018320482 0.019380333
0.33752501 0.016767209 0.020073727
0.33841473 0.015699543 0.020618768
0.53295034 -0.22730367 0.015267438
0.53363162 -0.22855608 0.014462019
0.53460133 -0.22972398 0.013740881
0.33492643 0.01720397 0.019156406
0.33582613 0.01549348 0.019870458
0.33678266 0.014364479 0.020495169
0.53137517 -0.22969027 0.015041606
0.5325762 -0.23015958 0.014463059
0.53385311 -0.23135991 0.013529803
0.33369437 0.016011689 0.019052325
0.33435306 0.014588921 0.019695647
0.33539709 0.013378285 0.020416565
0.53049421 -0.23019369 0.015265982
0.53142208 -0.23161244 0.014360971
0.53225172 -0.2327456 0.013708456
0.33248866 0.013491528 0.019605719
0.33366129 0.0121574 0.020412726
0.53005177 -0.23259415 0.014479628
0.53057784 -0.23393334 0.013798377
0.32965055 0.012940502 0.019192092
0.33112377 0.012118694 0.01986075
0.52873904 -0.23367648 0.014442171
0.52919579 -0.23527065 0.013734616
0.32885644 0.012016148 0.019380249
0.52809513 -0.23644795 0.013626667
0.32580706 0.01166652 0.018899085
0.32706764 0.010870112 0.019429894
0.52502245 -0.23690769 0.014126034
0.52617377 -0.23783056 0.013517376
0.32440028 0.010745447 0.018972699
0.32549372 0.0094855409 0.019668028
0.52347726 -0.23776054 0.014272316
0.52458924 -0.23909518 0.013533416
0.32329509 0.010199509 0.019275295
0.3239705 0.0088282349 0.019898631
0.32472184 0.0073989737 0.020673579
0.52208805 -0.23905411 0.014316743
0.52331531 -0.24045116 0.01333717
0.32045585 0.0087135723 0.020470278
0.32226446 0.0078874296 0.02058446
0.32288775 0.0065617035 0.021477574
0.52019423 -0.24062444 0.01441514
0.5215342 -0.24176754 0.013600468
0.52210295 -0.24329577 0.012933921
0.31940621 0.0081141563 0.020969827
0.32067531 0.0068282969 0.021457141
0.32158741 0.0057738097 0.021977616
0.51889503 -0.24166363 0.014533803
0.51987165 -0.24290161 0.013807896
0.52080429 -0.24456203 0.012975988
0.31749308 0.0073270481 0.021523604
0.3184278 0.0057799811 0.022260983
0.31966481 0.0045038094 0.02276266
0.5170294 -0.24304594 0.014687732
0.51838303 -0.24442074 0.013814298
0.51973683 -0.24560067 0.012979212
0.31576762 0.0062411916 0.021802926
0.3164188 0.0044545927 0.022415778
0.3174057 0.0032726042 0.02308901
0.51485968 -0.24327935 0.01524114
0.51563478 -0.24432006 0.014715611
0.51673347 -0.24576025 0.013836177
0.51831961 -0.24675947 0.013054486
0.31447312 0.0047612907 0.021695694
0.31536782 0.0032273501 0.022544589
0.31628138 0.0022595758 0.022939947
0.51368243 -0.24430603 0.015134418
0.51438117 -0.24527237 0.014652735
0.51558775 -0.24683441 0.01379359
0.51649278 -0.24803022 0.013153329
0.31327784 0.0037190046 0.021832163
0.31345466 0.0019414971 0.022290209
0.31480321 0.00082478893 0.022946697
0.5129416 -0.24646658 0.014539327
0.51386678 -0.24820198 0.013711731
0.51473022 -0.24943511 0.013061823
0.31047896 0.001538059 0.021605348
0.31180078 0.00034346135 0.022254676
0.31325027 -0.00057414907 0.022922205
0.51119769 -0.24796975 0.014398064
0.51214576 -0.24941798 0.013691762
0.51315135 -0.25072375 0.012986255
0.30950874 0.00059599738 0.021630952
0.31070331 -0.0004037719 0.022216657
0.31119952 -0.0022864956 0.022782583
0.50964129 -0.24939883 0.014261519
0.51094013 -0.25029939 0.013573628
0.51211536 -0.25206116 0.012739482
0.30876601 -0.0018192045 0.022137364
0.30963814 -0.0035572767 0.022786334
0.50771224 -0.25054353 0.014189163
0.50931835 -0.2516112 0.013382494
0.51046467 -0.25301528 0.012584001
0.30719608 -0.0032960288 0.022250596
0.30851084 -0.0046331617 0.022949854
0.5067414 -0.251513 0.013993061
0.50760305 -0.25311646 0.013225207
0.50843918 -0.25430802 0.012588128
0.30583975 -0.0043514934 0.022123849
0.30666158 -0.0059961295 0.022911983
0.30769208 -0.0071070241 0.023410952
0.50485355 -0.25288832 0.013909521
0.50647467 -0.25424027 0.013022938
0.30428997 -0.0053537744 0.0219339
0.30496389 -0.0070903124 0.022365663
0.3060483 -0.0080128154 0.023053829
0.50338078 -0.25401217 0.013880113
0.50477082 -0.25563774 0.012984943
0.30265552 -0.0067794803 0.021739142
0.30366534 -0.0080167316 0.022439387
0.30515069 -0.0093077458 0.022912839
0.50178719 -0.25501949 0.013918311
0.5030126 -0.25672555 0.012950708
0.50374889 -0.25819391 0.012377948
0.30117065 -0.0076534208 0.021524174
0.30161178 -0.0094719818 0.02212123
0.3030296 -0.010584412 0.02275113
0.50019246 -0.25643343 0.013855359
0.50143534 -0.25786924 0.012942178
0.50263685 -0.25902337 0.012319518
0.29928342 -0.0096668042 0.021510825
0.29980838 -0.011092572 0.021956937
0.30125636 -0.011870278 0.022558957
0.49782777 -0.25674549 0.014481832
0.49866399 -0.25798261 0.013676372
0.49996451 -0.25935483 0.01280455
0.29715741 -0.010965086 0.020906877
0.29854712 -0.012282931 0.021699721
0.29933411 -0.013630789 0.022072265
0.49600962 -0.25790536 0.014546271
0.49740762 -0.25916278 0.013584386
0.49842659 -0.2607342 0.012743449
0.29599878 -0.012375629 0.020958044
0.29690421 -0.013563976 0.0212822
0.29787078 -0.015046944 0.021461021
0.29829392 -0.016890611 0.021810193
0.49418139 -0.25870588 0.014653812
0.49554819 -0.26021117 0.013682112
0.49660274 -0.26165026 0.012818553
0.29430261 -0.013366126 0.020528538
0.2951957 -0.015306692 0.020526597
0.29644763 -0.016765047 0.020299528
0.2975187 -0.018206779 0.020994514
0.49291846 -0.26020482 0.014294145
0.49406344 -0.26158506 0.013443527
0.4949246 -0.26297086 0.012661642
0.29421028 -0.016881155 0.020117866
0.29563978 -0.018121874 0.020401981
0.29645476 -0.019926375 0.020852799
0.49168283 -0.2615808 0.013843286
0.4928275 -0.26267362 0.013249545
0.49337897 -0.2640059 0.012614276
0.29363692 -0.018101014 0.019918876
0.29415172 -0.019723093 0.019564779
0.2948623 -0.021125372 0.020841982
0.49061376 -0.26390976 0.013181568
0.49182245 -0.26482698 0.012538318
0.29260612 -0.020834623 0.019432751
0.29360884 -0.022229139 0.020129154
0.29430291 -0.023613906 0.021039978
0.48813739 -0.26369536 0.013785936
0.48910263 -0.26524892 0.012962474
0.29170877 -0.021711273 0.019526383
0.2924298 -0.023011494 0.019871455
0.29323861 -0.024715237 0.020377442
0.48623708 -0.26488298 0.013689921
0.48766458 -0.26622632 0.01284017
0.29093724 -0.024161171 0.019759404
0.29170623 -0.02585844 0.019961389
0.29251066 -0.026884563 0.020832438
0.48453382 -0.26612455 0.013727746
0.48598215 -0.26730111 0.01284008
0.48680094 -0.2687324 0.012050457
0.28944623 -0.025709888 0.019466411
0.29040924 -0.026792884 0.020156922
0.29165971 -0.028125614 0.02106405
0.48324931 -0.26704651 0.013697181
0.48451778 -0.26876956 0.012651599
0.48581529 -0.27043119 0.011646505
0.28815943 -0.0268081 0.01931507
0.28898254 -0.028144738 0.020273354
0.28993472 -0.028921764 0.020980546
0.4802998 -0.26782089 0.014174278
0.48173851 -0.2684145 0.013636466
0.48304006 -0.27006859 0.012602587
0.48447204 -0.27146026 0.011583687
0.28651792 -0.028148269 0.019519275
0.28717679 -0.029201424 0.020832634
0.47911689 -0.26860598 0.014123681
0.48018071 -0.26995629 0.013339984
0.48119512 -0.27138713 0.012505737
0.48254994 -0.272118 0.01184007
0.28489551 -0.029415654 0.020418283
0.28562257 -0.030554747 0.0212627
0.47649601 -0.26908666 0.014325487
0.47786215 -0.26974002 0.013845572
0.47892722 -0.27130142 0.012965463
0.48027208 -0.27230763 0.012247374
0.2830666 -0.030312808 0.02019356
0.28402856 -0.032178909 0.021176035
0.47492653 -0.26987162 0.014197383
0.47638085 -0.27106935 0.013433832
0.47776049 -0.27193382 0.012897271
0.28183371 -0.031432826 0.019810399
0.28256136 -0.032795109 0.020911176
0.28392196 -0.03364135 0.020999368
0.473461 -0.27081025 0.013777422
0.47499931 -0.27256802 0.0130231
0.28197736 -0.033984322 0.018453231
0.28324547 -0.03606588 0.018310571
0.28367993 -0.037308194 0.018637974
0.46935099 -0.26938739 0.014380815
0.47052127 -0.270183 0.013963698
0.47195429 -0.27141172 0.013414563
0.47300351 -0.27284348 0.012828105
0.28103226 -0.035993528 0.017579606
0.28199324 -0.037492368 0.018012082
0.28276977 -0.038958255 0.018662238
0.47027716 -0.27270243 0.012789556
0.47142583 -0.27386996 0.012261137
0.28073797 -0.038538832 0.01741663
0.28195286 -0.039863955 0.018224083
0.28293943 -0.041205212 0.018920697
0.53424662 -0.0058365432 0.020762356
0.53631717 -0.008569032 0.02094532
0.53894454 -0.011920415 0.020815363
0.54026383 -0.014125209 0.02079094
0.54112685 -0.014526802 0.020549735
0.54878068 -0.024230581 0.020246096
0.5498473 -0.02556012 0.020242579
0.55064118 -0.026560826 0.020222329
0.55753446 -0.035227418 0.020066299
0.55859709 -0.036557935 0.020049473
0.55965114 -0.03789084 0.020011954
0.52211601 0.006227965 0.02032144
0.52488863 0.0030513175 0.02068997
0.52621824 0.001377066 0.020858776
0.52782494 -9.1987582e-05 0.020861885
0.52885681 -0.0017045233 0.021072522
0.53028262 -0.0030222896 0.021134064
0.53166324 -0.0044083102 0.021225952
0.53244066 -0.0062909178 0.021627573
0.53434277 -0.0075492267 0.02139085
0.53525883 -0.0084144613 0.021353651
0.53774738 -0.012915141 0.021609278
0.5388599 -0.014180721 0.021344518
0.54022968 -0.015816083 0.021102605
0.5413481 -0.016917583 0.020888714
0.54280585 -0.018919893 0.020616926
0.54411823 -0.020319249 0.020442005
0.54496402 -0.021645267 0.020501787
0.54647148 -0.02335114 0.02062596
0.54771382 -0.025087457 0.020824691
0.54873079 -0.026456051 0.02088001
0.55017155 -0.028027019 0.020778686
0.55153197 -0.029667463 0.020641252
0.55254012 -0.031037912 0.020577628
0.5538674 -0.032702647 0.020518435
0.55524027 -0.034335565 0.020548748
0.55632097 -0.03596909 0.020651599
0.55762762 -0.037523862 0.020615885
0.55887246 -0.039046694 0.020569745
0.56006241 -0.040583219 0.020443711
0.56110483 -0.042207781 0.020244827
0.51675636 0.0090922713 0.020634031
0.51873314 0.0079329945 0.020574531
0.52009273 0.0065531232 0.020823238
0.52133131 0.004990337 0.021146126
0.52238256 0.0036388987 0.021383846
0.52367687 0.001925337 0.021638716
0.52503544 0.00030460401 0.021729505
0.52605039 -0.0010860176 0.021850087
0.52733225 -0.0025407991 0.021875277
0.52889144 -0.0044468706 0.02207539
0.52981639 -0.0056922589 0.022259088
0.53092778 -0.0064384635 0.022209302
0.53814268 -0.015879719 0.021884432
0.53878468 -0.017006664 0.021784272
0.54018575 -0.018059714 0.02140655
0.54148406 -0.019725744 0.021106049
0.54277462 -0.0214082 0.020967543
0.54382652 -0.022743482 0.021018945
0.54509902 -0.024450406 0.021269074
0.54629982 -0.0262185 0.021541253
0.54725266 -0.027637575 0.021714745
0.54871923 -0.029181059 0.021659611
0.55003834 -0.030853575 0.021543114
0.55107069 -0.032202169 0.021450298
0.55245376 -0.033822976 0.021313591
0.55382746 -0.035451092 0.021288577
0.55506325 -0.037172556 0.021362033
0.55634063 -0.038864352 0.021380352
0.5574584 -0.040157314 0.02130954
0.55888247 -0.04176452 0.021092951
0.56014735 -0.043457795 0.020855544
0.56130725 -0.044736698 0.020572854
0.56253463 -0.046553817 0.020374535
0.5637936 -0.048251692 0.020193981
0.56480896 -0.049605545 0.020067083
0.56583446 -0.050954185 0.019959074
0.56855989 -0.055837318 0.019695617
0.51035398 0.014332664 0.020583881
0.5117296 0.012728156 0.020743301
0.51283544 0.011450755 0.020884527
0.51450783 0.0098123755 0.020983679
0.51569051 0.0081515852 0.021277918
0.51706243 0.0070474464 0.021380598
0.51867872 0.0055765188 0.021598125
0.5199241 0.0039460585 0.021972749
0.52096397 0.002917673 0.022118745
0.53812248 -0.018108008 0.022130128
0.53863287 -0.019328598 0.022047199
0.53997791 -0.020950256 0.021767529
0.54129159 -0.022609768 0.021647487
0.5423522 -0.023930233 0.021737389
0.54360443 -0.0254317 0.02195951
0.54490149 -0.026797196 0.022109587
0.54790622 -0.030373463 0.022317361
0.54894358 -0.031723127 0.022232724
0.55003548 -0.033028007 0.02210206
0.5512495 -0.035000749 0.022081103
0.55240071 -0.03657585 0.022084942
0.55370235 -0.037972875 0.022023136
0.55523366 -0.039725974 0.021959038
0.5563519 -0.041017018 0.02189202
0.55771059 -0.042658087 0.021750811
0.55896318 -0.044355568 0.021555591
0.55997092 -0.045706622 0.021423951
0.56130898 -0.047463156 0.021183811
0.56270272 -0.049093876 0.020921398
0.56363726 -0.050481226 0.020819461
0.56459481 -0.052423559 0.020831028
0.56592268 -0.054083824 0.020538777
0.5670166 -0.055400629 0.020248851
0.56796056 -0.057203341 0.020081377
0.50693166 0.015989129 0.020725617
0.50802338 0.015179451 0.020731419
0.50931293 0.013425964 0.020979337
0.51067805 0.011805885 0.021238798
0.51178938 0.01054003 0.021412393
0.51309687 0.0088301497 0.021685557
0.51433438 0.0071725384 0.021987464
0.51562154 0.0057678353 0.022225676
0.51732194 0.0046878443 0.022270568
0.56108189 -0.049725592 0.021840325
0.56238502 -0.05139057 0.021579154
0.56332332 -0.053903785 0.021552023
0.56408197 -0.055482324 0.021390118
0.56533033 -0.056738064 0.021012895
0.56689477 -0.058311071 0.02062032
0.56831199 -0.059942815 0.020335225
0.56917769 -0.061343953 0.020239316
0.57041031 -0.063038148 0.020051444
0.57154882 -0.064920932 0.019878134
0.50120062 0.019508997 0.020526698
0.50258964 0.01841398 0.02067177
0.50435776 0.016950281 0.02091177
0.50562978 0.015417479 0.021169527
0.50663704 0.013963029 0.021364341
0.50787741 0.012384087 0.021589521
0.50905353 0.010721874 0.021942517
0.51034182 0.0093937619 0.022167362
0.56407416 -0.057870407 0.021598242
0.5654971 -0.059396986 0.021292526
0.56680757 -0.061062735 0.021095579
0.56759655 -0.062770173 0.02111418
0.5690068 -0.064252146 0.020865351
0.57043481 -0.065751076 0.020492256
0.57161283 -0.067049198 0.020129362
0.5724194 -0.069147043 0.019917091
0.57307822 -0.07082244 0.019694027
0.49340302 0.025820071 0.020257065
0.49470094 0.024802091 0.02032423
0.49587223 0.023132423 0.020595068
0.49688837 0.021486945 0.020898171
0.49847567 0.02006861 0.021002159
0.49983603 0.018452795 0.02130221
0.5015015 0.017364616 0.021396397
0.50258154 0.016054545 0.021655541
0.50392604 0.014410865 0.021942677
0.50524378 0.012718512 0.022130532
0.50632954 0.011587619 0.022260539
0.5077194 0.010352149 0.022399176
0.5645541 -0.060600456 0.021810841
0.5652532 -0.061627686 0.021769404
0.5682894 -0.065651305 0.021366995
0.56907171 -0.066898569 0.021221777
0.57010472 -0.06867975 0.020942355
0.57119906 -0.070189692 0.020497363
0.57218856 -0.071985558 0.020102425
0.57314235 -0.073274657 0.019736521
0.57384038 -0.074556492 0.019504892
0.49215654 0.025198331 0.020655533
0.49314296 0.023792954 0.020949852
0.49445108 0.022052405 0.021253839
0.49583623 0.020500317 0.021469392
0.49692988 0.019217586 0.02169534
0.49796423 0.017955974 0.021958403
0.50016063 0.016683944 0.021989815
0.56907099 -0.069940276 0.02139275
0.56969094 -0.071808219 0.021131562
0.57066375 -0.073088534 0.020719934
0.57183683 -0.074394695 0.020236796
0.5731765 -0.075944819 0.019737389
0.48639613 0.027891412 0.020381052
0.48780486 0.026843341 0.020546021
0.48916775 0.025367372 0.020926639
0.49085531 0.024291571 0.021107245
0.49185967 0.022768497 0.021473976
0.49312073 0.020903453 0.021876097
0.49449912 0.019493805 0.022079175
0.49589303 0.018271174 0.022254389
0.56941837 -0.074196994 0.02117943
0.57070595 -0.075803131 0.02064142
0.57226002 -0.07741861 0.020136327
0.57343584 -0.078724161 0.019879695
0.57429034 -0.080035739 0.019797519
0.57544357 -0.081997439 0.01979579
0.57666111 -0.083688974 0.01969263
0.57767671 -0.085292265 0.019525394
0.57804173 -0.086517833 0.019460773
0.48347846 0.028832676 0.02052469
0.48513758 0.027395582 0.020723511
0.48616803 0.025911357 0.021099195
0.48749992 0.02421164 0.021547252
0.4891721 0.022810336 0.021834105
0.49027324 0.021510111 0.022128131
0.49160227 0.020747298 0.022155838
0.56941527 -0.077173293 0.021210054
0.57049304 -0.078751981 0.020934971
0.57156551 -0.080076002 0.020739306
0.57279789 -0.081617877 0.020626936
0.57431054 -0.083200239 0.020433797
0.57516211 -0.084763281 0.020422462
0.57614696 -0.086495258 0.020260466
0.57760829 -0.088290296 0.019746488
0.47974181 0.030727934 0.020484064
0.4811497 0.029675355 0.020630596
0.48247841 0.02794669 0.021014422
0.48376852 0.026101366 0.021423366
0.48479715 0.024618547 0.021793142
0.48620233 0.023579717 0.021966107
0.48726785 0.022221202 0.022316825
0.56934047 -0.080139987 0.02163901
0.56984162 -0.0808101 0.021560004
0.5752238 -0.087835118 0.020790959
0.57605845 -0.089412957 0.020489505
0.5774892 -0.090709217 0.019864533
0.57832211 -0.092301428 0.019543493
0.47510493 0.032506756 0.02055338
0.47708714 0.031285565 0.020761482
0.47874799 0.029840022 0.021008441
0.47980046 0.028418042 0.021324502
0.48107257 0.026839992 0.021632826
0.48214877 0.025187645 0.022018235
0.57522851 -0.090540826 0.020944793
0.57596171 -0.09181875 0.020668546
0.57731509 -0.093443386 0.020119691
0.57848072 -0.095362313 0.019740269
0.57909763 -0.096931972 0.01958576
0.58026034 -0.098895513 0.019200878
0.47191298 0.033986572 0.020308392
0.47299588 0.032764394 0.020751787
0.47407237 0.031411767 0.021240279
0.47548288 0.029934425 0.021612583
0.47714648 0.028608745 0.021752646
0.47876897 0.027402567 0.021848619
0.47982529 0.026012771 0.022123095
0.57630938 -0.094582014 0.020694667
0.57679743 -0.096429579 0.020650312
0.57769829 -0.098273084 0.020378172
0.57915217 -0.099771947 0.019801356
0.58046317 -0.1013573 0.019334888
0.58129144 -0.10295369 0.019106768
0.46897513 0.034695119 0.020235747
0.47006914 0.033659197 0.020629358
0.47138518 0.031793859 0.021384763
0.47304967 0.030369435 0.021824101
0.5772081 -0.099811725 0.020709695
0.57794487 -0.10109536 0.020438392
0.57885319 -0.10240571 0.020100348
0.58017969 -0.10373775 0.019645888
0.58149672 -0.10532894 0.01918787
0.46732843 0.033882186 0.020661784
0.46851841 0.0325398 0.021233421
0.46982887 0.03124371 0.0217357
0.57765979 -0.1034747 0.020601008
0.57894373 -0.10511851 0.020171583
0.58035737 -0.10678972 0.019678134
0.58109313 -0.10838876 0.01941414
0.58166271 -0.10996506 0.01918553
0.58254158 -0.1112676 0.01880597
0.46355018 0.034826335 0.02042634
0.46467716 0.033954866 0.020713963
0.46574894 0.032568865 0.021290619
0.46711656 0.031164052 0.021919262
0.46856683 0.030613862 0.022065409
0.57767552 -0.10624611 0.020600416
0.57851869 -0.10809342 0.020356677
0.57926285 -0.10968847 0.020147175
0.58047885 -0.11127686 0.01971332
0.58190066 -0.11270856 0.019092064
0.5827812 -0.11432391 0.01866015
0.45925292 0.037260149 0.020023469
0.46064296 0.035995845 0.020317534
0.46202624 0.034630161 0.020680804
0.4633556 0.032747097 0.021368632
0.46446112 0.031752501 0.02174655
0.57746398 -0.10947586 0.020752344
0.57817972 -0.11046959 0.020536462
0.57920283 -0.112397 0.02021279
0.58066034 -0.11407433 0.019571122
0.58189189 -0.11542815 0.018987982
0.5825367 -0.11671836 0.018637909
0.45656258 0.03745554 0.020259414
0.45794198 0.036036063 0.020710059
0.45902973 0.034703627 0.021128299
0.46044171 0.03368748 0.021346977
0.46151638 0.032335475 0.021816179
0.57867712 -0.11384297 0.020371726
0.57921362 -0.11511201 0.020088837
0.58011901 -0.1167322 0.019547598
0.581222 -0.11814045 0.018937595
0.45359543 0.03800017 0.020237433
0.4547084 0.03683668 0.020739181
0.45607725 0.035221756 0.021369791
0.45918816 0.033041079 0.021877574
0.57839739 -0.11622223 0.020261338
0.57834673 -0.11803596 0.020031836
0.57968366 -0.11941607 0.019287582
0.58041292 -0.12072836 0.018839482
0.45007095 0.039055988 0.02002837
0.45121521 0.038327839 0.020262212
0.45231247 0.036980346 0.020858996
0.45340252 0.035490438 0.021574
0.57726896 -0.119422 0.020252788
0.57823277 -0.12068593 0.019684859
0.57978511 -0.12215932 0.018918514
0.44654554 0.039952632 0.020186737
0.4479669 0.038948923 0.020401852
0.44932717 0.037146866 0.02107203
0.45102122 0.035732359 0.021687891
0.45216671 0.034956668 0.022025557
0.57705247 -0.12211285 0.020056745
0.57809681 -0.12375612 0.019522678
0.5792883 -0.12511708 0.019028805
0.58027256 -0.12651086 0.018722173
0.58136672 -0.12834008 0.018463049
0.58225185 -0.13002081 0.01821043
0.44304904 0.041319802 0.020088518
0.44418833 0.040445019 0.020322558
0.44527254 0.038867712 0.020858079
0.44635838 0.037384506 0.021378897
0.44746462 0.036263246 0.021776989
0.57685769 -0.12510273 0.020105667
0.57741177 -0.12638102 0.019868851
0.57889891 -0.12808281 0.019307427
0.58035302 -0.12978102 0.018799476
0.58156413 -0.13115035 0.018384205
0.43951213 0.04226749 0.019916376
0.44125831 0.041307606 0.020232484
0.44257763 0.039572965 0.020835534
0.44370979 0.037920233 0.021420479
0.44511908 0.036854886 0.021742314
0.5766905 -0.12748951 0.020263331
0.57763922 -0.12918353 0.019842546
0.57890159 -0.13080069 0.019310942
0.58012241 -0.13217568 0.018816669
0.581011 -0.13381724 0.018408723
0.4373906 0.042132746 0.019932048
0.43846914 0.04104599 0.020365475
0.43964696 0.039571498 0.020934772
0.44107673 0.038647246 0.021256955
0.44219628 0.037725952 0.021576228
0.5769369 -0.13053823 0.020144215
0.5776881 -0.13184944 0.019768117
0.57831955 -0.13345252 0.01940727
0.57940626 -0.1348847 0.018894244
0.58035129 -0.13676925 0.018351885
0.4346565 0.042204205 0.019814998
0.43581283 0.04134379 0.020201372
0.43692374 0.039721604 0.020860799
0.43775541 0.038467404 0.02137645
0.57678759 -0.13505985 0.019919764
0.57815295 -0.13651864 0.019239355
0.57943928 -0.13815124 0.018587429
0.58041465 -0.13950212 0.018117584
0.43250448 0.041793086 0.019878905
0.43419456 0.040727917 0.020393398
0.43539956 0.038715404 0.021266544
0.57629222 -0.13650408 0.020002073
0.57693082 -0.13779104 0.019641239
0.57784945 -0.13912588 0.019190714
0.57908481 -0.14051749 0.018626673
0.58003813 -0.14218362 0.018157668
0.580235 -0.14373119 0.018048907
0.42974451 0.041645262 0.019946089
0.43091348 0.040651575 0.020350505
0.43235946 0.039322168 0.020971306
0.43380481 0.03833003 0.021424912
0.57691675 -0.14019038 0.019515567
0.57733655 -0.14196964 0.019310245
0.5786128 -0.14357422 0.018783204
0.57986218 -0.14547324 0.018240463
0.58062536 -0.14709459 0.017873295
0.42735416 0.041941538 0.019977424
0.42851305 0.04103554 0.020245468
0.42966717 0.039452828 0.020911094
0.57633346 -0.14374819 0.019753048
0.57718366 -0.14506847 0.019426564
0.57829529 -0.14643085 0.019004554
0.57940835 -0.14779946 0.018491309
0.58028275 -0.14913265 0.017992688
0.42195252 0.044906087 0.019266862
0.42309627 0.044168651 0.019502332
0.42438543 0.042871289 0.019885486
0.4256466 0.041384336 0.020329921
0.42726582 0.039546177 0.020996941
0.57642525 -0.14616767 0.019737046
0.57706541 -0.14745468 0.019519351
0.5781551 -0.14910167 0.019069284
0.57952654 -0.15081067 0.018307544
0.57988399 -0.15270722 0.017866369
0.42064288 0.04389162 0.019581251
0.42149219 0.042706169 0.020048562
0.42259634 0.041310355 0.020576933
0.42393413 0.040115111 0.020985326
0.42544186 0.039420571 0.021198075
0.57724619 -0.15047805 0.019384639
0.57784843 -0.15208508 0.018956361
0.57868457 -0.15373911 0.018266747
0.57957858 -0.15479636 0.017646436
0.41934529 0.042815875 0.019972771
0.4202199 0.041493066 0.020561777
0.42134953 0.040268667 0.02109265
0.42246851 0.039414741 0.021412518
0.57637691 -0.15340972 0.019277239
0.57737303 -0.15478614 0.018656598
0.57855433 -0.15618733 0.017864674
0.41699016 0.042143997 0.020201925
0.41837215 0.040849127 0.020855023
0.41954881 0.040242281 0.021142261
0.57546324 -0.15451239 0.019404851
0.57602417 -0.15582411 0.01897192
0.57690078 -0.15749864 0.018298483
0.57792956 -0.15895402 0.01763357
0.41272068 0.043729976 0.019590341
0.41413322 0.042729136 0.019973936
0.4153499 0.041084804 0.02073184
0.41716453 0.040479038 0.021028511
0.57457304 -0.15713187 0.019214079
0.57524371 -0.15901984 0.01869793
0.57689524 -0.16064505 0.017822759
0.5775187 -0.1622088 0.017356653
0.41041285 0.044429909 0.019408938
0.41156602 0.042883936 0.02005071
0.41293228 0.041515302 0.020618277
0.57419825 -0.16019475 0.018996013
0.57560581 -0.16190723 0.018302793
0.5767495 -0.1633057 0.017639801
0.57723945 -0.16459906 0.017257309
0.40742549 0.044342447 0.019414863
0.40857989 0.043192226 0.020004433
0.4100022 0.041871831 0.020614894
0.57348812 -0.16152889 0.019189302
0.57393193 -0.16307314 0.01893908
0.574898 -0.16450468 0.018446807
0.57600462 -0.16588992 0.017780766
0.57657182 -0.16750102 0.017279154
0.40463805 0.044178214 0.019316196
0.40586001 0.043193907 0.019878732
0.40700123 0.041717239 0.020647641
0.40815896 0.040960614 0.021039177
0.57358998 -0.16575955 0.019002352
0.57456553 -0.1674975 0.018320682
0.57570195 -0.16917947 0.017467467
0.40221456 0.044502582 0.018957099
0.40343893 0.043532707 0.019554947
0.4045907 0.042036269 0.020390654
0.40544426 0.040944256 0.020940816
0.57354116 -0.16909659 0.018536104
0.57454538 -0.17022473 0.01786056
0.57552618 -0.17134656 0.01712608
0.40024292 0.043815199 0.019120852
0.40158284 0.042394314 0.019969298
0.40271622 0.040962368 0.020743741
0.57189673 -0.17040436 0.018904479
0.57292658 -0.17154869 0.018257769
0.5741322 -0.17299026 0.017396377
0.57463562 -0.17429538 0.016903689
0.39762995 0.044073813 0.018781524
0.39851367 0.042917736 0.019426083
0.39964882 0.041497868 0.020204274
0.40076941 0.040112142 0.020945067
0.57117772 -0.17280872 0.01863949
0.57240528 -0.17425922 0.017867418
0.57352197 -0.17564815 0.017140348
0.39602399 0.043186374 0.019108763
0.39721268 0.041855637 0.019808013
0.39836466 0.04037711 0.020568522
0.39953047 0.03960048 0.021026671
0.56999511 -0.17385119 0.018843099
0.57091874 -0.1752108 0.018268585
0.57215583 -0.17666985 0.017520189
0.57309949 -0.1777775 0.016912196
0.39286628 0.042699602 0.019126408
0.39440903 0.042062785 0.019503122
0.39561817 0.040424846 0.020284601
0.39680225 0.039593138 0.020730563
0.56959558 -0.17678124 0.018452145
0.57064277 -0.17824246 0.017808223
0.57185316 -0.17963438 0.017051456
0.3905023 0.042849522 0.018809453
0.3916882 0.042028852 0.01929288
0.39286372 0.040494576 0.020050438
0.39406887 0.039610371 0.020488627
0.56920016 -0.17975748 0.018038988
0.57049626 -0.1813646 0.017207397
0.38929212 0.042510856 0.018751731
0.39024189 0.040880471 0.019553566
