0.730852 0.0851451 0.0708751
0.537667 0.0898477 0.0785158
0.197862 0.295818 0.204378
0.318028 0.220791 0.16024
0.322416 0.220779 0.160066
0.327057 0.220653 0.159832
0.57768 0.232001 0.168043
0.552628 0.231544 0.168964
0.362567 0.220868 0.159862
0.367983 0.0640491 0.0647278
0.582205 0.0895282 0.0791505
0.172397 0.219369 0.159982
0.452484 0.232252 0.168521
0.447544 0.232007 0.168334
0.352886 0.0642156 0.0652821
0.33246 0.0633748 0.0649208
0.312571 0.0637093 0.0655824
0.617544 0.089535 0.079424
0.622341 0.089547 0.0793322
0.192344 0.219352 0.159552
0.302691 0.0635825 0.0655287
0.297209 0.0635632 0.0654226
0.397594 0.232669 0.16747
0.197654 0.304587 0.202365
0.197471 0.30591 0.201481
0.217727 0.0641986 0.0652291
0.21213 0.0641637 0.0652037
0.217422 0.232334 0.16746
0.182553 0.232699 0.167774
0.312287 0.0618247 0.0647098
0.41243 0.0581444 0.06074
0.712162 0.227957 0.166999
0.692817 0.0894443 0.07925
0.152442 0.0575603 0.0625278
0.642556 0.218344 0.160344
0.6125 0.228025 0.166462
0.537543 0.228221 0.166148
0.127948 0.222394 0.162403
0.172519 0.222729 0.161908
0.177378 0.223152 0.161931
0.197479 0.222994 0.161669
0.20229 0.222945 0.161558
0.222463 0.222822 0.161648
0.242431 0.222896 0.161497
0.1474 0.09252 0.0829901
0.15268 0.0926573 0.0828751
0.157712 0.092712 0.0826297
0.272388 0.22297 0.161474
0.167506 0.0928507 0.082546
0.172388 0.0928021 0.0826039
0.177439 0.0926363 0.0825464
0.422565 0.228809 0.165393
0.312452 0.222877 0.161516
0.192459 0.0925058 0.0829122
0.19741 0.0923501 0.0827915
0.202459 0.0922916 0.0826796
0.317581 0.222998 0.161541
0.322501 0.222915 0.161356
0.567585 0.282792 0.20203
0.512295 0.283432 0.200697
0.397836 0.228662 0.164988
0.327652 0.222737 0.161071
0.49741 0.283384 0.20059
0.492581 0.283791 0.200353
0.487746 0.28388 0.200222
0.432551 0.222942 0.162029
0.477806 0.284219 0.200031
0.437413 0.222812 0.162145
0.472498 0.22254 0.161974
0.462341 0.283833 0.200147
0.54246 0.222689 0.162939
0.327453 0.229368 0.165022
0.322049 0.228852 0.164949
0.317598 0.228814 0.16505
0.577472 0.222592 0.162474
0.432676 0.28467 0.199126
0.307679 0.0926951 0.0822843
0.612583 0.222679 0.162859
0.627309 0.222554 0.162848
0.232548 0.228611 0.165216
0.427605 0.284658 0.199066
0.422554 0.284668 0.19912
0.192568 0.228615 0.165339
0.182251 0.229019 0.165415
0.652673 0.221744 0.162969
0.432454 0.0537457 0.0584665
0.412618 0.284589 0.199331
0.407534 0.284496 0.199356
0.40264 0.284495 0.198992
0.397479 0.284729 0.198873
0.157386 0.227939 0.166514
0.387589 0.284971 0.198979
0.382607 0.284595 0.19893
0.377618 0.284687 0.199308
0.422911 0.0539059 0.0583427
0.717631 0.224259 0.164689
0.452766 0.29653 0.208951
0.697986 0.224531 0.164933
0.367895 0.283917 0.199392
0.36274 0.283971 0.199569
0.357649 0.283919 0.199452
0.17805 0.226713 0.164068
0.627419 0.224948 0.164497
0.622405 0.224888 0.164355
0.182578 0.226512 0.163859
0.452677 0.092776 0.0821124
0.457779 0.0927179 0.0824872
0.192541 0.226464 0.163954
0.467242 0.0925882 0.0824158
0.197522 0.226743 0.164167
0.202646 0.226969 0.16409
0.347776 0.283872 0.19944
0.212389 0.226799 0.164046
0.547185 0.224902 0.164655
0.217434 0.226776 0.163968
0.262351 0.302218 0.2035
0.237522 0.226782 0.163969
0.24222 0.226468 0.163701
0.517412 0.0924826 0.0826742
0.395834 0.298979 0.208658
0.257367 0.226708 0.163869
0.262453 0.226803 0.163955
0.312457 0.22696 0.164043
0.317578 0.226983 0.163927
0.444056 0.225515 0.163929
0.425876 0.225366 0.163174
0.422421 0.22585 0.163343
0.322597 0.226615 0.163592
0.35268 0.227026 0.163261
0.448459 0.295706 0.208528
0.577595 0.0934064 0.0813403
0.597347 0.294884 0.209143
0.587857 0.0930934 0.0812276
0.432719 0.297181 0.209657
0.602191 0.228936 0.166872
0.597452 0.22917 0.166569
0.342683 0.283777 0.19954
0.592428 0.229892 0.166692
0.584751 0.231336 0.16741
0.531404 0.229614 0.166954
0.527249 0.230127 0.167129
0.518079 0.229318 0.166694
0.514198 0.229071 0.166531
0.642529 0.0930439 0.0816009
0.647543 0.0930715 0.0816607
0.505354 0.229717 0.166461
0.495961 0.229668 0.165626
0.662814 0.0929684 0.0818062
0.667651 0.0926972 0.0816235
0.672486 0.0928893 0.0817953
0.492379 0.230555 0.165867
0.488037 0.230491 0.165748
0.472508 0.229352 0.166204
0.466971 0.229099 0.166502
0.697759 0.0931621 0.0817566
0.416247 0.229753 0.165715
0.707474 0.093065 0.0821932
0.712426 0.0930787 0.0820686
0.407757 0.230059 0.165709
0.386342 0.229676 0.1662
0.383989 0.230032 0.166503
0.33813 0.283973 0.199754
0.376127 0.229103 0.165874
0.366409 0.230218 0.166191
0.143557 0.0954913 0.0849362
0.629992 0.230662 0.169081
0.152148 0.0960868 0.0848803
0.658603 0.227842 0.167526
0.342246 0.23072 0.165618
0.337348 0.230824 0.165818
0.312657 0.229564 0.165721
0.30214 0.229766 0.166125
0.182356 0.0966425 0.0849907
0.236372 0.229785 0.165911
0.192782 0.0967505 0.0853661
0.197564 0.0967059 0.0854051
0.202135 0.0963611 0.0851939
0.169221 0.23315 0.168656
0.317526 0.284414 0.199764
0.31263 0.284016 0.199414
0.170551 0.232457 0.168147
0.197234 0.229696 0.16613
0.23215 0.0956219 0.0850007
0.30249 0.283838 0.199344
0.146904 0.230499 0.168663
0.292683 0.284413 0.199789
0.142303 0.229843 0.168196
0.281965 0.284303 0.200124
0.276853 0.283804 0.200028
0.678645 0.233599 0.170718
0.26726 0.283712 0.200305
0.131263 0.221399 0.162217
0.257546 0.283441 0.200311
0.25267 0.283509 0.20029
0.709041 0.225093 0.165167
0.162396 0.221493 0.162119
0.166025 0.22183 0.161922
0.602465 0.225722 0.164651
0.597357 0.225882 0.16432
0.592011 0.226286 0.164404
0.584394 0.225689 0.163988
0.132703 0.22415 0.163815
0.137437 0.224138 0.164106
0.148063 0.224879 0.165138
0.152825 0.224756 0.164827
0.220983 0.28432 0.199907
0.166983 0.225007 0.163716
0.21312 0.284629 0.199861
0.362172 0.0958638 0.0848904
0.368266 0.095627 0.0849068
0.207908 0.284825 0.200125
0.537689 0.225774 0.164511
0.532624 0.226266 0.16469
0.177373 0.283138 0.201386
0.527332 0.225993 0.164411
0.517531 0.226507 0.164838
0.512418 0.226535 0.164955
0.507299 0.22666 0.164704
0.497467 0.226952 0.164017
0.492347 0.226658 0.163462
0.138038 0.28459 0.201416
0.487421 0.226599 0.163308
0.482062 0.226732 0.16369
0.47251 0.22668 0.164536
0.46747 0.226378 0.164825
0.462502 0.226284 0.164926
0.45273 0.226248 0.164683
0.172843 0.225295 0.163404
0.300909 0.225792 0.163606
0.132637 0.284045 0.199947
0.369444 0.225515 0.163373
0.667895 0.280099 0.198721
0.412645 0.226716 0.163631
0.407664 0.226803 0.163613
0.402666 0.226841 0.163777
0.397524 0.22697 0.163974
0.387602 0.226597 0.164282
0.382751 0.226366 0.164361
0.377604 0.226205 0.164175
0.362456 0.22707 0.163933
0.347562 0.227128 0.163314
0.342623 0.227366 0.163568
0.337825 0.226993 0.163455
0.297673 0.226702 0.164274
0.484928 0.225682 0.162836
0.492553 0.225192 0.162563
0.496795 0.225232 0.162801
0.662556 0.221248 0.163455
0.65751 0.22154 0.163269
0.62246 0.222409 0.162721
0.617556 0.22273 0.162863
0.602645 0.222532 0.162453
0.597431 0.222739 0.162404
0.592378 0.222833 0.162269
0.582522 0.222922 0.16237
0.537432 0.222589 0.162507
0.532462 0.222685 0.16233
0.527453 0.222767 0.162259
0.517543 0.222629 0.162409
0.512644 0.222493 0.162293
0.507637 0.222682 0.162277
0.482359 0.223426 0.161689
0.467488 0.222533 0.162364
0.462585 0.222502 0.162484
0.452571 0.222536 0.162127
0.447423 0.222866 0.162208
0.427655 0.22333 0.161984
0.422773 0.223176 0.161659
0.412696 0.223214 0.161316
0.407565 0.223367 0.161448
0.402417 0.223283 0.161538
0.397358 0.223148 0.161646
0.387431 0.223072 0.162076
0.382454 0.222758 0.162063
0.377508 0.222747 0.161948
0.367272 0.222982 0.161615
0.362587 0.222789 0.161138
0.357291 0.222982 0.160885
0.347662 0.223385 0.160945
0.342605 0.223005 0.160869
0.337604 0.223021 0.161067
0.302389 0.222969 0.161819
0.143904 0.0996717 0.0872519
0.297584 0.222899 0.16188
0.153232 0.0995897 0.0867744
0.157718 0.0993911 0.0864977
0.457609 0.228632 0.166383
0.16685 0.100066 0.0867063
0.172678 0.0997464 0.0866409
0.267176 0.222817 0.161354
0.303066 0.0997941 0.0866099
0.307338 0.0996682 0.0863085
0.257489 0.223266 0.16161
0.319019 0.100465 0.0865825
0.321883 0.100008 0.0864336
0.363752 0.0999948 0.0874922
0.365091 0.100299 0.0877419
0.38958 0.100141 0.0866893
0.392407 0.099909 0.0862909
0.39796 0.100225 0.0857033
0.252503 0.223172 0.161635
0.40724 0.100651 0.0858493
0.410239 0.098907 0.0846924
0.429206 0.0999191 0.0855778
0.432386 0.100379 0.0859933
0.437025 0.099564 0.085581
0.477238 0.228682 0.165295
0.217512 0.223111 0.161711
0.212578 0.223163 0.161775
0.489858 0.0996944 0.085201
0.192706 0.223168 0.161847
0.496352 0.100413 0.0857029
0.508035 0.0994529 0.0859549
0.512512 0.100473 0.0867144
0.517458 0.100314 0.0868179
0.187562 0.223354 0.161921
0.637357 0.28031 0.199105
0.538169 0.100728 0.0853643
0.54213 0.100785 0.0852025
0.162589 0.22242 0.162728
0.55288 0.100595 0.0854402
0.556975 0.100404 0.0855942
0.132442 0.222303 0.162824
0.568142 0.10046 0.0857106
0.657657 0.218103 0.160949
0.577525 0.100505 0.0855125
0.582437 0.100523 0.0855186
0.587071 0.100723 0.085646
0.647636 0.218495 0.160562
0.597559 0.100764 0.0860651
0.601947 0.0997799 0.0855642
0.613334 0.100076 0.0858496
0.627627 0.218799 0.160343
0.622424 0.100187 0.0858621
0.627773 0.1004 0.0859968
0.632412 0.10087 0.0862662
0.622588 0.218633 0.160262
0.642193 0.100165 0.0860436
0.647754 0.100609 0.0864594
0.652443 0.100109 0.0862991
0.132889 0.231594 0.168445
0.66213 0.0997009 0.0861409
0.668137 0.0994311 0.0859672
0.672783 0.0993709 0.0859917
0.682879 0.100082 0.0861555
0.687607 0.100375 0.0861362
0.692657 0.100398 0.0862431
0.592566 0.219108 0.160073
0.701744 0.0994525 0.0861455
0.719028 0.0998422 0.0861461
0.58258 0.218922 0.160067
0.152243 0.231502 0.169211
0.617363 0.280037 0.198842
0.158042 0.231102 0.168469
0.507509 0.21891 0.160015
0.40823 0.104381 0.0883165
0.497534 0.219323 0.159548
0.49281 0.21951 0.159371
0.487616 0.219411 0.159389
0.492507 0.104494 0.0880795
0.467527 0.219216 0.159959
0.457492 0.219461 0.160059
0.452434 0.219695 0.160074
0.447356 0.219523 0.159944
0.442563 0.219282 0.159792
0.432677 0.219286 0.159516
0.427748 0.219682 0.159469
0.422718 0.219944 0.159421
0.417131 0.220034 0.159262
0.40724 0.219743 0.159085
0.402465 0.220029 0.159416
0.397354 0.21969 0.159395
0.725236 0.104119 0.0866149
0.608536 0.280256 0.199214
0.3872 0.219083 0.159615
0.382381 0.219185 0.159736
0.356603 0.22035 0.159109
0.351626 0.220167 0.158882
0.266904 0.219834 0.159281
0.258332 0.219985 0.15945
0.251897 0.220062 0.159658
0.187644 0.218783 0.159206
0.597476 0.280271 0.199001
0.167027 0.219496 0.16049
0.152572 0.218163 0.160633
0.147496 0.218471 0.161014
0.142157 0.218692 0.161053
0.703156 0.214793 0.158936
0.561999 0.215069 0.158833
0.157012 0.215092 0.158377
0.152335 0.214687 0.158408
0.677331 0.207026 0.156132
0.542138 0.231973 0.168629
0.633215 0.231035 0.169079
0.660713 0.230757 0.168779
0.134815 0.234727 0.170671
0.138128 0.234572 0.170925
0.517705 0.280027 0.198243
0.147434 0.234462 0.171315
0.513105 0.279813 0.198275
0.152461 0.234513 0.171095
0.156553 0.235415 0.171412
0.16307 0.235099 0.17064
0.4825 0.280111 0.197871
0.172346 0.236077 0.17029
0.472579 0.280296 0.197835
0.187056 0.235361 0.169757
0.192917 0.235354 0.17
0.197625 0.235862 0.170486
0.232377 0.236005 0.169992
0.237055 0.235713 0.169678
0.29767 0.235779 0.170018
0.302474 0.235894 0.169992
0.307662 0.236312 0.170147
0.31746 0.236409 0.169909
0.322545 0.236337 0.169612
0.327487 0.236752 0.169713
0.332284 0.236404 0.169367
0.337732 0.236135 0.169084
0.407496 0.236165 0.169674
0.412453 0.236278 0.169828
0.417574 0.23645 0.170097
0.427479 0.235967 0.170423
0.43233 0.235695 0.17045
0.467599 0.235392 0.170293
0.472549 0.235915 0.170208
0.477902 0.236188 0.169872
0.482635 0.236284 0.169676
0.492104 0.236393 0.169701
0.497159 0.236606 0.170065
0.502666 0.236262 0.170722
0.512384 0.235623 0.171069
0.516917 0.23491 0.170491
0.520424 0.23455 0.170124
0.52869 0.234608 0.170134
0.532451 0.235349 0.170669
0.537441 0.236109 0.171392
0.57917 0.236314 0.170594
0.582396 0.235676 0.170217
0.586371 0.234643 0.169579
0.602408 0.234393 0.17068
0.632604 0.234016 0.170935
0.678098 0.235434 0.171805
0.33419 0.23931 0.171181
0.657531 0.212783 0.157436
0.647653 0.212895 0.156983
0.642489 0.213044 0.156922
0.637441 0.213008 0.156766
0.627575 0.213135 0.156758
0.622486 0.212823 0.156699
0.617408 0.213023 0.156842
0.592425 0.212974 0.156615
0.582455 0.21286 0.156693
0.55757 0.21274 0.157501
0.579079 0.242121 0.17454
0.517669 0.21335 0.156539
0.512514 0.213183 0.156492
0.507428 0.213126 0.156508
0.502547 0.212987 0.156309
0.497448 0.213237 0.156078
0.492579 0.2136 0.156104
0.487643 0.213631 0.15609
0.477339 0.213703 0.156036
0.472429 0.213584 0.156009
0.467656 0.213312 0.155929
0.462541 0.213569 0.156036
0.452544 0.213382 0.155805
0.447484 0.213473 0.155985
0.43283 0.213676 0.155777
0.42775 0.21351 0.155424
0.42238 0.213727 0.155318
0.411976 0.213853 0.15522
0.407349 0.21364 0.15521
0.402322 0.214145 0.155798
0.397294 0.213389 0.155552
0.387553 0.213227 0.155832
0.382731 0.213227 0.155838
0.362475 0.213877 0.15528
0.357428 0.214066 0.155071
0.192559 0.0982569 0.0862093
0.197489 0.0978704 0.0860377
0.202432 0.098224 0.0862612
0.157016 0.234319 0.170665
0.257716 0.21345 0.155357
0.252515 0.213631 0.155736
0.232853 0.235143 0.169427
0.23794 0.234839 0.169098
0.232287 0.0979062 0.0863925
0.245318 0.23509 0.169115
0.17755 0.21335 0.156301
0.172642 0.213074 0.15632
0.16749 0.213141 0.156593
0.147357 0.212658 0.157243
0.142474 0.212568 0.157182
0.132313 0.212484 0.157274
0.312021 0.234818 0.16908
0.252631 0.280021 0.198036
0.317101 0.234952 0.168976
0.322416 0.235515 0.169088
0.383968 0.235083 0.16925
0.677544 0.207946 0.156734
0.404071 0.235702 0.169237
0.407983 0.235196 0.168971
0.412658 0.235054 0.168995
0.647455 0.209364 0.154795
0.642526 0.209418 0.154691
0.627334 0.209652 0.154736
0.622546 0.209635 0.15468
0.182598 0.279989 0.198953
0.617873 0.209404 0.154474
0.165882 0.279904 0.200007
0.422252 0.234861 0.169326
0.427147 0.234662 0.169511
0.467468 0.23454 0.169685
0.477584 0.235188 0.169157
0.482494 0.235297 0.168984
0.492891 0.234921 0.168642
0.562723 0.209409 0.15537
0.497762 0.234976 0.169035
0.507404 0.234531 0.169994
0.512771 0.233961 0.169787
0.402556 0.0987458 0.084604
0.517772 0.209313 0.153996
0.512519 0.209015 0.153883
0.522536 0.234254 0.169707
0.166828 0.209437 0.154249
0.162303 0.208786 0.153813
0.152953 0.209126 0.154529
0.14219 0.208672 0.154708
0.132605 0.208731 0.155019
0.538038 0.234335 0.170068
0.542709 0.234045 0.169965
0.512412 0.20625 0.152147
0.408913 0.207207 0.151354
0.46737 0.0982736 0.0858359
0.142193 0.206379 0.153163
0.133108 0.204845 0.152405
0.487922 0.214224 0.156508
0.487374 0.0989924 0.0848671
0.467067 0.214267 0.156665
0.462516 0.215116 0.157188
0.44624 0.214169 0.156494
0.441803 0.214603 0.156805
0.427005 0.215093 0.156477
0.392747 0.215051 0.156802
0.387398 0.214853 0.156903
0.382557 0.214318 0.156593
0.3526 0.215152 0.155776
0.537444 0.099426 0.0844718
0.262691 0.215241 0.156284
0.547669 0.0994877 0.0843056
0.247698 0.214668 0.156517
0.189861 0.215106 0.157082
0.562422 0.0990737 0.0846414
0.175774 0.213941 0.156737
0.59278 0.234531 0.169827
0.577826 0.0992608 0.0846939
0.582464 0.0987926 0.0842413
0.587751 0.0992962 0.0847026
0.5976 0.234168 0.169925
0.662534 0.233311 0.170182
0.602665 0.0986066 0.0847288
0.672531 0.233382 0.170381
0.137567 0.237356 0.172546
0.147543 0.237586 0.173144
0.152495 0.237677 0.173032
0.147461 0.210757 0.156005
0.52227 0.237839 0.172152
0.647626 0.206793 0.1532
0.642514 0.20707 0.153194
0.622606 0.207154 0.153244
0.617469 0.207455 0.153246
0.597598 0.207003 0.153221
0.602433 0.237319 0.172683
0.537455 0.207147 0.153186
0.532365 0.207467 0.153274
0.5175 0.207226 0.152803
0.507339 0.207207 0.152761
0.49231 0.207408 0.152429
0.487659 0.207419 0.152374
0.477576 0.207623 0.152178
0.472626 0.207949 0.152299
0.707676 0.098436 0.0858145
0.467393 0.20788 0.152161
0.462281 0.207882 0.15198
0.722239 0.0989034 0.0845989
0.432592 0.207867 0.152099
0.427428 0.20812 0.152031
0.422449 0.207973 0.151749
0.412326 0.208206 0.151832
0.162654 0.24148 0.17481
0.167832 0.241391 0.174204
0.172585 0.241551 0.174013
0.362462 0.208079 0.151442
0.357507 0.208039 0.151115
0.347384 0.208186 0.151186
0.342386 0.20797 0.151268
0.192465 0.241649 0.174513
0.197583 0.241536 0.174463
0.202554 0.241386 0.174182
0.232612 0.24219 0.173706
0.237459 0.241813 0.173444
0.297681 0.241865 0.173584
0.302552 0.241917 0.173565
0.272517 0.20773 0.151473
0.307308 0.241835 0.173512
0.257632 0.207843 0.151864
0.252617 0.207707 0.15211
0.317423 0.241887 0.173253
0.32243 0.241863 0.173057
0.327467 0.241995 0.173051
0.382583 0.242157 0.173149
0.407669 0.241782 0.173167
0.412558 0.241808 0.173305
0.187505 0.207421 0.152642
0.172532 0.207247 0.152823
0.167634 0.207028 0.152705
0.162661 0.206885 0.152637
0.15227 0.206752 0.152936
0.147324 0.206896 0.153397
0.417504 0.241885 0.173536
0.427562 0.241841 0.173864
0.432487 0.241821 0.173962
0.467414 0.241601 0.174225
0.472677 0.241442 0.173773
0.477443 0.241806 0.173693
0.487588 0.242183 0.173538
0.492446 0.242181 0.173531
0.497393 0.241641 0.173332
0.516936 0.241551 0.174697
0.582682 0.241322 0.174003
0.654537 0.241655 0.17519
0.477428 0.204156 0.149849
0.472523 0.204254 0.149741
0.467522 0.204289 0.149696
0.462179 0.204281 0.149605
0.452603 0.204132 0.149571
0.661324 0.242421 0.17557
0.678294 0.241213 0.175367
0.164128 0.244445 0.176423
0.427425 0.204439 0.149794
0.42217 0.204307 0.149547
0.413136 0.20441 0.149581
0.172065 0.244702 0.176262
0.189499 0.244976 0.176863
0.197987 0.244606 0.176542
0.202418 0.244959 0.176605
0.357398 0.204544 0.14898
0.347148 0.204748 0.149045
0.342674 0.204927 0.149285
0.272471 0.24547 0.176055
0.665088 0.285567 0.202222
0.442237 0.245712 0.176399
0.446867 0.245122 0.176071
0.463983 0.245086 0.176489
0.472424 0.245086 0.176226
0.507845 0.244773 0.176374
0.667654 0.199021 0.150379
0.662644 0.199333 0.149861
0.657511 0.199741 0.149368
0.647627 0.200104 0.149055
0.512224 0.245135 0.176725
0.516977 0.245075 0.176779
0.569071 0.247117 0.177744
0.573721 0.247821 0.178059
0.57798 0.24536 0.176519
0.582418 0.245118 0.176483
0.653365 0.244359 0.176905
0.607734 0.200017 0.148676
0.604151 0.200223 0.148919
0.598299 0.200351 0.149113
0.661018 0.244008 0.176526
0.368302 0.249159 0.176744
0.3789 0.249246 0.177118
0.562681 0.102889 0.0871108
0.385618 0.248854 0.177273
0.537341 0.200603 0.148697
0.408531 0.247927 0.17714
0.512181 0.200263 0.148419
0.508191 0.200363 0.148543
0.491168 0.201016 0.148469
0.488158 0.20092 0.14812
0.433555 0.201249 0.14798
0.411031 0.248604 0.177581
0.187247 0.199968 0.14839
0.16533 0.200354 0.14826
0.140782 0.200436 0.14931
0.131989 0.199904 0.149103
0.666042 0.196654 0.148228
0.463903 0.248185 0.178239
0.582009 0.248162 0.178314
0.629151 0.250718 0.179655
0.633424 0.250632 0.17958
0.640929 0.249193 0.178826
0.652387 0.248226 0.178989
0.662836 0.19976 0.150293
0.658174 0.200399 0.149982
0.601936 0.201997 0.150179
0.477614 0.201835 0.148464
0.472516 0.201759 0.148145
0.467418 0.201611 0.147948
0.462658 0.201896 0.148047
0.452503 0.202037 0.148235
0.138213 0.242974 0.17626
0.147502 0.242787 0.176537
0.327677 0.201971 0.148069
0.297573 0.201947 0.148375
0.152681 0.201272 0.149355
0.147599 0.201509 0.149741
0.142679 0.20146 0.149967
0.502526 0.243858 0.17521
0.147633 0.105835 0.0905873
0.152227 0.106336 0.0906149
0.157646 0.106445 0.0905299
0.512691 0.243653 0.175831
0.167376 0.106443 0.0905608
0.172293 0.106354 0.0906365
0.177121 0.106314 0.0907278
0.53754 0.243201 0.175836
0.447524 0.198277 0.146114
0.427555 0.198161 0.146048
0.197939 0.10555 0.0906214
0.132402 0.246995 0.178196
0.177505 0.247153 0.177965
0.500237 0.285581 0.202129
0.357396 0.198514 0.145575
0.222452 0.10564 0.0906725
0.182538 0.247038 0.17813
0.232463 0.10522 0.0906547
0.32268 0.19818 0.145855
0.222261 0.247465 0.177439
0.23254 0.247583 0.17722
0.237746 0.247633 0.177083
0.242308 0.247766 0.177027
0.257737 0.247584 0.176914
0.262587 0.247623 0.177086
0.27249 0.24783 0.177627
0.282456 0.247713 0.177348
0.297533 0.247538 0.176962
0.302501 0.247802 0.177037
0.307212 0.247601 0.176841
0.313406 0.106373 0.089777
0.312464 0.247732 0.176873
0.321907 0.105576 0.0894227
0.317438 0.247672 0.17679
0.322456 0.247901 0.176897
0.36578 0.107176 0.0916339
0.379278 0.106087 0.0905154
0.327345 0.247903 0.176994
0.387533 0.105969 0.0898512
0.391303 0.106775 0.0898783
0.399374 0.106751 0.0895506
0.337564 0.247867 0.176921
0.362642 0.248484 0.176487
0.372691 0.248471 0.176366
0.428283 0.107461 0.0904418
0.430692 0.108159 0.0908041
0.442757 0.105184 0.0888395
0.463257 0.106046 0.0899462
0.392347 0.248276 0.177231
0.472819 0.106385 0.0897986
0.477528 0.106184 0.0895624
0.482536 0.10632 0.0896186
0.402687 0.247987 0.177121
0.412464 0.247704 0.176955
0.503525 0.106942 0.0893735
0.417268 0.247597 0.176942
0.512483 0.105966 0.089348
0.517547 0.10615 0.0896033
0.427486 0.247396 0.177006
0.432401 0.247539 0.17719
0.43758 0.24786 0.177533
0.452445 0.247708 0.177422
0.542237 0.106633 0.0890799
0.45743 0.247531 0.17749
0.552523 0.106483 0.0893187
0.556192 0.106555 0.0894604
0.567734 0.106432 0.0893446
0.477332 0.247506 0.177411
0.577256 0.106741 0.0893615
0.582566 0.106558 0.0893053
0.587431 0.106399 0.0892203
0.487513 0.247957 0.177286
0.59646 0.105849 0.089194
0.492462 0.247893 0.177128
0.612794 0.106388 0.0897725
0.497386 0.247745 0.177176
0.622571 0.106308 0.0896301
0.627532 0.106151 0.0894741
0.63239 0.105862 0.0894009
0.557616 0.193383 0.145039
0.642983 0.105665 0.0895685
0.647522 0.105831 0.0897825
0.652539 0.106028 0.0901055
0.552617 0.193611 0.144934
0.662447 0.105709 0.0900587
0.667749 0.10644 0.0904862
0.542653 0.194614 0.144769
0.537064 0.194957 0.144675
0.682547 0.105692 0.0897531
0.68773 0.106224 0.0898804
0.692532 0.106295 0.0899731
0.522604 0.247476 0.178053
0.702571 0.106012 0.0905009
0.70746 0.105897 0.0906503
0.712644 0.105509 0.0904729
0.717928 0.106029 0.0903355
0.527559 0.247961 0.17826
0.512482 0.194232 0.144734
0.15787 0.10929 0.0923571
0.492397 0.194662 0.144537
0.318079 0.110758 0.0922799
0.388526 0.110414 0.092093
0.391911 0.109849 0.0915424
0.403404 0.110241 0.0919107
0.407493 0.109693 0.0917496
0.423937 0.10935 0.0914548
0.487352 0.194466 0.144291
0.432285 0.110304 0.0920805
0.454515 0.111974 0.0930646
0.477685 0.194611 0.144
0.463576 0.110429 0.0921063
0.472516 0.194606 0.143854
0.472284 0.110213 0.0918719
0.477591 0.109801 0.0918462
0.482542 0.109964 0.0920094
0.462642 0.194931 0.143799
0.499039 0.111408 0.0920057
0.502608 0.111352 0.0917938
0.507289 0.110801 0.0916
0.512479 0.110651 0.091737
0.517512 0.110562 0.0918626
0.521901 0.109796 0.0914541
0.45221 0.195131 0.143964
0.547741 0.109921 0.0913791
0.446985 0.195018 0.144098
0.42947 0.195125 0.144203
0.637338 0.247297 0.177522
0.573273 0.109619 0.0912849
0.577483 0.10961 0.0912831
0.647701 0.24696 0.177698
0.388344 0.194952 0.143951
0.59455 0.10941 0.0915606
0.376496 0.195328 0.144242
0.613321 0.109121 0.0917229
0.358816 0.195256 0.143806
0.624482 0.109043 0.091355
0.628301 0.109653 0.0917506
0.332041 0.195248 0.143677
0.635639 0.108638 0.0913062
0.658147 0.108941 0.0920901
0.662636 0.109071 0.0922974
0.667001 0.108773 0.092117
0.689673 0.109806 0.0922543
0.692417 0.110094 0.0924397
0.323087 0.195035 0.143852
0.701273 0.109142 0.0922881
0.295367 0.195418 0.144107
0.292121 0.195485 0.144103
0.313779 0.114692 0.0949145
0.164099 0.249895 0.179883
0.385018 0.115874 0.0956208
0.172452 0.249989 0.17974
0.177852 0.250497 0.180191
0.408415 0.113224 0.0939406
0.187622 0.250976 0.180723
0.192612 0.250442 0.180345
0.462979 0.113803 0.0938078
0.197687 0.250899 0.180488
0.471906 0.113782 0.0940424
0.476952 0.112899 0.0938731
0.222622 0.251461 0.179965
0.2325 0.251149 0.17955
0.511414 0.113928 0.0934756
0.237743 0.251132 0.179352
0.142064 0.193764 0.144757
0.132406 0.194265 0.14547
0.557595 0.190829 0.143214
0.553593 0.191014 0.14319
0.141926 0.190783 0.142919
0.262387 0.251586 0.179642
0.297747 0.251645 0.179478
0.317636 0.251513 0.179142
0.417429 0.251219 0.179091
0.427162 0.251385 0.179428
0.432075 0.251129 0.179333
0.447121 0.251783 0.179976
0.472289 0.250301 0.179539
0.477315 0.251341 0.179996
0.508667 0.249114 0.178635
0.517444 0.250943 0.179914
0.543069 0.251731 0.180752
0.567719 0.250595 0.179914
0.646868 0.25175 0.180612
0.226961 0.25446 0.18186
0.243728 0.254281 0.181079
0.28281 0.254409 0.18178
0.28786 0.254819 0.181835
0.297308 0.254859 0.18138
0.301859 0.254738 0.181252
0.307961 0.254625 0.181062
0.317454 0.255168 0.18146
0.324046 0.25465 0.181374
0.327953 0.254477 0.181327
0.542494 0.19193 0.142945
0.537457 0.192129 0.142741
0.362522 0.255631 0.180787
0.367782 0.255575 0.180745
0.372458 0.255647 0.180712
0.382055 0.254729 0.180707
0.386742 0.254536 0.180876
0.39216 0.254562 0.18121
0.492694 0.192006 0.143035
0.487773 0.192029 0.142968
0.477469 0.192128 0.142659
0.472468 0.192318 0.142539
0.462402 0.192838 0.142566
0.452565 0.192739 0.142654
0.401528 0.254439 0.181332
0.405143 0.254544 0.181245
0.432224 0.192581 0.142728
0.42736 0.192643 0.142662
0.419245 0.25439 0.181179
0.307619 0.104894 0.0891335
0.425974 0.255822 0.182252
0.439916 0.25595 0.182555
0.442384 0.25567 0.182403
0.38751 0.192504 0.142322
0.377459 0.192838 0.142686
0.367717 0.19276 0.142614
0.362558 0.192489 0.142347
0.357575 0.193004 0.142571
0.446049 0.256265 0.182766
0.337533 0.192635 0.142076
0.327134 0.192832 0.142427
0.32276 0.192868 0.142511
0.317589 0.192465 0.14229
0.479105 0.254317 0.181875
0.482402 0.254444 0.181844
0.297475 0.192781 0.142445
0.292193 0.192683 0.142371
0.497334 0.254342 0.18121
0.502526 0.255355 0.181732
0.518829 0.254632 0.181981
0.22776 0.285858 0.201309
0.523139 0.254731 0.182058
0.598165 0.256778 0.184043
0.623419 0.255488 0.182662
0.62776 0.254862 0.182258
0.65704 0.25389 0.182746
0.679509 0.254811 0.183951
0.687431 0.253453 0.182591
0.362523 0.258431 0.182671
0.367369 0.258863 0.182846
0.419274 0.258368 0.183713
0.497991 0.258719 0.183997
0.167659 0.191937 0.143171
0.505416 0.258439 0.18372
0.147409 0.191736 0.143326
0.519033 0.258616 0.184038
0.722347 0.188304 0.141727
0.497237 0.105412 0.0882162
0.61897 0.259351 0.185103
0.626996 0.25668 0.183413
0.617548 0.188483 0.140892
0.487681 0.188392 0.140893
0.482396 0.188492 0.140814
0.452317 0.188975 0.140321
0.447435 0.18876 0.140305
0.432401 0.188718 0.140301
0.427528 0.188631 0.140056
0.422634 0.188941 0.139986
0.387476 0.188986 0.139984
0.367675 0.188569 0.140058
0.362638 0.18835 0.139949
0.35749 0.188537 0.140071
0.337923 0.188771 0.139822
0.331998 0.188803 0.139919
0.317506 0.188958 0.140097
0.502827 0.249676 0.178362
0.142521 0.188649 0.141407
0.662333 0.249474 0.180067
0.32202 0.186198 0.138338
0.257597 0.179768 0.135464
0.39753 0.186614 0.138538
0.38255 0.186896 0.138721
0.347425 0.186828 0.138889
0.617533 0.253361 0.1816
0.672348 0.183195 0.136796
0.667597 0.183222 0.136802
0.662481 0.182789 0.13654
0.657465 0.18312 0.136866
0.642246 0.182676 0.136674
0.637533 0.182671 0.136873
0.172467 0.256616 0.184063
0.177844 0.256637 0.183987
0.187528 0.256424 0.183928
0.192497 0.256367 0.183771
0.582356 0.182338 0.137664
0.197512 0.256356 0.183686
0.217416 0.256509 0.183222
0.2226 0.2566 0.1832
0.232522 0.257002 0.18335
0.237617 0.257166 0.183217
0.532563 0.183013 0.136865
0.527484 0.182877 0.136765
0.497468 0.182284 0.137401
0.132574 0.107805 0.0918304
0.137419 0.107283 0.0918107
0.492448 0.182438 0.137441
0.147423 0.107869 0.0916974
0.152456 0.107799 0.0914777
0.242392 0.257234 0.183011
0.457342 0.183279 0.13686
0.167436 0.1079 0.0914266
0.172473 0.107665 0.0914173
0.452543 0.182913 0.136569
0.252551 0.256911 0.182827
0.257437 0.256793 0.182786
0.262614 0.256866 0.183127
0.432482 0.183175 0.13672
0.427392 0.183076 0.136499
0.422663 0.183037 0.136366
0.412664 0.183195 0.136217
0.217387 0.107832 0.091843
0.222278 0.107878 0.091945
0.407564 0.183018 0.136208
0.232603 0.107859 0.0920464
0.402617 0.183219 0.136441
0.242482 0.107788 0.0917872
0.392677 0.183082 0.136278
0.252423 0.107862 0.0918157
0.387673 0.183103 0.136262
0.382899 0.183291 0.136491
0.377436 0.183115 0.136532
0.367772 0.183113 0.136691
0.362625 0.182747 0.136497
0.357602 0.182619 0.136533
0.347624 0.182733 0.136462
0.342567 0.182872 0.136432
0.337621 0.183089 0.136421
0.332382 0.18311 0.136442
0.322328 0.183019 0.136387
0.317555 0.182945 0.136361
0.267534 0.257158 0.183579
0.277365 0.256882 0.183505
0.282447 0.256796 0.183286
0.2875 0.256698 0.18301
0.297596 0.257199 0.182752
0.302716 0.257387 0.182817
0.307548 0.257365 0.182734
0.257578 0.182422 0.137081
0.317619 0.256967 0.182657
0.322438 0.257044 0.182833
0.327209 0.257233 0.182997
0.372173 0.107701 0.0916146
0.332551 0.257141 0.183011
0.387541 0.257614 0.182667
0.392468 0.257497 0.182892
0.172601 0.182466 0.137347
0.167616 0.182097 0.137085
0.162564 0.182413 0.13727
0.147424 0.182526 0.137292
0.142326 0.18232 0.137253
0.402559 0.257225 0.182965
0.722635 0.179052 0.134497
0.712565 0.179146 0.134828
0.708464 0.179323 0.135102
0.407481 0.257189 0.182828
0.688135 0.179626 0.135015
0.681356 0.180024 0.134859
0.667393 0.179665 0.134474
0.662323 0.178713 0.133928
0.657472 0.178846 0.134135
0.642422 0.179967 0.135085
0.63734 0.17991 0.135169
0.4125 0.257383 0.182941
0.601939 0.179612 0.135408
0.427659 0.256682 0.182637
0.432596 0.257102 0.182985
0.452446 0.257095 0.183336
0.467437 0.257094 0.183905
0.472451 0.256811 0.183803
0.477371 0.256798 0.183633
0.482537 0.257074 0.183504
0.492519 0.257225 0.183122
0.522651 0.17956 0.134954
0.512607 0.179235 0.135077
0.507708 0.17907 0.135013
0.512491 0.257069 0.182866
0.487381 0.178945 0.135007
0.477666 0.178799 0.134996
0.462313 0.179333 0.134585
0.45271 0.179546 0.134349
0.447395 0.17968 0.134412
0.522701 0.256868 0.183041
0.427716 0.179675 0.134384
0.42295 0.179722 0.134344
0.413095 0.179911 0.134156
0.408442 0.179746 0.134153
0.402525 0.179758 0.13435
0.392777 0.179659 0.134287
0.38815 0.17969 0.134236
0.531995 0.256999 0.1832
0.372772 0.179756 0.134613
0.367964 0.179645 0.134599
0.362542 0.179461 0.134509
0.357833 0.179229 0.134448
0.537572 0.256546 0.183125
0.642756 0.108364 0.0913604
0.647413 0.108234 0.0913018
0.542435 0.256398 0.183321
0.332255 0.17957 0.134324
0.321944 0.180063 0.134573
0.317349 0.179834 0.134446
0.672426 0.108318 0.0917776
0.577128 0.256723 0.183442
0.682492 0.108591 0.0916288
0.58201 0.255559 0.18265
0.587691 0.256705 0.183535
0.602187 0.256602 0.183985
0.638339 0.256207 0.183136
0.70742 0.108228 0.0919408
0.7124 0.108093 0.091948
0.717191 0.107994 0.0914539
0.643409 0.255794 0.183034
0.648097 0.255856 0.183322
0.651983 0.256532 0.184051
0.132592 0.111953 0.0942056
0.137534 0.112198 0.0944503
0.688227 0.255418 0.183669
0.147555 0.111923 0.0940126
0.692469 0.255975 0.184144
0.157747 0.11163 0.093735
0.152211 0.261017 0.187237
0.167495 0.111591 0.0938671
0.172433 0.111573 0.0940012
0.17738 0.111486 0.0940587
0.172682 0.178596 0.135025
0.152413 0.17867 0.134983
0.147211 0.178766 0.135106
0.142857 0.178849 0.135179
0.132683 0.178782 0.135154
0.6887 0.174643 0.131566
0.661037 0.17584 0.132323
0.65761 0.175968 0.132546
0.222511 0.111409 0.0939265
0.483023 0.17575 0.132954
0.478455 0.175994 0.133191
0.177976 0.175665 0.133104
0.174643 0.176005 0.1334
0.153628 0.175711 0.133232
0.148976 0.176001 0.133416
0.136092 0.175312 0.133016
0.217744 0.260876 0.185708
0.22262 0.260775 0.185702
0.242622 0.260952 0.185357
0.252354 0.261244 0.185547
0.257362 0.26112 0.185602
0.262424 0.260794 0.185643
0.282492 0.261066 0.185768
0.287357 0.260996 0.185488
0.302244 0.111719 0.0935336
0.307581 0.112278 0.093661
0.297424 0.261054 0.185111
0.302594 0.261316 0.185115
0.307548 0.261641 0.185288
0.327558 0.260869 0.185284
0.357436 0.261099 0.184577
0.362568 0.26101 0.184359
0.367708 0.261498 0.184547
0.372502 0.261093 0.184117
0.382399 0.261236 0.184573
0.38751 0.261009 0.184757
0.402428 0.260977 0.185221
0.407533 0.260988 0.18538
0.372428 0.111701 0.0938371
0.412643 0.260932 0.1853
0.382416 0.111878 0.0934008
0.417661 0.261065 0.185436
0.427484 0.261004 0.185403
0.432224 0.260956 0.185373
0.402271 0.112196 0.0929251
0.437244 0.26094 0.185347
0.412538 0.112187 0.0932617
0.462564 0.260841 0.186108
0.472725 0.260995 0.186571
0.42728 0.112278 0.0933982
0.432252 0.11232 0.093351
0.477733 0.26103 0.186617
0.502892 0.260768 0.185254
0.447568 0.112096 0.0931332
0.512114 0.260756 0.184977
0.457245 0.112197 0.093045
0.527436 0.260855 0.185227
0.532505 0.261288 0.185511
0.536829 0.26146 0.185708
0.5674 0.261045 0.186354
0.589648 0.2615 0.186725
0.606499 0.260886 0.186322
0.617947 0.261136 0.186336
0.620923 0.261137 0.186239
0.279844 0.263682 0.187453
0.317684 0.264267 0.187089
0.722638 0.174188 0.130836
0.517433 0.112309 0.0928719
0.522608 0.112222 0.0928758
0.712446 0.173723 0.130781
0.707657 0.173673 0.130906
0.537578 0.112607 0.092862
0.542226 0.112264 0.0926921
0.32242 0.264405 0.187291
0.682655 0.173269 0.13065
0.637415 0.172891 0.131379
0.612468 0.173461 0.131311
0.567564 0.111999 0.0929623
0.602557 0.173287 0.131536
0.57767 0.112155 0.0929158
0.582502 0.112225 0.0929904
0.587698 0.112028 0.0928993
0.44766 0.263913 0.187582
0.597093 0.112629 0.0938812
0.451348 0.264101 0.187788
0.607423 0.111938 0.0935032
0.499008 0.263378 0.187198
0.617343 0.111822 0.0932475
0.622504 0.111844 0.093087
0.626801 0.111785 0.0929884
0.632505 0.111797 0.0931899
0.537503 0.173115 0.1319
0.642447 0.111921 0.0936572
0.647464 0.111757 0.0936229
0.652605 0.111932 0.0938598
0.532424 0.172933 0.131544
0.661938 0.11215 0.0941378
0.667734 0.111492 0.0938007
0.672371 0.111293 0.0935644
0.512548 0.172923 0.130913
0.682511 0.112087 0.0938866
0.687271 0.111274 0.0931832
0.692958 0.112175 0.0937506
0.697765 0.112181 0.0939566
0.507338 0.173374 0.131228
0.707445 0.111568 0.0939063
0.712616 0.111943 0.0941529
0.717537 0.111627 0.0934492
0.49756 0.173007 0.131118
0.472582 0.173403 0.131333
0.46721 0.173268 0.13101
0.462675 0.173198 0.13067
0.452552 0.173691 0.130497
0.447533 0.173765 0.130589
0.542648 0.264228 0.187749
0.551794 0.264617 0.188159
0.557293 0.264672 0.188167
0.562656 0.264241 0.188231
0.597898 0.262998 0.187614
0.601681 0.263091 0.187648
0.367464 0.17334 0.130643
0.362661 0.173255 0.130601
0.357677 0.173249 0.130614
0.652705 0.265604 0.190404
0.337583 0.17335 0.130568
0.332453 0.173536 0.130677
0.322631 0.173515 0.13061
0.317232 0.173038 0.130361
0.31263 0.173231 0.130561
0.302759 0.173077 0.13065
0.676842 0.265736 0.190421
0.699547 0.264843 0.18965
0.269126 0.255451 0.182504
0.513051 0.256204 0.182331
0.162393 0.173018 0.131862
0.1425 0.173218 0.131834
0.722369 0.169775 0.127851
0.712421 0.16952 0.127997
0.70733 0.169589 0.128222
0.702434 0.169376 0.128154
0.692694 0.169403 0.128357
0.687428 0.169992 0.128736
0.682217 0.169902 0.128817
0.677497 0.169458 0.12874
0.662189 0.169662 0.129282
0.642064 0.169251 0.129556
0.612621 0.169206 0.129053
0.607648 0.169592 0.129311
0.602427 0.169464 0.129397
0.567529 0.169283 0.129452
0.562759 0.169165 0.129555
0.557712 0.1693 0.130057
0.542665 0.168907 0.129996
0.537538 0.169275 0.129911
0.532968 0.16955 0.129879
0.513591 0.169699 0.128869
0.507585 0.170485 0.129297
0.495621 0.169984 0.129179
0.492178 0.16999 0.129349
0.487559 0.169592 0.129288
0.482316 0.169901 0.129431
0.472613 0.170111 0.12909
0.467354 0.170407 0.129109
0.462604 0.170577 0.128937
0.452857 0.170884 0.128658
0.44772 0.170926 0.128755
0.366278 0.170623 0.128864
0.362477 0.170616 0.128848
0.336827 0.170462 0.128795
0.332438 0.170306 0.128703
0.32183 0.170551 0.128792
0.311725 0.170369 0.128868
0.302775 0.170336 0.129051
0.182091 0.169784 0.129455
0.167454 0.168827 0.12935
0.162496 0.168841 0.129371
0.152503 0.169096 0.129363
0.147755 0.169049 0.129331
0.142658 0.169355 0.1295
0.137636 0.169837 0.129813
0.132408 0.169821 0.129763
0.318026 0.175191 0.13162
0.703629 0.17133 0.129486
0.691224 0.170958 0.129355
0.642728 0.170421 0.130133
0.602926 0.170666 0.130054
0.56246 0.170224 0.130291
0.352268 0.259829 0.184113
0.372473 0.260543 0.183646
0.382617 0.260313 0.183912
0.722889 0.168265 0.126925
0.712314 0.168178 0.127199
0.70822 0.167926 0.127221
0.687464 0.16762 0.127454
0.682519 0.167608 0.127624
0.667464 0.167059 0.127941
0.66254 0.167143 0.128152
0.597524 0.167323 0.128346
0.517525 0.16774 0.12791
0.512653 0.167764 0.127693
0.507393 0.167779 0.127641
0.497472 0.167784 0.127816
0.492604 0.167412 0.127799
0.487559 0.167139 0.127876
0.477571 0.167447 0.127853
0.47249 0.167632 0.127622
0.467472 0.167767 0.127422
0.462644 0.168003 0.127335
0.44763 0.167946 0.126798
0.367419 0.167899 0.127119
0.725951 0.116706 0.0929256
0.362374 0.167867 0.12707
0.337658 0.167962 0.127239
0.311986 0.117882 0.09728
0.328697 0.119691 0.0979414
0.331862 0.118731 0.0973012
0.132786 0.26226 0.187728
0.137341 0.262127 0.188108
0.428988 0.11848 0.0974761
0.43192 0.118202 0.0973236
0.448901 0.119265 0.0974744
0.452412 0.119471 0.097377
0.45737 0.119414 0.0970306
0.462949 0.119835 0.0971653
0.147471 0.262562 0.188425
0.471238 0.11978 0.0978054
0.50733 0.119433 0.0968768
0.512754 0.120063 0.0972342
0.517644 0.119169 0.0967942
0.522107 0.11922 0.0969557
0.172727 0.262448 0.187787
0.532299 0.119267 0.0972931
0.537158 0.118537 0.0967828
0.541867 0.118688 0.0969248
0.574067 0.118926 0.0975412
0.177366 0.26242 0.18755
0.62874 0.118349 0.0975116
0.632566 0.118622 0.0978861
0.187618 0.262859 0.187625
0.68881 0.118619 0.0979311
0.692393 0.118724 0.0978675
0.695828 0.118526 0.097664
0.192677 0.262917 0.187441
0.197726 0.26277 0.187166
0.212433 0.263237 0.187103
0.23261 0.262958 0.187045
0.237478 0.262672 0.186689
0.132589 0.166852 0.128073
0.267628 0.262459 0.186883
0.337558 0.263042 0.186733
0.392581 0.263229 0.186278
0.467452 0.262294 0.187235
0.482644 0.262676 0.187294
0.492444 0.263065 0.186917
0.517366 0.26334 0.186485
0.725589 0.161283 0.122134
0.722017 0.161156 0.122492
0.712413 0.160304 0.122698
0.707648 0.160384 0.122891
0.702289 0.160247 0.122823
0.697414 0.160329 0.122904
0.687291 0.159967 0.123234
0.68236 0.159738 0.12332
0.677095 0.15977 0.123644
0.673 0.15982 0.12387
0.667678 0.159975 0.124247
0.641928 0.160044 0.124554
0.637777 0.159935 0.124492
0.612374 0.159956 0.124013
0.602214 0.160165 0.124152
0.59747 0.160187 0.124292
0.572292 0.160023 0.123989
0.562765 0.160335 0.124069
0.557482 0.160369 0.124168
0.553009 0.160384 0.124306
0.547107 0.160497 0.124503
0.537893 0.160251 0.124314
0.520818 0.160542 0.123926
0.516502 0.160138 0.123281
0.514068 0.160736 0.123587
0.490871 0.160175 0.123701
0.48852 0.160216 0.123729
0.475328 0.16057 0.123456
0.468114 0.160869 0.12306
0.577406 0.262831 0.187584
0.395704 0.160565 0.123468
0.582464 0.263015 0.187583
0.360166 0.161235 0.122985
0.227931 0.160514 0.12375
0.219461 0.160422 0.123793
0.167779 0.160034 0.123878
0.157901 0.160422 0.124225
0.152596 0.16013 0.124047
0.147316 0.159889 0.123991
0.142443 0.159664 0.123979
0.132803 0.159644 0.124016
0.491402 0.154507 0.120222
0.682335 0.262022 0.187738
0.702379 0.262155 0.188362
0.132367 0.265797 0.189713
0.137773 0.265309 0.19004
0.147098 0.265425 0.190074
0.710458 0.162209 0.123938
0.696355 0.162678 0.124375
0.687286 0.162506 0.124677
0.682641 0.162131 0.12462
0.152691 0.265022 0.189693
0.177104 0.266027 0.189946
0.197585 0.266313 0.189204
0.227424 0.266555 0.189137
0.232517 0.266492 0.189218
0.237469 0.266629 0.18925
0.242228 0.266659 0.189157
0.51222 0.161476 0.123973
0.507559 0.16155 0.124005
0.497574 0.161236 0.124067
0.492609 0.161253 0.124276
0.662411 0.278147 0.197104
0.657517 0.27808 0.19694
0.487341 0.161267 0.124465
0.642219 0.277808 0.197255
0.482243 0.161136 0.124207
0.462292 0.16187 0.123405
0.452533 0.161753 0.122764
0.447333 0.162006 0.122956
0.44234 0.161849 0.123096
0.412897 0.161519 0.12356
0.407207 0.161489 0.123639
0.262303 0.266404 0.189118
0.26735 0.266253 0.189233
0.277508 0.266382 0.189152
0.367884 0.161509 0.123181
0.602558 0.277847 0.197323
0.357098 0.16175 0.123278
0.322266 0.267369 0.188995
0.327568 0.2671 0.189058
0.377543 0.267336 0.188348
0.22743 0.161565 0.124428
0.21738 0.161328 0.124368
0.452616 0.266494 0.189193
0.667667 0.15723 0.122693
0.45769 0.266337 0.189435
0.65748 0.157133 0.123043
0.647447 0.157082 0.122891
0.642377 0.157105 0.122812
0.637514 0.157206 0.12286
0.467359 0.266151 0.189692
0.471929 0.26617 0.189912
0.477562 0.265648 0.18963
0.482519 0.265952 0.189646
0.60249 0.15734 0.122541
0.552632 0.277729 0.197393
0.547427 0.277707 0.197151
0.492208 0.266173 0.189068
0.582677 0.15764 0.123044
0.577777 0.157618 0.122801
0.572543 0.158053 0.122812
0.562593 0.157768 0.122372
0.557563 0.157779 0.122406
0.552597 0.157804 0.122602
0.547411 0.157749 0.122616
0.537436 0.278022 0.196662
0.532582 0.277842 0.196376
0.503096 0.266084 0.189061
0.507569 0.157831 0.121873
0.497779 0.157666 0.122139
0.47739 0.157922 0.122123
0.387333 0.157713 0.12175
0.527413 0.267333 0.188977
0.542804 0.267097 0.189373
0.552624 0.267083 0.189679
0.557799 0.267047 0.18972
0.562733 0.266951 0.190163
0.567301 0.266774 0.1903
0.583918 0.266152 0.189818
0.527528 0.278055 0.196583
0.587935 0.266718 0.190144
0.614462 0.265651 0.189445
0.212613 0.157531 0.122102
0.655 0.267587 0.19131
0.678426 0.265266 0.190011
0.172492 0.157621 0.122181
0.167612 0.157621 0.122398
0.162628 0.157612 0.122504
0.152512 0.157319 0.122446
0.147445 0.157289 0.12249
0.142366 0.157209 0.122548
0.132311 0.157497 0.122776
0.725859 0.154863 0.117591
0.72214 0.154752 0.118589
0.712279 0.154222 0.119341
0.707412 0.153989 0.11941
0.70234 0.153944 0.119395
0.697387 0.154106 0.11946
0.687437 0.153772 0.119689
0.68249 0.153656 0.119907
0.677206 0.153757 0.120243
0.667488 0.153478 0.120602
0.662375 0.153364 0.120722
0.657824 0.153267 0.120605
0.64752 0.153273 0.12047
0.642462 0.153325 0.120436
0.221921 0.270178 0.191004
0.231893 0.269673 0.191141
0.237246 0.269503 0.191102
0.242672 0.269669 0.191138
0.248184 0.269946 0.191168
0.257532 0.269894 0.191076
0.262929 0.269686 0.191093
0.267507 0.269709 0.191349
0.562517 0.154094 0.119878
0.132555 0.117688 0.0969803
0.137566 0.117535 0.097043
0.557758 0.15413 0.119868
0.147437 0.117602 0.097083
0.552363 0.154252 0.120055
0.157583 0.117543 0.0972839
0.546883 0.154364 0.1202
0.537446 0.154228 0.119985
0.277725 0.270205 0.191529
0.177564 0.117588 0.0976552
0.282699 0.27053 0.19152
0.187147 0.117368 0.0974093
0.192549 0.117381 0.0972986
0.197786 0.117348 0.0972098
0.287576 0.270637 0.191295
0.207563 0.117549 0.0972949
0.507373 0.277929 0.197291
0.507551 0.154613 0.120016
0.492539 0.278147 0.19693
0.497645 0.154365 0.120122
0.482348 0.277889 0.196675
0.487539 0.154025 0.12004
0.482302 0.153997 0.120077
0.472417 0.154526 0.119648
0.467575 0.27796 0.196574
0.46237 0.277989 0.196615
0.468069 0.154585 0.119166
0.452485 0.278173 0.196526
0.447525 0.278318 0.196045
0.442594 0.278625 0.19581
0.437598 0.278361 0.19535
0.432524 0.278777 0.195513
0.457354 0.155318 0.11886
0.297244 0.117866 0.0971651
0.302488 0.117388 0.0971762
0.453161 0.15506 0.118592
0.448751 0.155355 0.118808
0.317753 0.118211 0.0970909
0.322533 0.117966 0.0967518
0.441808 0.15529 0.119073
0.436634 0.154886 0.118971
0.427386 0.278643 0.195408
0.422524 0.278731 0.195421
0.417317 0.278764 0.195637
0.352752 0.117372 0.0973187
0.427647 0.154558 0.119077
0.362677 0.117704 0.0978023
0.367588 0.117782 0.0976639
0.372504 0.118159 0.0975332
0.422018 0.15491 0.119582
0.382277 0.117931 0.0971643
0.387132 0.118218 0.096813
0.412628 0.278805 0.195792
0.407516 0.278897 0.195775
0.40244 0.278769 0.195559
0.397651 0.278744 0.19524
0.412551 0.11816 0.097138
0.417254 0.117821 0.0969142
0.417092 0.154863 0.119692
0.387099 0.154625 0.119768
0.317264 0.270666 0.190742
0.322452 0.270664 0.191064
0.367271 0.15486 0.119426
0.36231 0.154926 0.119523
0.327552 0.270005 0.190923
0.33289 0.269624 0.190857
0.342148 0.269855 0.191084
0.34785 0.269833 0.190954
0.472613 0.118324 0.0969092
0.477496 0.118012 0.0972757
0.387531 0.278984 0.195293
0.382485 0.279057 0.195537
0.377625 0.278557 0.195481
0.497325 0.118297 0.0966628
0.353289 0.269736 0.19067
0.362457 0.270267 0.190723
0.367306 0.269998 0.190316
0.372277 0.269805 0.190038
0.382656 0.270152 0.190225
0.387487 0.270284 0.190281
0.392022 0.270398 0.190314
0.402749 0.270515 0.190989
0.407251 0.270234 0.190867
0.412362 0.270015 0.190766
0.372566 0.278474 0.1957
0.367432 0.278473 0.195979
0.562484 0.117986 0.0968709
0.567498 0.117817 0.0967054
0.420523 0.269996 0.190553
0.427511 0.270629 0.190784
0.582306 0.117886 0.0968419
0.587624 0.117982 0.0970645
0.432301 0.271186 0.191112
0.59743 0.117562 0.0972157
0.437617 0.270574 0.190781
0.607794 0.117674 0.0973787
0.447442 0.270569 0.191217
0.617515 0.117757 0.0971427
0.622358 0.117829 0.0970398
0.452033 0.270119 0.19133
0.632424 0.117562 0.0970409
0.458323 0.270276 0.192112
0.642301 0.117831 0.0975469
0.467133 0.270106 0.192257
0.470444 0.269799 0.192145
0.482582 0.269704 0.192039
0.662576 0.117371 0.0974634
0.667689 0.117394 0.0976108
0.502443 0.269509 0.191644
0.677594 0.117429 0.0974859
0.682217 0.1175 0.0973527
0.687169 0.1175 0.0971886
0.172641 0.153502 0.119533
0.697609 0.11776 0.0971708
0.167614 0.153914 0.120004
0.707304 0.117671 0.0973315
0.712532 0.117426 0.0971915
0.717558 0.117911 0.0969015
0.162239 0.153796 0.120095
0.152481 0.154071 0.120427
0.362326 0.278389 0.196081
0.132973 0.12209 0.0991146
0.137333 0.121337 0.0989343
0.147405 0.153505 0.120144
0.147813 0.121573 0.0992161
0.152722 0.121674 0.0994404
0.157396 0.1215 0.0995791
0.142418 0.153969 0.120594
0.167496 0.121321 0.0998983
0.172302 0.121455 0.0999892
0.357072 0.278598 0.19632
0.132473 0.154002 0.120689
0.721862 0.151789 0.116758
0.192344 0.121571 0.0996813
0.197771 0.121539 0.099647
0.66138 0.148928 0.118139
0.347355 0.27824 0.196173
0.342402 0.278443 0.196379
0.337654 0.278824 0.196728
0.511478 0.270072 0.191394
0.327913 0.278076 0.196218
0.322589 0.278178 0.195983
0.317582 0.278306 0.195849
0.488882 0.149803 0.117533
0.307688 0.278536 0.195862
0.302529 0.279164 0.196212
0.297466 0.278754 0.1961
0.292299 0.278098 0.195754
0.662153 0.145649 0.116152
0.282838 0.278272 0.196417
0.277717 0.2781 0.196587
0.273014 0.278023 0.196488
0.518595 0.269458 0.190608
0.262263 0.278195 0.196763
0.713877 0.162518 0.123941
0.702971 0.162507 0.124235
0.617088 0.267505 0.190905
0.405028 0.274066 0.193024
0.257611 0.278025 0.196694
0.321912 0.12106 0.0987201
0.48214 0.273147 0.194064
0.523 0.273631 0.193523
0.52551 0.275616 0.194925
0.247091 0.277787 0.196702
0.725873 0.14985 0.114097
0.721889 0.14925 0.115166
0.712254 0.148517 0.116026
0.707349 0.148818 0.116431
0.366677 0.120644 0.0995161
0.373199 0.121621 0.0996478
0.702468 0.148598 0.116417
0.38225 0.121539 0.0992937
0.237564 0.278145 0.197139
0.23271 0.278065 0.196979
0.227465 0.277848 0.196361
0.697276 0.148664 0.116516
0.217714 0.278313 0.195956
0.212529 0.278226 0.195677
0.417274 0.121183 0.0991402
0.687153 0.148324 0.116705
0.427219 0.121266 0.099089
0.68253 0.148083 0.116855
0.197465 0.278342 0.196415
0.443543 0.121399 0.0991674
0.672369 0.147996 0.117386
0.452185 0.121989 0.0987032
0.457629 0.121654 0.0983004
0.667468 0.147864 0.117537
0.467075 0.12197 0.098725
0.657556 0.1478 0.117392
0.477762 0.120788 0.0992081
0.64725 0.147928 0.117131
0.642459 0.147955 0.117003
0.562486 0.14825 0.116045
0.497471 0.121231 0.0987623
0.502943 0.121458 0.0982718
0.557499 0.148222 0.115861
0.512502 0.121894 0.0983135
0.517702 0.121755 0.0982901
0.522674 0.121681 0.0985355
0.552863 0.148327 0.115899
0.532234 0.121485 0.0985405
0.537016 0.121265 0.0983372
0.542771 0.121127 0.0982674
0.547332 0.148521 0.116043
0.537553 0.148274 0.115833
0.557238 0.121646 0.0991478
0.562403 0.121306 0.0990065
0.567567 0.121097 0.0988485
0.532533 0.148385 0.115981
0.577848 0.121371 0.099182
0.58271 0.121667 0.099435
0.58773 0.121693 0.0996042
0.507639 0.148196 0.115946
0.597497 0.121376 0.0997065
0.602467 0.120903 0.0995225
0.607577 0.12111 0.09962
0.497629 0.14798 0.116122
0.617567 0.12117 0.0995017
0.622549 0.121251 0.0993932
0.627422 0.121297 0.0994307
0.492594 0.148242 0.116442
0.477554 0.147999 0.116287
0.642269 0.121291 0.0999327
0.142952 0.277934 0.197458
0.472722 0.148361 0.115936
0.467537 0.148641 0.115426
0.662372 0.120597 0.0996251
0.66749 0.121271 0.100169
0.132592 0.277915 0.196196
0.462569 0.148742 0.115153
0.683091 0.120869 0.099495
