0.50278400000000001 0.24290100000000001 0.17678099999999999 -0.12667497583525758 -0.63592037380953292 0.76128754664126841
0.50380899999999995 0.24397099999999999 0.177902 -0.10792355473369689 -0.66304578048778462 0.74075825969811993
0.479763 0.21585599999999999 0.158387 0.0085381193212856529 -0.55546328811589529 0.83149722553592076
0.28655399999999998 0.11826100000000001 0.096523499999999998 -0.029029816818021206 -0.50828187775360978 0.86070134337223869
0.50517299999999998 0.24332100000000001 0.17749300000000001 -0.010892980410169876 -0.70098820759857239 0.71308966882540459
0.50625699999999996 0.24443500000000001 0.17855799999999999 0.03072267436642703 -0.68044995637291572 0.73215024015011543
0.47797499999999998 0.21126600000000001 0.154863 0.034003330167450885 -0.5994460106331877 0.7996925996115507
0.48036400000000001 0.21371299999999999 0.156857 0.021638537330751075 -0.62036321488762625 0.78401610654148846
0.48119099999999998 0.21476500000000001 0.15757399999999999 0.037850234521297654 -0.59743170459989137 0.80102604082860573
0.49676700000000001 0.23203299999999999 0.167964 -0.042973868557129272 -0.52881129308979857 0.84765079066908799
0.50535399999999997 0.24121799999999999 0.17557600000000001 0.06823103971551929 -0.67824854224290398 0.73165800765433797
0.50635399999999997 0.24252499999999999 0.17654400000000001 0.068802142712998754 -0.70261245201044598 0.70823866559089321
0.50777000000000005 0.24404999999999999 0.17791399999999999 0.10023864349533168 -0.69330475825987781 0.71363907300849816
0.50901399999999997 0.24521599999999999 0.178897 0.086308079682820976 -0.66533179393877306 0.74154198758780865
0.28864000000000001 0.11226 0.092694200000000004 -0.1022855604095976 -0.51136839698768921 0.85325261599009217
0.46522799999999997 0.12377199999999999 0.10093199999999999 0.025353537450521255 0.49676419604301653 -0.86751514780347228
0.29292899999999999 0.109371 0.091650700000000002 -0.080183054619899538 -0.48560391913987172 0.87049383195277086
0.48447899999999999 0.215334 0.15764900000000001 0.021848366866154517 -0.57617549654053701 0.8170339320074459
0.49698799999999999 0.229993 0.166599 -0.022572345475151863 0.52631886532166605 -0.84998761239577147
0.21667800000000001 0.18704799999999999 0.13947499999999999 0.019022308786140796 -0.49936368393596742 0.86618361964097679
0.48456700000000003 0.213361 0.156134 0.05059525398314979 -0.64578162772231351 0.76184395355656676
0.48690600000000001 0.21566099999999999 0.15757099999999999 0.066212897589600375 -0.57494888143797573 0.81550575468601672
0.46429700000000002 0.18779699999999999 0.140656 0.017407410699760661 -0.50239558062182299 0.86446264385709071
0.216805 0.180671 0.13561100000000001 0.038784869179255728 -0.48484142504639055 0.87374168178113909
0.24618300000000001 0.15124299999999999 0.11815299999999999 -0.024181058196879088 -0.52302185114469646 0.85197618490756777
0.50792899999999996 0.187107 0.14014599999999999 0.027219839791283493 -0.53720185614443672 0.84301438070575585
0.27850999999999998 0.12479700000000001 0.099869100000000002 -0.021737753048292632 0.49862721022383977 -0.86654392578610928
0.499135 0.22403500000000001 0.16315299999999999 -0.037616365782754985 -0.44452185524278398 0.89497783728805924
0.44118499999999999 0.15834300000000001 0.121001 0.12789585581048679 -0.5370437257276186 0.83380254660387143
0.44239200000000001 0.15975700000000001 0.121727 0.086536793060073017 -0.54242644268115559 0.83563445221409161
0.267517 0.129028 0.102704 0.12150318756169562 -0.5716258279393035 0.81146835319995869
0.46978300000000001 0.18854199999999999 0.140963 0.0064393949512518145 -0.52568776963708785 0.85065322138145438
0.34173300000000001 0.12775 0.102989 0.11900921488539483 0.44474051792023522 -0.88771767949748703
0.47107300000000002 0.18993399999999999 0.14176800000000001 -0.0045413790741270863 0.52489154581078068 -0.85115700138838901
0.48007699999999998 0.18892300000000001 0.14097299999999999 -0.028842697043954129 0.54000479927397105 -0.84116759066687086
0.44872200000000001 0.17141899999999999 0.12921199999999999 -0.065144339864857917 -0.49583812190582288 0.86596811248941374
0.27055200000000001 0.12620100000000001 0.100948 -0.087130636581460266 0.47829633636877505 -0.87386547407774195
0.494199 0.21569199999999999 0.15787499999999999 -0.11767686746250433 -0.58010479310352914 0.80599664011863204
0.273646 0.12452299999999999 0.099831900000000001 0.095028374207861394 -0.46823427458629607 0.87847952292472686
0.28203499999999998 0.11816599999999999 0.096377199999999996 -0.059985863332795736 -0.53421305935809771 0.84321889412624096
0.453065 0.16774 0.12703300000000001 -0.0084261707577525449 -0.6032339950689779 0.79751974699030614
0.28539799999999999 0.11677 0.095547199999999999 -0.050627493752768732 -0.52152209691152662 0.85173444177708213
0.27097500000000002 0.12467 0.099976599999999999 -0.11027363859459569 0.46212536031293755 -0.87993174507273386
0.28462799999999999 0.115552 0.094691899999999996 0.005737545801945106 -0.50879174576957875 0.86087051291405881
0.28657199999999999 0.112664 0.092861100000000002 -0.016795561907769048 -0.47147040309873373 0.8817219335494153
0.28752899999999998 0.11028 0.091470999999999997 0.044648910470408809 0.43802800000795089 -0.89785185080994301
0.50173900000000005 0.19128100000000001 0.143072 -0.00062280495322779381 -0.52666328916436389 0.850073756776766
0.49826500000000001 0.21657499999999999 0.15926199999999999 -0.11854772384713587 -0.54670939268516217 0.8288879762190331
0.499195 0.21777099999999999 0.16016900000000001 -0.080354693250181825 -0.51463252934519665 0.85363720807637866
0.505745 0.190696 0.14260900000000001 -0.038256800510153129 0.5469813349844026 -0.83627019341442943
0.52123299999999995 0.241589 0.17618700000000001 -0.075292142626871589 -0.58350753824331769 0.80860994680493403
0.20663200000000001 0.189584 0.14183599999999999 0.30258512178179808 -0.55047248334104348 0.77808886970617874
0.45427200000000001 0.16709499999999999 0.12659500000000001 -0.0073535436341050833 -0.62091901635864333 0.78384022639836282
0.50077199999999999 0.193328 0.144262 -0.012692101733968073 -0.52748166315548928 0.84947160375629627
0.20766299999999999 0.187224 0.13971500000000001 0.20022634567293698 -0.53495843635764184 0.82080989386596004
0.50350099999999998 0.21986700000000001 0.16130800000000001 0.047158798161066585 -0.45441762463199298 0.8895395832563161
0.52249699999999999 0.24096600000000001 0.17589299999999999 0.032575013473519668 0.60551124331305894 -0.79516979489834361
0.49658400000000003 0.19681100000000001 0.14643300000000001 -0.0028211761072077079 -0.57408331971447768 0.81879202670212692
0.207042 0.18329400000000001 0.137596 -0.15910228501329216 0.50352891955869383 -0.84920262015116488
0.20879800000000001 0.18274299999999999 0.13716200000000001 0.07653267735953731 -0.48354730107628263 0.8719660296812165
0.21360599999999999 0.18004300000000001 0.135436 0.0089481276532645156 -0.50097171319960909 0.86541739847622079
0.45250699999999999 0.161689 0.122947 -0.074491853006273007 -0.47543620043097778 0.87659077291256438
0.45957700000000001 0.16966000000000001 0.12835299999999999 0.04497221657722985 0.56048058258858746 -0.82694559450866456
0.24451400000000001 0.15454799999999999 0.120321 0.063642575180053645 0.50112703066839459 -0.86303031334822133
0.24407899999999999 0.152197 0.118705 -0.042081057201344127 -0.51636688778098461 0.85533293040090408
0.493118 0.198542 0.14779999999999999 0.014172350206058204 -0.56416747501926445 0.82553873599003469
0.52361500000000005 0.24002899999999999 0.17516200000000001 0.025182404321373364 -0.63417800491231546 0.77277687892303681
0.438197 0.14158399999999999 0.112244 -0.067702612345434079 0.55074120494307099 -0.83192576679620778
0.26979599999999998 0.123376 0.099612000000000006 0.12628963078055325 -0.4489828426008593 0.88457070729668841
0.27381100000000003 0.121724 0.098307800000000001 0.12881501348314561 -0.5000194272633649 0.85638032710972145
0.282304 0.116309 0.095217200000000002 -0.0017222332087723662 -0.49954379041282643 0.86628692439212129
0.270505 0.121131 0.098471799999999998 0.14881474119374324 -0.46824705911459252 0.87097581162393645
0.28275899999999998 0.11340500000000001 0.093483399999999994 -0.0017794521205516216 -0.46252317678889282 0.88660540517372266
0.28480299999999997 0.11300200000000001 0.093126799999999996 0.065752766082880235 -0.45893242560983605 0.88603476369515111
0.28205400000000003 0.112501 0.093092300000000003 0.044885932414803868 -0.42659137085914484 0.90332998144629806
0.28382099999999999 0.111927 0.092551800000000004 -0.0027264414742610744 0.46468159762326777 -0.88547364689592822
0.47475699999999998 0.18331700000000001 0.137293 0.021383114398750916 -0.55656864422367847 0.83052640336453287
0.48095399999999999 0.21384700000000001 0.15679000000000001 0.024260555622682107 -0.61396219820017994 0.78896251154416808
0.44291999999999998 0.180256 0.13625000000000001 0.074977367216426921 -0.55911571034032481 0.82569244689286525
0.428398 0.12951299999999999 0.104772 0.041638650241451448 -0.5250817849374998 0.85003255345481854
0.43109799999999998 0.132326 0.10630100000000001 0.050260364545525606 -0.52264219839903603 0.85106934394817302
0.432367 0.133662 0.10714799999999999 0.049090166834692313 -0.52973263505783352 0.84674287175908747
0.43576500000000001 0.13775699999999999 0.109596 -0.00099538228449246209 -0.57361288033507307 0.81912591994626138
0.44846000000000003 0.165019 0.124851 -0.016721863878132966 -0.5970778744043963 0.80200897199792576
0.52123900000000001 0.23153599999999999 0.16795499999999999 -0.0052928180358520959 -0.61331245838940474 0.78982264747320585
0.47498899999999999 0.180948 0.13566900000000001 0.041786629465099707 -0.51959853704373637 0.85338809336664367
0.47632200000000002 0.18233099999999999 0.13655 0.053550930547976078 -0.54911051354994844 0.83403233854950565
0.41413800000000001 0.111529 0.093236799999999995 -0.13958671527365454 -0.56039943949457482 0.81637492436580772
0.414937 0.112331 0.093985299999999994 -0.095820973650532354 -0.52386569740415523 0.84639415882431634
0.41749599999999998 0.114884 0.095943799999999996 -0.12221002546163187 -0.51578747384322032 0.84795518248495683
0.42247800000000002 0.12031699999999999 0.099229600000000001 0.080545026768079619 -0.52629713112201404 0.8464773053281861
0.42375699999999999 0.12170300000000001 0.099987300000000001 0.054437283373007406 -0.53612596057162876 0.8423808738214057
0.22714200000000001 0.16061300000000001 0.124197 -0.030547994449433718 -0.55513688795725391 0.83119784387608531
0.23424500000000001 0.156086 0.12137299999999999 0.0073364209906660567 -0.6068015828404153 0.79481948641777433
0.43407699999999999 0.132719 0.10636900000000001 0.051803333469207132 -0.51808189784656933 0.85376083405434755
0.43871100000000002 0.13806199999999999 0.109842 -0.0025160775105372395 -0.55470558535136916 0.83204289729193437
0.44181900000000002 0.14219000000000001 0.112182 0.087814695419787175 -0.50270441453566284 0.85998654110089812
0.44726900000000003 0.147892 0.11508 -0.023094343746092753 0.52561765950263606 -0.85040738902358359
0.22654099999999999 0.159881 0.12357 0.012124905668861805 0.54885867711857483 -0.83582721851718211
0.474192 0.177064 0.133468 0.0054652034741359823 -0.4877206656035008 0.87298263665107612
0.475408 0.17852199999999999 0.13416800000000001 0.031703588010577863 -0.47721636824301061 0.87821376690883546
0.47789900000000002 0.18138199999999999 0.13577700000000001 -0.0056524032747451314 -0.52225005340077568 0.85277366989143499
0.41536800000000001 0.109948 0.0924204 -0.15517339142655803 -0.61922644124389581 0.76972711596876997
0.416738 0.11114 0.093523899999999993 -0.14333494424094448 -0.54657808017642873 0.82504999607908325
0.41933799999999999 0.113747 0.095462699999999998 -0.058588506962543953 -0.51858822596114285 0.85301444228475676
0.42425000000000002 0.119422 0.098351499999999994 0.11056571352609398 -0.55177789694902013 0.82662952731618666
0.42549900000000002 0.120796 0.099134200000000006 0.051046525844838049 -0.57094139586725901 0.81940232772693389
0.436886 0.133136 0.106418 0.012060290168723172 -0.52848072252241485 0.84885963228512218
0.438112 0.13445399999999999 0.107317 -0.023399033645538667 -0.55704975900773013 0.83014941499340011
0.52238399999999996 0.232541 0.16903699999999999 0.014285844468312433 -0.64546653103818796 0.76365494299281211
0.44748100000000002 0.14552300000000001 0.113506 0.031453818541633247 -0.54469069902014722 0.83804695554610376
0.416964 0.10888299999999999 0.091925599999999996 -0.16205348314558579 -0.65726962895962104 0.73602670022742056
0.29279500000000003 0.202741 0.149146 -0.070321109290578401 -0.60173661004652679 0.79559285675391589
0.41837299999999999 0.10999299999999999 0.092989699999999995 -0.090742710151470965 -0.58416635741676592 0.80654536600044591
0.294686 0.203684 0.150006 -0.075251243055822079 -0.58068762467239365 0.81064118632776538
0.42114600000000002 0.11268400000000001 0.094794000000000003 0.018132517493341296 -0.51217088329627891 0.85869214396829285
0.42601 0.118545 0.097441799999999995 0.10083632406077878 -0.55388213048654322 0.82646634612523584
0.43360199999999999 0.12637599999999999 0.102934 0.014265488335646417 -0.48172107454255247 0.87620848100444348
0.278951 0.11630500000000001 0.095324500000000006 0.015538250198041784 -0.43611961754995116 0.89975454540050415
0.44989400000000002 0.14497499999999999 0.11314 -0.0039438904670436228 -0.56034347620849945 0.82825094892704987
0.41850399999999999 0.10796 0.091342999999999994 -0.11230613811292667 -0.70243351693587219 0.70283318477947676
0.42269099999999998 0.111709 0.094082600000000002 0.06055633756958826 -0.51591847399872515 0.85449462149681499
0.42607400000000001 0.11648 0.096194199999999994 -0.10607417343713305 0.47575678002265664 -0.87315734893093733
0.42848599999999998 0.119339 0.097631499999999996 0.03154792527477282 -0.59939900010215075 0.79982846103861505
0.26948 0.119226 0.097726999999999994 0.16954466509878455 -0.47747761192248767 0.86213092778843003
0.42862699999999998 0.11025699999999999 0.092586299999999996 0.032363708755352737 -0.54364208156156935 0.83869295782843145
0.42880299999999999 0.108303 0.090972200000000003 0.043852470610064094 -0.73596243726985044 0.67560065996801333
0.42919000000000002 0.109275 0.091801400000000005 0.0091696442992493243 -0.61367207834776616 0.78950775669385209
0.27896599999999999 0.114854 0.094563999999999995 0.049326863316914174 -0.46991149144342759 0.88133424463408205
0.298595 0.20066800000000001 0.14774100000000001 -0.049227431549070888 -0.63822110320765113 0.76827760829239966
0.47340100000000002 0.23438300000000001 0.168903 0.045443363108315912 -0.46308084657310905 0.88515028683638697
0.278974 0.112414 0.093341599999999997 0.044760254124813846 -0.46238500253586612 0.88554877284121924
0.47005200000000003 0.22711400000000001 0.164801 -0.037036715297805431 -0.44942336287752693 0.89255079554040173
0.47495500000000002 0.232983 0.16814399999999999 0.030920710827926939 -0.43606069029940203 0.89938589271652725
0.47621400000000003 0.23447499999999999 0.16885500000000001 0.04759403696854092 -0.40586668072706644 0.91269219626368614
0.42258699999999999 0.107886 0.091259099999999996 0.074338398478253118 -0.72545782289944949 0.68424027191161396
0.42044500000000001 0.107724 0.091228600000000007 -0.00070515642877189144 -0.73314671398730435 0.68007014235594021
0.425537 0.11065999999999999 0.092975100000000005 0.075707511870635721 -0.51478208817016691 0.8539717643725232
0.47232000000000002 0.22772100000000001 0.16525100000000001 -0.018007291004857366 -0.4824083467218605 0.87576133991159222
0.47353899999999999 0.22905600000000001 0.166016 -0.021153188837224671 -0.48840507891879886 0.87236060289787165
0.47478799999999999 0.23042099999999999 0.166851 -0.00056057320364035932 0.47645036919542144 -0.87920118940503589
0.43351000000000001 0.19175600000000001 0.142429 0.0029827230510673895 -0.51127559541683565 0.85941164112104096
0.47738799999999998 0.23300299999999999 0.16803799999999999 0.10008263627201243 -0.43876501395266226 0.89301104609515525
0.47149999999999997 0.22387699999999999 0.16323799999999999 0.026997769809116754 -0.43874046112278314 0.89820817642632333
0.47279199999999999 0.22533900000000001 0.16390199999999999 0.021836459498971349 -0.46915312097230671 0.88284682596614361
0.47516199999999997 0.22804099999999999 0.16542799999999999 0.025051890617075627 -0.50368197589574848 0.86352583628647994
0.47653899999999999 0.22945399999999999 0.16626099999999999 0.069569706628280062 -0.49023761160855966 0.86880788445086654
0.47753400000000001 0.230439 0.16677800000000001 0.11567726860210707 -0.47315080486729272 0.87335392904720444
0.47912199999999999 0.232046 0.16733400000000001 0.16687220070314945 -0.44916699471280347 0.87772585668485115
0.48055300000000001 0.23366300000000001 0.167821 0.13082364833456528 -0.5162338774673334 0.84639692626537566
0.232989 0.15277399999999999 0.11873499999999999 -0.040687309607126229 -0.57815863354577324 0.81490928163410836
0.41786299999999998 0.108242 0.091535400000000003 -0.13729326817360499 -0.68816761068921073 0.71244361047911253
0.47312799999999999 0.22281699999999999 0.16264400000000001 0.055739375808087202 -0.43971234391065084 0.89640737201181386
0.47449000000000002 0.224329 0.16326499999999999 0.05070631885970639 -0.46926362138557176 0.88160111324328361
0.47570699999999999 0.22570100000000001 0.16400200000000001 0.053099265701985324 -0.4945564217114326 0.86752199610493674
0.47694300000000001 0.227079 0.164769 -0.087917361508385888 0.51151844512241129 -0.85476278454607191
0.47930299999999998 0.22953899999999999 0.165991 0.19382667163735953 -0.49583492395745032 0.84650986382090831
0.48069200000000001 0.23121 0.16641600000000001 0.25687085407816818 -0.46252762871155295 0.84857855087411949
0.43162600000000001 0.19411800000000001 0.14374899999999999 -0.064024409461998735 -0.50630740610694291 0.85997307255186861
0.47214600000000001 0.218803 0.160659 0.027376314308321329 -0.53702954035794503 0.84311909609368141
0.47323199999999999 0.220248 0.16140199999999999 0.062209021744696003 -0.47689742831898124 0.87675474362920314
0.47606199999999999 0.223269 0.16266800000000001 0.058953981239657019 -0.46663741270659659 0.88248170131651338
0.47722999999999999 0.22470399999999999 0.16330700000000001 -0.079261051155476464 0.48442370490874348 -0.87123553640345486
0.47843200000000002 0.22611899999999999 0.164018 -0.15813527816080419 0.47571271750894317 -0.86526911663439243
0.47976999999999997 0.22767100000000001 0.16459699999999999 0.19762901339811337 -0.48254190027615174 0.85328546661780724
0.24007200000000001 0.135326 0.10853599999999999 0.13698952286043789 -0.60865173447569898 0.78152219210089813
0.273675 0.11537600000000001 0.094065300000000004 0.041394868697298699 -0.53588762848803884 0.8432739261230594
0.27733999999999998 0.114621 0.094493499999999994 -0.01879371495952634 -0.45584980934930103 0.88985827388086114
0.43559199999999998 0.121904 0.099869600000000003 -0.0046137779450826626 -0.60668094362934388 0.79493203840962556
0.47976000000000002 0.22511 0.16320499999999999 0.15601588139234501 -0.42161662142555767 0.8932516270855978
0.481101 0.226746 0.16361600000000001 0.16086626471848103 -0.43679238861728664 0.88506183632643898
0.498863 0.24479500000000001 0.17713499999999999 -0.26321124470551271 -0.54759114642769424 0.7942693353104967
0.452351 0.12873999999999999 0.10503899999999999 0.11855422644433666 -0.6556450058645279 0.74570404429444292
0.46795100000000001 0.20952299999999999 0.153141 -0.088943723943691919 -0.59653126406799306 0.79764620287472721
0.474275 0.21532899999999999 0.15793299999999999 0.0019163224792095889 -0.62545033615262535 0.78026162581196024
0.47553699999999999 0.21663399999999999 0.158916 0.025357071614355253 -0.57721854018209939 0.81619591752788812
0.476746 0.217976 0.159801 -0.041835131516330608 0.51657772806642277 -0.85521767558718287
0.47770600000000002 0.21934600000000001 0.160496 -0.058596376796867321 0.48563721152936057 -0.87219433809459379
0.41295900000000002 0.23405100000000001 0.168158 -0.059045728208340628 -0.58964635743940397 0.80550032597062915
0.47896 0.221191 0.16128899999999999 0.070277452174815874 -0.45919940744354432 0.88554897319081927
0.48123100000000002 0.22415199999999999 0.16237099999999999 0.11176531218636947 -0.40701649927559247 0.90655727028650823
0.27503499999999997 0.111209 0.093056899999999998 0.019558424121044735 -0.34812402542390247 0.93724443501605226
0.50124299999999999 0.244338 0.177591 -0.22822395883453972 -0.60141761485189449 0.76564396240011501
0.47836099999999998 0.21687999999999999 0.15910199999999999 -0.026719151482534634 0.53067485468036102 -0.84715422772599758
0.46847100000000003 0.207205 0.15162700000000001 0.15094523753011377 0.55494418781543564 -0.818078531485116
0.469694 0.20843500000000001 0.15267 -0.085745666068828205 -0.54022385409173301 0.83714148638129671
0.47925000000000001 0.218357 0.159805 0.047050664211414094 -0.48488001107359829 0.8733141530162738
0.48048000000000002 0.22015599999999999 0.16062699999999999 0.082028219788922344 -0.45838395578115854 0.88496074502809285
0.48147299999999998 0.221585 0.16114899999999999 0.078991463427202355 -0.46105041846819578 0.88385115281699445
0.50448300000000001 0.24462100000000001 0.17866399999999999 -0.075216164366309082 -0.66218778973215886 0.74555339161434886
0.23808199999999999 0.13203400000000001 0.106168 0.11845398386437649 -0.63333555099847993 0.76475795749250586
0.26712599999999997 0.113105 0.094596700000000006 0.13365334164632703 -0.54322700281119796 0.82887948924046406
0.27348699999999998 0.113347 0.093338699999999997 0.021572530983870571 -0.37396697490373432 0.92719109550744705
0.271733 0.11057699999999999 0.092776499999999998 0.02342489261923901 0.36193917015496452 -0.93190735135705027
0.48071399999999997 0.2167 0.15889300000000001 -0.028369306882737953 0.5161078781938353 -0.85605364346707313
0.48208499999999999 0.21917200000000001 0.15998000000000001 0.059487933489008681 -0.44951111576707325 0.89129172697330072
0.48313 0.220636 0.16048299999999999 0.066749168998330374 -0.43476741172632455 0.8980656134931484
0.227543 0.152839 0.118689 -0.10535967083649081 0.59836184747701049 -0.79426849317162573
0.26177800000000001 0.119754 0.098060400000000006 0.050291432980645041 -0.52760289635450019 0.84800115302226797
0.26312600000000003 0.117174 0.0960868 0.019413759451769562 -0.42085063826794317 0.90692218310801853
0.23677400000000001 0.13037099999999999 0.104992 0.094752075568074204 -0.5921636437581852 0.80022763210637193
0.26435999999999998 0.11290600000000001 0.094658000000000006 0.10747501832851744 -0.55774353373634933 0.82302568065071591
0.45434799999999997 0.18603700000000001 0.13894100000000001 -0.15093115434541501 -0.4636862465897702 0.87304916893119555
0.45904600000000001 0.190938 0.142176 0.062282306359006216 0.43022652428928532 -0.90056984854733169
0.460447 0.192361 0.14299100000000001 -0.064775249150772041 -0.4406671937896674 0.89533043699798065
0.48258099999999998 0.21641199999999999 0.15854599999999999 0.027400179721022391 -0.51292973444504075 0.85799319209035418
0.48348999999999998 0.21776499999999999 0.159189 -0.052250101117585518 0.46157988511518594 -0.88555854498178355
0.48461399999999999 0.21921599999999999 0.159715 -0.053882624373140953 0.42917471049514977 -0.90161284965447741
0.226378 0.150062 0.11658399999999999 0.096333482548505892 -0.5882411716180892 0.80292725956555633
0.258689 0.117397 0.097067200000000006 0.090818808777993559 -0.45767067698361857 0.88447130841056831
0.24158399999999999 0.121227 0.099274600000000005 -0.27884603770012656 0.34053244242792785 -0.89793237101298973
0.26128400000000002 0.107862 0.091170899999999999 0.090478461053176196 -0.64822648678866435 0.75605295443578169
0.44724599999999998 0.175478 0.13180900000000001 -0.0014472795202496143 -0.61082694574613061 0.79176281027366036
0.404613 0.23963599999999999 0.17144100000000001 -0.051101464362899966 -0.6941008384409475 0.718061742760009
0.26319199999999998 0.10994900000000001 0.090991000000000002 -0.033648758410584914 0.64567697795581114 -0.76286892792620475
0.45473200000000003 0.18360899999999999 0.137603 -0.11682996410397069 -0.50487439652388066 0.85525002380713944
0.45982499999999998 0.18846199999999999 0.14105200000000001 -0.046216758296512367 -0.45839522647186315 0.88754595802153857
0.25863599999999998 0.10857799999999999 0.091650499999999996 0.088067609063281593 -0.73259745423249489 0.67494078724429207
0.47192400000000001 0.202322 0.148672 0.061238892883231984 0.56527085033544999 -0.82262911677102268
0.48400700000000002 0.21626999999999999 0.15831100000000001 -0.042399160008242467 0.52230321868539986 -0.85170514791297736
0.22278000000000001 0.145707 0.113663 0.035287171945028027 -0.57291653334552339 0.81885374842853964
0.222326 0.14217199999999999 0.11181000000000001 0.029559167131571223 0.46369751030518136 -0.88550035266806304
0.43682100000000001 0.161019 0.12367 0.15145179538174197 -0.51768505083122918 0.84205970205295688
0.22373799999999999 0.14153099999999999 0.111688 -0.088642436108466616 -0.43038847535366892 0.89828073496179406
0.24504400000000001 0.121795 0.097707500000000003 -0.039692188441722523 -0.37141126617040199 0.92761964270837083
0.24401400000000001 0.11994 0.097414799999999996 -0.11698248556816035 0.18957839023438994 -0.97487185415644872
0.44658799999999998 0.12889600000000001 0.10441 0.093225412019035503 0.61389913249807404 -0.78386024116037012
0.31361 0.185423 0.13917499999999999 0.0037285865546775781 -0.6015994542246722 0.79878920518424701
0.47381299999999998 0.22070200000000001 0.16158800000000001 0.073793750663223828 -0.46997210736242934 0.8795912122482642
0.31290000000000001 0.18876899999999999 0.14116600000000001 -0.0069776724362373629 -0.44998473889715868 0.89300898475156931
0.45038899999999998 0.17624300000000001 0.132331 0.016660986833518347 0.58489276331538609 -0.81093949647247099
0.45631899999999997 0.18255099999999999 0.13711200000000001 -0.088134181308910764 -0.51897395727526063 0.85023431932324656
0.47250300000000001 0.223772 0.163128 0.044240089153839424 -0.44133952946536686 0.89624898005127418
0.48240699999999997 0.21987599999999999 0.16062799999999999 0.060193153467192534 -0.43661509149083472 0.89763246719251699
0.44149899999999997 0.13256699999999999 0.106354 -0.11037631108563145 -0.53318527294041429 0.8387672708627727
0.45041300000000001 0.17349300000000001 0.13044900000000001 0.060173510197711555 0.52007845032799194 -0.85199621723040553
0.45417600000000002 0.177815 0.13354099999999999 -0.047947010958889674 -0.57078275153111857 0.81970002726282365
0.455289 0.17907000000000001 0.134522 -0.080236311062424528 -0.58618970591018427 0.80619089741327765
0.47489100000000001 0.20020399999999999 0.14746799999999999 -0.014821522966687532 -0.50544330896002854 0.86273251004264617
0.47621599999999997 0.223748 0.16292899999999999 0.062634365364375846 -0.47377629513733199 0.87841502630666879
0.49341099999999999 0.220582 0.16109299999999999 -0.11724151038778714 -0.53035540540297976 0.83962942552165931
0.49692599999999998 0.224077 0.163161 -0.0080654047692490741 -0.44635098595501971 0.89482162836114454
0.42624600000000001 0.14371200000000001 0.113944 0.090243836667213626 -0.54821053018050503 0.83145731372259335
0.44903399999999999 0.13827500000000001 0.110111 0.020591065397372467 -0.36864143397493881 0.92934358618473389
0.467362 0.115634 0.096051200000000003 -0.10516009874428635 -0.65330841276560569 0.7497529402688442
0.47367199999999998 0.226829 0.16470199999999999 0.0052071566340680569 -0.49315659221128322 0.86992497439626504
0.43759799999999999 0.155997 0.120254 0.12176617123530305 -0.53794051251288422 0.83414207695096532
0.45455200000000001 0.175515 0.13192799999999999 -0.033532057980734283 -0.54059081238264184 0.84061713916327674
0.456702 0.17809 0.13383500000000001 -0.012576647916091843 -0.61246825062442012 0.79039513529895722
0.46034199999999997 0.181891 0.13669799999999999 0.029803934785822425 -0.58270805903076384 0.81213486774788946
0.45036900000000002 0.14216999999999999 0.111806 0.011938885303215383 -0.42393269520624832 0.90561500261031602
0.472854 0.22844300000000001 0.16573299999999999 -0.022577040002858512 -0.48617648431055521 0.8735689459728625
0.470968 0.229604 0.166181 0.054002819938359099 0.47407654741913952 -0.87882599109599246
0.45935399999999998 0.239263 0.172786 -0.012064657182289641 -0.52088966217086885 0.85353875359622189
0.49712400000000001 0.221577 0.16198399999999999 -0.045490577084877783 -0.45193337969515157 0.89089103021290017
0.42327999999999999 0.13722500000000001 0.110206 0.10542656563095988 -0.50011324624601083 0.8595184583175266
0.43786599999999998 0.153696 0.11866599999999999 0.084136625730471273 -0.5089355096852507 0.8566829490494744
0.450382 0.14511599999999999 0.11332299999999999 0.011271305389480124 -0.55788493182541943 0.82984176836127277
0.45013999999999998 0.16744000000000001 0.12673200000000001 -0.033163522228124402 -0.58188804421140961 0.81259244692357668
0.45358799999999999 0.17130400000000001 0.12943499999999999 -0.022863681222865428 -0.50351440286027516 0.86368425839145602
0.45479999999999998 0.14774200000000001 0.114577 0.11161024207589325 -0.5148474643932095 0.84998543650561664
0.45722000000000002 0.17578099999999999 0.13222400000000001 -0.03496902479005886 -0.54292848866085464 0.83905054883819252
0.45827400000000001 0.17707400000000001 0.133127 0.0031892316272273315 -0.57069889352762992 0.82115321452696466
0.46327299999999999 0.182283 0.13684499999999999 0.031813672961882623 -0.59673973707390982 0.80180395135571347
0.50410999999999995 0.16850399999999999 0.125947 -0.070257420213152691 -0.55773267674060034 0.82704181043086133
0.58842099999999997 0.23471700000000001 0.16981499999999999 -0.21125714683923094 -0.61724982929400785 0.75787404372089828
0.54144099999999995 0.18556500000000001 0.138682 0.027866586524272152 0.36342482711456453 -0.93120666255790641
0.52061000000000002 0.24412400000000001 0.17782800000000001 -0.10921348274521865 -0.58975818620349851 0.80016104441082359
0.42322599999999999 0.13474 0.108815 0.07243030822322459 -0.51248351096483313 0.85563689812901744
0.434498 0.147282 0.11562500000000001 -0.028972448415794508 0.44846324377726471 -0.89333158245612709
0.46724300000000002 0.15651999999999999 0.12085700000000001 -0.10173229935442253 -0.53515820030945382 0.83860374427354456
0.46669100000000002 0.15825700000000001 0.121821 -0.099555950287130074 -0.50565248520704209 0.85697384847285074
0.52168300000000001 0.24235499999999999 0.17678199999999999 -0.088003448912979357 -0.59133793576568783 0.80160765883554019
0.41142800000000002 0.11952599999999999 0.097969500000000001 -0.047801571547754315 -0.53590919860978092 0.84292131341127419
0.42279099999999997 0.13078000000000001 0.106137 0.081432932728227589 -0.55872113371759413 0.82534803095700571
0.46698499999999998 0.16359099999999999 0.124766 -0.048931338628517292 -0.51672794216972084 0.85475023128459404
0.43105900000000003 0.14088999999999999 0.11156199999999999 -0.031277919354645016 -0.5461818927064257 0.83708245223542377
0.43345800000000001 0.14344199999999999 0.11347 0.015504482082582859 0.54240332128706481 -0.83997514730622369
0.43584699999999998 0.14616599999999999 0.11507299999999999 0.042489353119484041 -0.46764969148713004 0.88289207773287903
0.47454499999999999 0.169319 0.12895300000000001 0.021901292894761736 -0.57692979662747867 0.81650005703178863
0.47495399999999999 0.17478299999999999 0.13247700000000001 0.022491248394386456 -0.48612913205148728 0.87359751070875291
0.42700300000000002 0.13287099999999999 0.107224 0.10482628271623341 -0.55171641058505294 0.82741794320829265
0.44751299999999999 0.16326199999999999 0.123614 0.013300870315114278 0.54878093048025978 -0.83586038139756391
0.43196299999999999 0.13856099999999999 0.110099 0.0044721006477559501 -0.55075658828829388 0.8346539287470196
0.43399700000000002 0.14072000000000001 0.11164499999999999 -0.029739344064580536 -0.56335889646457094 0.82567688909695769
0.488064 0.18202299999999999 0.13744799999999999 0.078276923744491661 0.52268072244875663 -0.8489273146680727
0.56415899999999997 0.13189999999999999 0.104911 -0.035811030394374985 -0.51579995158168412 0.85596026779893575
0.41871399999999998 0.12113500000000001 0.099763299999999999 -0.03671974512462637 -0.49037236702667364 0.87073911246402602
0.426375 0.130471 0.105547 0.079889938793156839 -0.57055537046540905 0.81736415807931373
0.43788199999999999 0.14260999999999999 0.11293499999999999 0.048005368492017718 -0.53636307956760776 0.84262098921917272
0.438971 0.143729 0.11352 0.078912696449490796 -0.51031579052224874 0.85635890856738495
0.45335799999999998 0.147864 0.114855 -0.078623036695358653 0.51750653701831539 -0.85205950628116989
0.44141900000000001 0.14663000000000001 0.11473899999999999 -0.085386666461407495 0.44788212456386145 -0.89000602227556314
0.58510399999999996 0.23460600000000001 0.16870299999999999 -0.20954256415272854 -0.56368607915459901 0.79896803313750542
0.41874 0.11826200000000001 0.098102900000000007 -0.032899340202743058 -0.51040839163138663 0.85930257020823897
0.44067499999999998 0.14280699999999999 0.11272500000000001 0.096195248287157822 -0.51878288132842876 0.84947677793306753
0.44185200000000002 0.14421300000000001 0.11339100000000001 0.11687925107471699 -0.49325263225985222 0.86199830709633063
0.41285899999999998 0.10982599999999999 0.091572600000000004 -0.14593858041764807 -0.70137363165713851 0.69769403004594965
0.54830000000000001 0.146754 0.11526599999999999 -0.0050284904092807742 -0.43845898914935244 0.89873713015449186
0.55148200000000003 0.14757300000000001 0.115575 -0.055344374068766064 0.47328219854156728 -0.87917060961032856
0.543354 0.15226600000000001 0.118216 0.017819447182288069 -0.55573984689473754 0.83116526026749438
0.55577299999999996 0.14718400000000001 0.11528099999999999 -0.0058661754461029249 0.48582953387011191 -0.87403389637083606
0.55038500000000001 0.150148 0.117035 0.022343647188021874 -0.49131531284548341 0.87069513883671279
0.54757 0.151617 0.11787400000000001 0.003314152718527127 -0.51483252581718997 0.85728436749567005
0.46849200000000002 0.23463000000000001 0.169435 0.057540902451686277 -0.65541692495785742 0.75307217384778713
0.52134199999999997 0.227965 0.16537099999999999 0.088304401802286867 -0.52525942667705916 0.84634795876709468
0.46406599999999998 0.113413 0.094198100000000007 0.052517613945604322 -0.52051922224745806 0.85223332456338585
0.51398699999999997 0.22642200000000001 0.165243 -0.02027410635998864 -0.45553238360886139 0.88998831907780296
0.51636499999999996 0.228299 0.166077 0.035732707925967416 -0.44997739496616596 0.8923247825784848
0.58128800000000003 0.24048 0.173263 0.18022317838770568 0.77313713325552769 -0.60809421897700822
0.58338299999999998 0.233982 0.167846 -0.13535966068119354 -0.44514310986833533 0.88516968655564521
0.47117399999999998 0.234794 0.169243 0.11849760973794835 -0.58713849345357494 0.80076632421166383
0.52823600000000004 0.23527200000000001 0.17049300000000001 0.13419567129249099 -0.57144746963944526 0.80959206471471368
0.52649299999999999 0.234294 0.170153 0.098686644617443114 -0.61770991890747351 0.78018933744154206
0.58843100000000004 0.215174 0.15771399999999999 -0.044778358728337762 -0.50972780398914408 0.85916963658523293
0.43439899999999998 0.11891 0.097491400000000006 -0.051302711712491032 -0.58811543150371082 0.80714823359662347
0.44205299999999997 0.17541100000000001 0.13183 0.018291130768586999 -0.65898093497300669 0.75193720607329229
0.43861800000000001 0.12164 0.099640500000000007 0.018452584865095829 -0.56190002455461796 0.82699931349265121
0.55709900000000001 0.14721000000000001 0.115283 -0.017220689551431082 -0.48433990135020799 0.87471041368640601
0.45834599999999998 0.13108800000000001 0.106046 0.0088867535047591484 -0.57740638843839442 0.81640853021185167
0.57954600000000001 0.23846899999999999 0.171348 0.040465727235579743 -0.55253620819500449 0.83250601412409142
0.46682400000000002 0.224602 0.163522 0.10622686916017629 0.43251557230752763 -0.89534693386414088
0.46815000000000001 0.22605 0.164239 -0.053094730831566704 -0.43492347580114699 0.8989007285317846
0.482321 0.24224100000000001 0.17449799999999999 0.050379787389976484 -0.63128181627258351 0.77391546403087774
0.48370800000000003 0.243233 0.175092 0.067589377796934969 -0.57090278938663963 0.8182308238385898
0.45506600000000003 0.13895199999999999 0.11011799999999999 -0.063747081393239688 0.40124674986876702 -0.91374906584553872
0.58960900000000005 0.20758799999999999 0.15354200000000001 -0.13458815421173176 -0.53785405951578702 0.83222535374036
0.44816299999999998 0.198854 0.14613999999999999 0.033149989604790348 -0.60868423492826529 0.79271973631227
0.52476599999999995 0.17094599999999999 0.129968 0.062165693341678083 -0.46253577323992784 0.88441850107553188
0.525536 0.17269699999999999 0.13076399999999999 0.060251940843916864 -0.42083097364354816 0.90513589877253497
0.46765699999999999 0.21987799999999999 0.16125200000000001 0.070149129487242889 0.49197374849691161 -0.86777930974532869
0.57419299999999995 0.24196899999999999 0.17452200000000001 -0.010377339283519971 -0.68874969881030812 0.72492493626451038
0.34143699999999999 0.141315 0.111607 -0.1103575659600247 -0.47829061373793041 0.87124009116062406
0.46969100000000003 0.22226299999999999 0.16256300000000001 -0.015872437180709908 -0.44518305556357879 0.89529889577560628
0.51955799999999996 0.18044099999999999 0.135101 0.087479741592793037 -0.54521690670109491 0.83371806952839145
0.461538 0.21157500000000001 0.15415799999999999 -0.015815458618837059 -0.61114613557640507 0.79135976157415444
0.50386299999999995 0.193247 0.14425499999999999 0.009483797106361146 -0.51412278531624489 0.85766416458373262
0.58876200000000001 0.20658899999999999 0.152645 -0.28365714109363865 -0.61232103876001776 0.73797125404614261
0.46433999999999997 0.21186199999999999 0.154588 -0.085519956885865098 -0.63161542575579999 0.77055064137378981
0.46681600000000001 0.21381800000000001 0.15651000000000001 -0.066027053461100646 -0.64402989009554246 0.76214560870923387
0.50101499999999999 0.196357 0.14616000000000001 -0.022915767636352793 0.54187969038896722 -0.84014360006941302
0.49521500000000002 0.20114599999999999 0.14941499999999999 0.0028385097911034982 -0.50172485174144932 0.8650226101132773
0.49512699999999998 0.20368 0.15068500000000001 -0.030945600637026716 -0.41797166121954327 0.90793285006028335
0.49369099999999999 0.20411099999999999 0.15085999999999999 -0.03606399794063353 -0.39210453043553728 0.91921348187701468
0.49510100000000001 0.207729 0.15246299999999999 -0.08928865673669531 -0.44471841440690846 0.89120876772255875
0.49357800000000002 0.20819099999999999 0.15251600000000001 -0.072560070373647367 -0.45164454890641609 0.88924250777304348
0.58675699999999997 0.207758 0.15304300000000001 -0.16367438029969483 -0.54317293912134357 0.82351311795246607
0.47204299999999999 0.16084999999999999 0.123685 -0.057933063121536663 -0.42693641563159496 0.90242398971049165
0.43998100000000001 0.17643400000000001 0.13284799999999999 0.022753579870650454 -0.67755656782407803 0.73511861083877217
0.47078799999999998 0.16395199999999999 0.12523799999999999 -0.03126474213064738 -0.52799690844321179 0.84867059603471251
0.48263800000000001 0.21810399999999999 0.15961500000000001 0.044761637088410876 -0.45202383615416436 0.89088206143890791
0.48503000000000002 0.21937699999999999 0.15998299999999999 -0.058053298576527891 0.41422616797647177 -0.90832070123272657
0.58503099999999997 0.205627 0.15121000000000001 -0.068751268366841978 0.67815865243827 -0.73169263029024723
0.427842 0.160219 0.123595 -0.057390985589005933 -0.55274128217068386 0.83137437400814285
0.57191400000000003 0.24279400000000001 0.175256 -0.059124298216440468 -0.72426964979451325 0.68697728619434462
0.57184699999999999 0.241644 0.17416300000000001 -0.04543458375990006 -0.65357444276624888 0.75549728415220085
0.43732900000000002 0.171458 0.12937399999999999 0.10038874859372521 -0.50254281536680578 0.85870415037950665
0.48900100000000002 0.17890300000000001 0.13544600000000001 -0.056193321262603076 -0.57433858123243142 0.81668690742131755
0.482545 0.222607 0.161714 0.079025013794532251 -0.42704851194524712 0.90076890246062791
0.41725099999999998 0.145734 0.114881 -0.027374508462339634 -0.4009293056021051 0.91569991165002262
0.47621599999999997 0.22583700000000001 0.16412299999999999 0.058491345871429706 -0.50031610823576711 0.86386489354410301
0.57026900000000003 0.241008 0.17344100000000001 -0.063529054268673835 -0.60682159258914925 0.79229515588024191
0.48194999999999999 0.17801400000000001 0.13425200000000001 -0.059592014055719324 -0.52467696288720334 0.84921309250166632
0.59001300000000001 0.194217 0.145123 -0.037918940861572659 -0.46260348908230542 0.88575400976389251
0.47706199999999999 0.227356 0.165072 -0.091758664066219311 0.51633568167958077 -0.85145628859810851
0.42982799999999999 0.15651100000000001 0.121096 -0.024992893717423876 -0.56836110342775159 0.82239954485275479
0.47506500000000002 0.22881299999999999 0.16594200000000001 0.016307670346735741 -0.50460308592805958 0.86319741980600306
0.58729500000000001 0.19744999999999999 0.14648600000000001 -0.01687774822423737 -0.41578167230475199 0.90930783708837726
0.51519099999999995 0.20721100000000001 0.15300900000000001 -0.017807368618373426 -0.54417855969812412 0.8387804198881641
0.44047599999999998 0.17363000000000001 0.13042999999999999 -0.042300271543560766 0.59072192148706559 -0.80576565979319936
0.51366599999999996 0.20689399999999999 0.152697 -0.020066522104851003 -0.56653373171246246 0.8237941888133028
0.419404 0.13910800000000001 0.111668 0.067002458558932346 -0.48807740127193955 0.87022475310386826
0.58400099999999999 0.20277100000000001 0.149009 0.13889765632403317 -0.42789108474256299 0.8930938700190052
0.58510099999999998 0.198628 0.14704900000000001 0.019446685179842875 -0.3841830503810395 0.92305211674933929
0.45888299999999999 0.243725 0.17549799999999999 -0.017837299471988997 -0.57424786344810408 0.818487154494702
0.46127099999999999 0.244089 0.17577899999999999 -0.023651640700176411 -0.58261383755488472 0.81240489669976779
0.40870000000000001 0.12528900000000001 0.10158200000000001 -0.071436620506471232 -0.55547857745194451 0.82845661277014293
0.57008599999999998 0.239538 0.17239099999999999 -0.055030098680374603 -0.52512323883404899 0.84924511907674027
0.40018900000000002 0.11249199999999999 0.094281799999999999 0.00052011015454120737 -0.52005729435862247 0.85413121946795523
0.40548699999999999 0.11894 0.097640900000000003 0.037545681558453919 -0.49773140778079883 0.86651818648246237
0.41281899999999999 0.12673999999999999 0.10293099999999999 -0.089996564070129723 -0.55741572641308901 0.82534133932751708
0.41643599999999997 0.13070999999999999 0.10607999999999999 -0.073861054118343192 -0.59859888370299841 0.79763645924321369
0.42139399999999999 0.13570499999999999 0.10952199999999999 0.097131653512993646 -0.51754895707145443 0.85012264933954185
0.45930199999999999 0.17838799999999999 0.13402700000000001 0.0291324218706638 -0.59118651414922718 0.806008565391234
0.46043299999999998 0.179678 0.13495099999999999 0.029560943673666979 -0.58644709623189029 0.8094479315745432
0.39959099999999997 0.110069 0.092736799999999994 -0.0059782436667601222 -0.56800872655930401 0.82300081844135431
0.409271 0.120147 0.098279000000000005 -0.021749970078834984 -0.53267379742279974 0.84604111267759563
0.415746 0.126945 0.10330300000000001 -0.066086706159745448 -0.58056045857092753 0.81153071489184525
0.41895100000000002 0.13075999999999999 0.10627300000000001 0.00025504226351120225 -0.58232812344032192 0.81295380656216698
0.42168699999999998 0.13334499999999999 0.10804900000000001 0.073979888426573881 -0.5510668791595279 0.83117523471393817
0.53438600000000003 0.232956 0.168931 -0.086742025995617117 -0.45051221556830118 0.8885463209928427
0.525092 0.22963 0.166633 -0.023069862952532254 -0.60748967126006637 0.79399249413057316
0.40731400000000001 0.115553 0.095443700000000006 0.080952570755875974 -0.49811411835148717 0.86332439232708746
0.40865400000000002 0.116953 0.096145900000000006 0.035244376201280875 -0.48116914258904697 0.87591899749137969
0.53635900000000003 0.23519699999999999 0.170187 -0.12294595810824063 -0.4479269648429513 0.885576493337209
0.53176699999999999 0.23419100000000001 0.16936100000000001 0.0047541423449158808 -0.47575478654475356 0.87956510913650998
0.40390399999999999 0.108005 0.089778700000000003 0.21378464215568169 -0.86199250004359729 0.45963578695196894
0.40651900000000002 0.109796 0.091485499999999997 0.14731604976815948 -0.74072865793281628 0.65545330634436028
0.53349100000000005 0.23593600000000001 0.17013500000000001 0.038949732293497061 0.48448366113951591 -0.87393277798873981
0.52846300000000002 0.23427300000000001 0.169625 0.096890432408490948 -0.54384132073203062 0.83357594853266748
0.53670099999999998 0.23808299999999999 0.171846 -0.10475212265217465 -0.61379179230034342 0.78248746220281129
0.53149999999999997 0.23701 0.170902 0.075476802787104447 -0.57144378291457953 0.81716293063826084
0.34778799999999999 0.14274200000000001 0.112926 -0.042323642513374157 -0.49379183587646913 0.86854955650564125
0.43313299999999999 0.19925100000000001 0.14762500000000001 -0.10611934277698827 -0.5944924765156121 0.79706798985714811
0.53592799999999996 0.24021200000000001 0.17385200000000001 -0.064986425026889949 -0.70227910490238121 0.70892935006228563
0.433562 0.113386 0.094073799999999999 0.025659832640749974 -0.4774080664221243 0.87830695722164065
0.54823699999999997 0.18881800000000001 0.14119999999999999 0.22526363972286451 0.42159981684497227 -0.8783563553906204
0.436529 0.19753000000000001 0.146541 -0.0070639115423455426 -0.60766192084187631 0.79416439803889682
0.43818200000000002 0.196663 0.14577000000000001 0.024730491474900567 -0.61486428100828827 0.78824508798442317
0.44053599999999998 0.199127 0.147729 0.051786587834143305 -0.6151130779406826 0.786736328554133
0.44161 0.20044500000000001 0.14863999999999999 0.086546756022811033 -0.58157864293617301 0.80887325404073507
0.44281799999999999 0.20188500000000001 0.149371 0.13100783755049403 -0.52547228350459907 0.84066391963067244
0.45860899999999999 0.13317200000000001 0.107087 0.017088955596976978 -0.47966705070817001 0.87728415468508869
0.45660000000000001 0.21712300000000001 0.15798000000000001 -0.012052051594312774 -0.53590612254061365 0.8441915516491818
0.44438299999999997 0.20100000000000001 0.148563 0.14204802999951494 -0.55059247314566895 0.82259971169979906
0.44673600000000002 0.20396600000000001 0.14981800000000001 0.11400790038786304 -0.50545050121463542 0.85529058773672073
0.43704300000000001 0.17918999999999999 0.135411 -0.04952986171168719 -0.61712852727827594 0.7853019633352305
0.56711 0.235266 0.17016400000000001 0.051028755552816836 0.48090511563819244 -0.87528643075266954
0.47183000000000003 0.13911699999999999 0.11196 0.057392352017027158 -0.46386475074161976 0.88404502767074511
0.439857 0.193271 0.14299000000000001 0.051975317468009236 -0.56438946522485534 0.82387080171426241
0.446071 0.19983899999999999 0.147397 -0.14518665640567313 0.58242726220287933 -0.7998120523251695
0.44020500000000001 0.16805999999999999 0.127135 0.084866193977042717 -0.48992943600740652 0.86762139026957796
0.44685799999999998 0.20080000000000001 0.147866 0.11726270652440837 -0.56283508142516225 0.81820909844348566
0.44127499999999997 0.165024 0.12520500000000001 0.10524643873208926 -0.50031187466181615 0.85942493285137567
0.570882 0.12761800000000001 0.103142 -0.043170118154138924 -0.51059222314453134 0.85873856473485743
0.44375500000000001 0.195025 0.14396 0.089899807130634571 -0.57413140809578778 0.81381272471977384
0.44628600000000002 0.19770199999999999 0.145676 0.10813922848882339 -0.59046476049457886 0.79978576748772046
0.44703500000000002 0.19934399999999999 0.146758 0.082344701102161466 -0.59698868944564387 0.798012440300506
0.56390399999999996 0.23993300000000001 0.17257400000000001 0.051494399187571323 -0.52801770864665509 0.84767070623435326
0.56540500000000005 0.234989 0.169901 -0.020949211269935163 -0.50154054513530411 0.86488046118093675
