0.45135143663593286 0.26428667216453328 0.18749103089422517 0.0095144184451116422 0.52930668370380485 -0.84837722177586283
0.60741915140397007 0.11138549541049124 0.094352737611053769 -0.00093928762284452359 -0.54624950105630432 0.83762199131499659
0.49900558691491192 0.26326389952226181 0.1873793094497932 0.010707119608739666 0.53114884130711704 -0.84721087455709121
0.61733816968593169 0.11110811895255004 0.094345916392690923 6.3430791171988473e-05 -0.54648144874656324 0.83747120676020381
0.62249847007235359 0.11101394024080039 0.094364884872566487 0.0007595780451000035 -0.54634845889914063 0.83755763055429655
0.62679546377111461 0.11089383006556237 0.094360373099782791 0.0014514766812285674 -0.54628181217960303 0.83760018797586999
0.63250118576898517 0.11094950768562267 0.094494031047206301 0.002497773983006183 -0.54623489830467142 0.83762831673673444
0.5375039955102594 0.17319253220785788 0.13177666227839718 -0.0061612253970785066 -0.53058111414682407 0.84761177470131999
0.64244699711398878 0.11118628150540265 0.094788657683547453 0.0045463669542957245 -0.54613245906785002 0.83768649726494926
0.64746561501370459 0.11102790342147498 0.094746654485121706 0.0057679926020852918 -0.5460068133241619 0.83776087881025818
0.65260886558284059 0.11124435563876374 0.094922061856844001 0.0071900927100361518 -0.54560284299122641 0.83801303109600411
0.532423767495384 0.17292781010185868 0.13155216937032072 -0.0062310950309961135 -0.53048494823559478 0.8476714535421096
0.66194626170520054 0.11150100303816816 0.095144190127387687 0.0099324521463873515 -0.54519956374621181 0.83824744681108332
0.66774515171881199 0.1108828594643438 0.094747907050991009 0.011781643159839254 -0.54498711877722861 0.83836163631892713
0.67238550105483019 0.11063609997593903 0.094589713781027485 0.013331806173238977 -0.54493023564740573 0.83837539397421601
0.512545446640849 0.17276141926424982 0.13117267848882766 -0.0063567297431483955 -0.52981852715250799 0.84808721265735387
0.68253790849003004 0.11139310424883936 0.094977653445043136 0.015991139751722453 -0.5446116253720491 0.8385359032021561
0.6873056194260535 0.11053019261685108 0.094356055883722617 0.016994500915484319 -0.54463951154818369 0.83849805569195535
0.69299655973642438 0.11147969305815211 0.094850521171312652 0.018016707840437501 -0.5442971855393488 0.83869897582656916
0.69779952151140623 0.11161592913249389 0.09485034718815491 0.018695959992240309 -0.54436287180091047 0.83864147577175907
0.50733543510922852 0.17326596090181559 0.13140267365023039 -0.0063622805747273565 -0.52956822634238332 0.84824348805898342
0.70746425615498354 0.11124753146836258 0.094407876837951987 0.019808581037895505 -0.54451083768760833 0.83851986724108352
0.71262775378621523 0.1116809149788283 0.09455820693515507 0.020265908712492432 -0.54441964594504322 0.83856814991575412
0.71756299901440446 0.11119497543455246 0.094122937832962814 0.020647055026580666 -0.54447111464750153 0.83852543457741135
0.49755886322089971 0.17301699872755502 0.13110350471809845 -0.0062001593298319719 -0.52910029804500669 0.84853664189177447
0.47258653290655545 0.17357255611677336 0.1310582760511661 -0.0054449215900523092 -0.52795949094203276 0.84925209964598136
0.46721322081308486 0.17336335132458197 0.13085494897301031 -0.0051989816707606155 -0.5277008411848505 0.84941438226721144
0.46267586479062384 0.17318367951406227 0.13069237378121731 -0.004996439696466762 -0.52751705707621188 0.84952974643858836
0.45255002087335922 0.17351417590713919 0.13078233566447778 -0.0045018109119272925 -0.52712795993680195 0.84977399792614194
0.44753195995674278 0.17358059044925472 0.13088771904265617 0.0034952725669106289 0.52531829515395256 -0.85089862606906808
0.54264439014144394 0.26405892741347986 0.18801261395210278 -0.007855727772376626 -0.53928507804107462 0.84208662983293958
0.55179133590343243 0.26448198662732314 0.1883697141168709 -0.0076250376454019241 -0.53904629223885991 0.8422416242530667
0.55729006481191001 0.26437966280856051 0.18862290251805702 0.0062383566294903874 0.53338129149429825 -0.84585192604287296
0.5626547954468395 0.26409553133145275 0.18845881459122615 0.0059477289367515984 0.53342666143409723 -0.84582540833895981
0.59789797359522112 0.26297280490173569 0.18765245389348661 -0.0069088104438920078 -0.53777886136451603 0.84305762828393593
0.60168075518010944 0.26304928400065697 0.18771251105490486 -0.0069559798395320551 -0.53760341404036516 0.8431691310505951
0.3674639905135057 0.17340763288182529 0.13053195356468894 0.00082758762854755262 -0.52193165091287697 0.85298690896993012
0.36266107103998552 0.17332163291077124 0.13049117001326266 0.0010284943616556048 -0.52175872352185559 0.85309247835635715
0.35767711794145707 0.17331717782492209 0.13050117447029438 0.001216495568147195 -0.52159074829054053 0.85319494339584945
0.65271227028273804 0.26590411481671983 0.18992981261151859 -0.0083553771265159806 -0.53582323565220347 0.84428884145668837
0.33758296672715743 0.17334317836371818 0.13057752220736615 -0.0021870812649849168 0.51913878876782993 -0.85468715602389322
0.33245286967420878 0.17351401614429357 0.13071248216109024 0.0020962099916680579 -0.52120151490164601 0.8534310673791411
0.32263168369297984 0.1734485794811588 0.13071950598396001 0.0023633905730177781 -0.52119900678023601 0.85343190104207778
0.3172327728781047 0.17299319855577674 0.13043610212184276 -0.0032381958854553494 0.5182774522502388 -0.85520640583218788
0.31263085802885471 0.17319468666938578 0.13062158156643069 0.0026333513501016368 -0.52127372709316511 0.85338547380598606
0.30275869821540635 0.17312050957865605 0.13057836401294623 -0.0035785825845788973 0.5181522905018866 -0.85528088812642944
0.67684672716048078 0.26586283964939444 0.19021784743424383 -0.0088371503804575841 -0.53510283601471742 0.84474070557903125
0.69954439905246391 0.2647376695981874 0.18981875745776705 -0.0087645440309072047 -0.53471350844590071 0.84498795651382275
0.26912709520428724 0.25529998173763718 0.18275135455611727 0.0053291038675027267 -0.51256442761232945 0.85863223105029918
0.51304842138126128 0.25604319221531174 0.18258262813659296 -0.008227792621310355 -0.53902508372999636 0.84224952510431916
0.16238939203447258 0.17325580885736788 0.13147872299507199 0.0067650380680588798 -0.52531179598999789 0.85088292452822234
0.14249852663822002 0.17330559543333074 0.13169119379682523 0.0068454275372145891 -0.52534522210427992 0.85086164429596756
0.72241181922865327 0.16872748399573001 0.12949369202671165 0.012225424185082068 -0.53470984522604736 0.84494728854635148
0.71245867527787055 0.16855144602085725 0.12951634442001789 0.011748765631090436 -0.53451632827902762 0.8450764825205187
0.70751084104195527 0.16836431266420543 0.13017073348022434 -0.081285414140628787 0.52733451565520273 -0.84576059854232943
0.70246696320862756 0.16846003856243064 0.12959213638804673 0.011260130630623453 -0.53433214043115895 0.84519960551365469
0.69272159987410642 0.16852765813979362 0.12973598885567739 0.010289339671838371 -0.53399594673991424 0.84542442498100345
0.68745324551877451 0.16909636572846151 0.13014949064009945 0.0097032217338814449 -0.53383337261861741 0.84553401928403538
0.68232834273959175 0.16832937614569285 0.13136912676202103 -0.052383587664150064 0.52594248570374269 -0.84890544907851828
0.67751469352014815 0.168669013067266 0.12999207681022121 0.008508251127199119 -0.53356672840418762 0.8457151742772554
0.66223001761479072 0.16844303460524437 0.13127233010373549 -0.029202256996309045 0.52477601879035518 -0.85073930101345752
0.64207802396693014 0.16847015223037984 0.13082882241488178 -0.015116137227619265 0.52420201458818216 -0.85145977608869294
0.61261915554337709 0.1687539255765774 0.12978566731510455 -0.0027088881414344189 -0.53161853342515586 0.84697957286107173
0.60764619916933782 0.16917243374881424 0.12998978454143972 -0.0032028201345417626 -0.53152798952707603 0.84703467360698426
0.60242555047921909 0.16913422532471425 0.12992975953860419 -0.0035150186596649359 -0.53152749447669068 0.84703374623397021
0.56752814922865025 0.16918013495118894 0.12961614992250955 -0.0053160524689780516 -0.53132921610302863 0.8471487494540072
0.56275893578106928 0.16916500240499402 0.12955468222570804 -0.0054625697188148527 -0.53126713661840286 0.84718675029851032
0.55771564152313824 0.16955755941796641 0.12964447568144175 0.0043558153330157147 0.52726762770227431 -0.84968810492438962
0.54267019151658946 0.16927849821778709 0.12940641951922305 -0.0059256158329371459 -0.53085578180643711 0.84744145874489574
0.53754426790722165 0.16959543546321543 0.12940031523038806 0.0046766588441498084 0.5273740950746707 -0.8496203226772695
0.53297202996927939 0.16981327847894781 0.12945773767029609 0.0047043929495982724 0.52729163748344487 -0.8496713468906687
0.51358994737206765 0.1695826761551614 0.12905833629829355 0.0046239298019701966 0.52688541979571446 -0.84992374580304575
0.50758162741233315 0.17030861685565943 0.12958080713425654 -0.0062269032634136344 -0.52960632048732892 0.84822070888160983
0.4956189421837584 0.16997971668854633 0.1291879558140728 -0.0060236271940321438 -0.52895842587826591 0.84862636042478334
0.49217879013803734 0.1701181026617469 0.12914263803634146 0.0044123674522240607 0.52651528640723499 -0.8501542120068416
0.48756142822223714 0.1698216995314033 0.12891584967289405 0.0044462527604408478 0.52649024987908577 -0.8501695405145071
0.48232083459845521 0.17012659870831742 0.12906651635875321 -0.0055942265584574703 -0.52820935665222268 0.84909574264287624
0.47261504098364016 0.17018927240427686 0.12896310986079845 -0.0052888949975252297 -0.52778316365390077 0.84936267857328462
0.46735547131641847 0.17044264192416392 0.12905079761639912 -0.0050519962600362725 -0.52754710718013464 0.84951075745964522
0.46260361131883698 0.17051328522372253 0.12903947888585052 -0.0048818096696709671 -0.52736543727029128 0.84962454266991583
0.45285411360246169 0.17065755960724874 0.12902434318313724 -0.0043265441268533072 -0.52686697663265902 0.8499367446756726
0.44771846876083055 0.1707533929904754 0.12903343351621518 -0.0039984970842903301 -0.52660199353920489 0.85010255406133328
0.36627772905030703 0.17063340352565107 0.12884791835313061 0.00099514350894933166 -0.52161983520226562 0.85317744767015369
0.36247676147146479 0.17061524080844592 0.12885013226699379 0.0011835273719591518 -0.52141102377524851 0.8533048362388479
0.33682697080038992 0.17044307313282786 0.12882568992857787 0.0019839437792094627 -0.52085318348713583 0.85364396865344094
0.33243803056475291 0.17028020141857647 0.12874520229748102 0.0021150957870787359 -0.52083715693292887 0.85365343221229728
0.32183108241013059 0.17048192758083205 0.12890776057069794 -0.0031344022565400714 0.51813130306706601 -0.85529534565816401
0.31172575372773026 0.1703530753527919 0.12889512103517553 0.0026386379877594507 -0.52106400207979353 0.85351352849627315
0.30277450906254044 0.17040530276463889 0.12893670077708558 -0.0035467352925967451 0.51779183232769954 -0.85549929225189181
0.18208930037345872 0.16992434233881951 0.12922763602216247 0.0059813833388344421 -0.52461324127549969 0.85131966389351565
0.16745144160183195 0.16862660122267234 0.12967443489760166 0.012933668534102436 0.52132133793244451 -0.85326243491353582
0.16249234062140544 0.16913491213488507 0.1288971361329696 0.006061316540254766 -0.52468786686606694 0.85127310706102732
0.15249956345525736 0.16885686417741055 0.12974272195741143 0.016054947227165439 0.52180696624457312 -0.85291249765035559
0.1477507220233415 0.16882478419624883 0.129686678115119 0.016829513743595176 0.52180355174490323 -0.85289965462154937
0.14265622315482018 0.16948725192934652 0.12928597901597663 0.006271620512034109 -0.52484318736873969 0.85117583109999961
0.13763432829543512 0.16995231328057939 0.1296261234611476 0.0064171064685417407 -0.52496288568194127 0.85110092785818325
0.13240259169169066 0.16967084216913333 0.13000159836677805 0.018904674064074246 0.52181749333535021 -0.85284765166338061
0.31802704990857716 0.17510806692718989 0.13175684502614446 0.0024930435736766187 -0.52138055075761858 0.85332063494645549
0.70365811513292997 0.17047813772072792 0.13082250910122806 0.010735075390634286 -0.53422152865963335 0.84527635508922283
0.69124994910856297 0.17008942674523725 0.13072249725144622 0.0099071250624715532 -0.53389424148205311 0.84549322160813323
0.64274196976220743 0.169582893689741 0.13150028526013294 -0.015025320857738243 0.52421816893130868 -0.85145143789615385
0.60292458713262942 0.17030559659135866 0.13063690131702396 -0.0035723489113631975 -0.53134813478840337 0.84714603108327213
0.56246033806359352 0.17026013548571875 0.13023313898024613 -0.0054852404491644051 -0.53119926741755286 0.84722916051813868
0.35226950689277187 0.25964440327514832 0.18441813481403324 -0.00042160213208054071 -0.5172990204080874 0.85580461890344772
0.37247215060123956 0.26004441721278448 0.18446227035997939 -0.002578980568488644 -0.52172017066612553 0.85311277823001586
0.38261479868116632 0.26002974777063004 0.1843715501267667 -0.0037847537896095467 -0.52463384225931453 0.85131956819691434
0.72293139051922628 0.16723209532294811 0.12854657456249449 0.012543977383069583 -0.53478844662767411 0.84489287249033673
0.71235160957318489 0.16722485875141882 0.12869660194942462 0.012159253743093439 -0.5346240741882945 0.84500251588188779
0.70840111325196065 0.16675223806535661 0.12908858973435533 -0.083092430513389867 0.5273227513459835 -0.84559231542409341
0.68748809575497571 0.16680891183911642 0.12873618371831888 0.010216306190331091 -0.53394987526649218 0.8454544090551086
0.68263793948467333 0.16609149973576695 0.1300842351853525 -0.055533288576198679 0.52606452198568077 -0.84862958501803942
0.66747207195532365 0.16654772812110399 0.12875553307719539 0.0069276098480296495 -0.53328356540382915 0.84590817887757386
0.66258546354961279 0.16606575317956301 0.12990735170881043 -0.031395495268506456 0.52481476069555744 -0.85063728453019849
0.59752337019391955 0.16709685791506224 0.12871514474542622 0.0011808394361258643 0.52543441318667794 -0.85083328746435249
0.51752405564805448 0.16764103859529833 0.12806805998399301 -0.00612847396268808 -0.53007611786467757 0.8479279162030231
0.5126528292550363 0.16767016229832579 0.1278461487288205 0.0043755784805370752 0.52679137289083355 -0.84998335499040889
0.50738970708294018 0.16761435808129549 0.12790558432040827 -0.0061110754110886472 -0.52960322801629223 0.84822348212722998
0.49746976418306438 0.16776943865272489 0.12784157204179308 -0.005943856062331665 -0.52899961614697266 0.84860124716586749
0.49260485932287751 0.16755629289796156 0.1275664669886496 0.0042313172598887148 0.5264527920946972 -0.85019383298748041
0.48756372404808473 0.1673938736344725 0.12746542497312446 -0.0056359095222043064 -0.52845502931759003 0.84894258846685422
0.47757624722385122 0.16767383716008272 0.12748555854247112 -0.0053037918518075104 -0.52785558438446001 0.84931758007598823
0.47249264940442964 0.16773777079720512 0.12745040678875968 -0.0051284817869370449 -0.52762633637422796 0.84946109259863745
0.46747261501036702 0.16777556648190584 0.12740767783081633 -0.00486765612750183 -0.52731387275026587 0.84965662801448261
0.46264337578898229 0.16793407541394656 0.12744602446495529 -0.0046915306661945173 -0.527155866888807 0.84975565990743385
0.44762885973978994 0.16765967453432762 0.12726422520780517 0.0028365317534316801 0.52492735675162416 -0.85114230550558645
0.36741837832880969 0.16787006380439784 0.12716875704839764 0.0010972233263843191 -0.52132221804354795 0.85335920987303315
0.7264990128813843 0.11544356685157042 0.094917120916158809 -0.13774040692494721 0.53033532755046053 -0.83652377171966585
0.36237347829145095 0.16781825649357474 0.12715218378264839 0.0012935749215967969 -0.52112705951234828 0.85347812772673648
0.33765811706901 0.16792766739772355 0.12729551216530041 0.0020163306426179946 -0.520653131955229 0.8537659226017108
0.31198604718550471 0.11793133312448816 0.097198263224515413 0.0029176842361165133 -0.51375556055287486 0.85793164711397585
0.32869533556344099 0.11956996192726847 0.098140621715250453 0.0032349473700188998 -0.51406731981578857 0.85774374134290532
0.33186038687940128 0.1185886613924798 0.097535808472615587 0.003351655962589066 -0.51390794065920287 0.85783879308977717
0.13277461605389632 0.26157814851010486 0.18884396778750234 0.010340654061991623 -0.51058132487442442 0.85976728337559327
0.13733521403875659 0.26168010350608906 0.18883771062869975 0.010335689796619153 -0.51067176815550641 0.85971362599726009
0.4289878853619401 0.11858655464659189 0.097303119860761123 -0.0031863164067960962 0.5217963769437356 -0.85306411740041366
0.43191991061074392 0.11832039690351123 0.097131328102064318 -0.0032034455022256357 0.52181302401581575 -0.85305387045859182
0.44890092631299472 0.11921642232741714 0.097552196264288321 0.00072321137979007024 -0.52342294573028025 0.85207270631580267
0.45241201384860141 0.11930650213705762 0.097642836133391767 0.00048887831486846007 -0.52394503015938165 0.85175193945730343
0.45737043542681727 0.11908218411393423 0.097568160875703677 0.000273170844919924 -0.52469827876185793 0.85128822477585886
0.4629487590399291 0.11941663693727274 0.097844205126386433 -3.7927952491955342e-05 -0.52560626045140901 0.85072795741985352
0.14733552231299848 0.26172653325278067 0.1898674514807836 0.039483184417375458 0.48982354094773223 -0.87092707896912291
0.47123754179509175 0.11961612427677178 0.098070930377683191 -0.00038045000079870925 -0.5269216581735704 0.84991377292370784
0.50733018880335645 0.11877130544881466 0.097938479677310522 -0.0010169238176641528 -0.53262986466728879 0.84634767863476457
0.51275432883947547 0.11937122180497149 0.098340249485710352 -0.0012340161505456923 -0.53339075827961024 0.84586806074354337
0.51764452152487117 0.11849959994078313 0.097861507066213271 -0.0011186864918212814 -0.53446772635400175 0.84518814356716865
0.52210644294754915 0.11859669298573663 0.097946474686805812 -0.0012412601410736125 -0.5351810339048606 0.84473647975080768
0.17273587455272471 0.26208012893654764 0.18838103130589806 0.01022578062697327 -0.51300637182035724 0.85832388751699229
0.53229657446870671 0.11876309545715956 0.098089728783217325 -0.0016397378246344333 -0.53657213299645035 0.8438528647527993
0.53715596574007896 0.11798343190697715 0.097655108958458511 -0.0016016703845371295 -0.53761313772288533 0.84319010240854542
0.54186509808032446 0.11814575316765991 0.097777847182892119 -0.0018329789002609761 -0.53820960762579828 0.84280902845640859
0.57406414138042938 0.11844011062900923 0.098297039730465219 -0.0024655724859834268 -0.54217294311170694 0.84026330439327535
0.1773771510159472 0.26201618859410575 0.18820441372225977 0.010152534513126333 -0.51377395444596186 0.8578655196334205
0.62873588403144409 0.1176223859288105 0.098636126677970101 0.0014441857990678943 -0.5442281746613753 0.83893599769715765
0.63256364336145376 0.11795411235717053 0.098920493492264491 0.0023185950024404369 -0.54406906652592468 0.83903723097775795
0.18763050404551992 0.26248154955417086 0.1882438701207865 0.0099091448460430585 -0.51402731673000168 0.85771657702517012
0.68884334240920397 0.11796239336363475 0.098971719972006392 0.016871942397760228 -0.54267860092311526 0.83977096500168236
0.69267490945051569 0.11698993652570235 0.10061764977436187 -0.11055444939794377 0.53103092205240543 -0.84010944140777855
0.69587044841446055 0.11783211448629932 0.098766125722235296 0.018095265569081777 -0.54275307125622563 0.8396973651297942
0.19271604777299942 0.26137230217600305 0.1902478637304201 0.012546591181280478 0.48129380950639056 -0.8764695385354565
0.19774045600453657 0.26232227103301442 0.18790615391467855 0.0095561508699875865 -0.51417921812044454 0.85762953052795388
0.21244417653836953 0.26276134016961794 0.1878990294712089 0.0087900583053783458 -0.51352056929748124 0.85803226033953917
0.23261300032494911 0.26266328957228069 0.18753637347277277 0.0074983422364515778 -0.5126537124507955 0.8585627210484521
0.23749016829379993 0.2618114269048965 0.18817769776524845 -0.0036869526985101328 0.49617566818730707 -0.8682143241611936
0.13258734693554808 0.16680811398686096 0.12814262471155705 0.018075516813204403 0.521828184801716 -0.85285908639029095
0.26762884859267683 0.26233278701550161 0.18708938485587068 0.0053679850463841704 -0.51050996413522154 0.85985508154292878
0.33755986352339051 0.26304712580510348 0.18672536399989559 0.00097523450547485962 -0.51370129325075842 0.85796854850871873
0.39258045864447411 0.26321495046771698 0.18629985098256008 -0.0049929323207793348 -0.52758328752609074 0.84948863756380077
0.46745809624392315 0.2626670130765541 0.18664059883296177 0.010136041566988739 0.53047964723746499 -0.84763707123282839
0.48264649133279308 0.26306890419901569 0.18668614236176956 -0.0085007507334382369 -0.541555683074043 0.84062190036137807
0.49244385096919741 0.2631259908664359 0.18682310455627632 -0.0084984105100441767 -0.5413246564170785 0.84077071391297564
0.51735943404288454 0.26298924876083973 0.1870292059750181 -0.0083457180970685045 -0.54021821937321579 0.84148358536971857
0.72576578856008167 0.16052471300234297 0.12333616677423351 -0.099690373258578796 0.52773401740950765 -0.8435393508001785
0.72206312439108544 0.16011104003590867 0.12413937069114955 0.014151707376026517 -0.53535717289975693 0.84450720932572454
0.71244216746764599 0.15952930028233611 0.12392214163665097 0.013810450137626632 -0.53515361068572442 0.84464186756105575
0.70783339650506327 0.15932408786715088 0.12458422493031671 -0.090273510965766982 0.52741280370725352 -0.84479963760856791
0.70248817563148125 0.15897708983731115 0.12486001324760335 -0.086175568191939986 0.52726676530628791 -0.84531859653638286
0.69744463380339838 0.15953952180328282 0.12415375186829508 0.01278452393383738 -0.53480861680032477 0.84487649946244125
0.68745003185685727 0.15854682824611802 0.1255388733616343 -0.069601649447275066 0.52656777315554204 -0.84727916926372759
0.68249372633196848 0.15836035069048701 0.12556376814190082 -0.062881615829375209 0.52625949598967681 -0.84799578139951748
0.67710458595608813 0.15936202056546364 0.12429210431562279 0.009905919338447618 -0.53420797535442366 0.84529504424773938
0.67300693811705581 0.15948097627765723 0.12440759574869015 0.0091460303383960051 -0.53409527693265235 0.84537481940691994
0.667742479597626 0.15896976575447713 0.12587790777426885 -0.041554895279915113 0.52536369475286082 -0.84986244705475611
0.64194117268511408 0.15952450755401412 0.12539326832127967 -0.016231508871325101 0.52418907030748874 -0.85144721309657878
0.63777731916448255 0.15984289071670971 0.12463149964410165 0.0014569528828867011 -0.53320833441823534 0.84598271223189192
0.6123736297870489 0.15971176457892969 0.12441291939056165 -0.0012739517306758633 0.52476615441973051 -0.85124547588960231
0.60221338766569321 0.16000147884807828 0.12441888698959487 0.00015686999776072142 0.52525231193551281 -0.85094652252547731
0.59746983211152405 0.16012153137199903 0.12439842588816892 0.00090480002614769185 0.52556391005967951 -0.85075364106167295
0.57229189447207574 0.16000963433392432 0.12401028915253118 -0.0048357149771807587 -0.5324756911289249 0.84643148229341814
0.56276471263650829 0.16032617557163609 0.12408287653348475 -0.0051714122411612709 -0.53212005675391616 0.84665311769085272
0.55748265273744757 0.16042476242757209 0.12407939986550978 -0.0052943283325582839 -0.53189931810411584 0.84679105184684356
0.55301293102950644 0.16060765093049448 0.12394978901932009 0.0038305255202180405 0.52751175541521744 -0.84953909561184693
0.54711073249274189 0.16071977194338127 0.12415059245697592 -0.0054522943958379786 -0.53163611782229192 0.84695531801427593
0.53789627426960773 0.1605118055030248 0.12390150486981975 -0.0056160649415846172 -0.53120089466955678 0.84722728315183182
0.52081886929437593 0.16063899379455879 0.12377161565082123 -0.0057105006178895792 -0.53046114044209869 0.8476900192072343
0.51650183052102538 0.1600858864251585 0.12336377664003005 -0.0056849242090355624 -0.5301836117037384 0.84786379773965881
0.51406760293436982 0.16066776309789454 0.12369557903077627 -0.0056988130560550188 -0.53005660906359242 0.84794310818459884
0.49087281405094657 0.16049180312317668 0.1231877112170667 0.0034666814754104364 0.52611379500705358 -0.85040711240136291
0.48852189670920582 0.16054258348528741 0.12319962709267816 0.0034229021273444924 0.52605048878477068 -0.85044645157136756
0.47533141551162761 0.16073850848183704 0.12318313382291957 -0.0046519771626492377 -0.52738926919383289 0.84961103915125369
0.46811353594627791 0.1607912299686928 0.12318793711450071 0.002932838244037163 0.5254576462351257 -0.85081470395902059
0.57740647444356308 0.26287287461881392 0.18751830096895877 -0.0070128181312803343 -0.53825973619089384 0.84274983048207552
0.39570272298556886 0.16092585043939181 0.12287513459845853 0.00045591895613015192 -0.52199900457277182 0.85294597212422585
0.58246394649338962 0.26299328011212686 0.18761559325848756 -0.006932647981040623 -0.53808507918715309 0.84286202070571803
0.36016522221453123 0.1611521794258827 0.12312493903381026 0.0016897419255173394 -0.5202169609977878 0.85403246909145747
0.22792992439795137 0.16075269843477433 0.12335992399912048 0.0038342821562517932 -0.5220616436006611 0.85289913739042
0.21945932194167428 0.16069304761286896 0.12335088031449871 0.0040979031256795102 -0.52238755096723899 0.85269833691899677
0.167776795035329 0.16032858334628902 0.12340128594577247 0.0047840398631098487 -0.52345120254061994 0.85204222402494068
0.15789893927528667 0.16073862227826624 0.12371359723491757 0.0048785579787604524 -0.52355838875297245 0.85197582902241964
0.15259441263115289 0.16006717837286474 0.1241466263118024 0.014809874816354511 0.52131110252861801 -0.85323818596469325
0.14731617635449884 0.15989422842056597 0.12398218747900391 0.015522087919633597 0.52147121461539703 -0.85312767925683763
0.14244145637682215 0.16003835761511856 0.12337633289423856 0.0048770154127119386 -0.52354896534018214 0.85198162868215011
0.132811872674545 0.159835292618424 0.12371289215704598 0.016923693183702442 0.52147147717799347 -0.85310086572387522
0.49140294873867391 0.15482871630551839 0.11970059039456445 0.0027006066132035382 0.52581484814490154 -0.85059476379429633
0.68234320737874654 0.26136132721342364 0.18880336202445133 -0.0067662336625922588 0.5288371011150178 -0.84869637595920466
0.70238008276342967 0.26221210963756986 0.18827112473279647 -0.0086449077397269397 -0.53460707564510601 0.84505653079563825
0.13220831571636149 0.26508144888373486 0.19098704912804385 0.042504938373980797 0.49145606468463832 -0.86986451054087299
0.13776439694546325 0.26485397378304343 0.19078756476315853 0.010230721261751905 -0.50932639708076499 0.86051261093559306
0.14709368469511563 0.26501975927493543 0.19073449931616235 0.010224895933949027 -0.50971849742743536 0.86028048035710858
0.71062959225084732 0.16124312430097598 0.12547833391607172 -0.09010961372255552 0.52742311443611245 -0.84481069824741395
0.69638322492759153 0.16189881194416589 0.12560774700002822 0.012086159194191039 -0.53452179249376131 0.84506826831043014
0.68744309515448454 0.16105605466807074 0.12702892922157644 -0.067529974414340166 0.5264931279995434 -0.84749317916125722
0.68277472237395176 0.16070334002499737 0.12694198043061658 -0.061380533301953893 0.52622468889485663 -0.84812735301314213
0.15268985341006569 0.26459963777596951 0.19037877022413527 0.010230994420701866 -0.51017186541936721 0.86001162462357839
0.17711317124953246 0.26567731036310693 0.19051627735373428 0.010018983692076513 -0.51172332286430278 0.859091881466991
0.19762738343031477 0.26478877217009922 0.19198872622093346 0.010039800188916285 0.48132270006531197 -0.87648597297047737
0.22742908555643312 0.26618339678014985 0.18976576872797507 0.00780672405803898 -0.51185056984029254 0.85903902659521203
0.23253004660024931 0.26564444073290855 0.19070707974858589 -0.0024917460086350466 0.49313290396467535 -0.86995041825910679
0.23747968003680134 0.26587149084865258 0.19057371810027837 -0.0034852195200995484 0.49499304380797177 -0.86888994690157162
0.24223530361867709 0.26597744102547871 0.19033612219418408 -0.0045277077710758661 0.49732757368748504 -0.86755102692144803
0.51222141408510813 0.1614717248427946 0.12398011324250868 0.0037036327851597459 0.52655982268851675 -0.85013001137145516
0.50755768467038942 0.1614888674080317 0.12410281456679778 -0.0056852002074014021 -0.52958536449459814 0.84823759655636899
0.49757486050539212 0.16135469358303323 0.12387697586950412 -0.0054944490587046906 -0.52896740475060366 0.84862435490678223
0.49261067076022702 0.16152017616349335 0.12384357422102879 0.0036130677190522134 0.52622096621504844 -0.85034019101613589
0.66240530336261838 0.27784146453896597 0.19758343499548958 -0.0087032790589152056 -0.53602467410643218 0.8441574507653864
0.65751109820637832 0.27774560393033509 0.19746432643031392 -0.0085790946902718126 -0.53623285565686285 0.84402649463650214
0.48734799390041172 0.16162269116506764 0.12389144592869453 -0.0052249095083267364 -0.52824777054857242 0.84907419771836923
0.6422174381622201 0.27777121179873393 0.19732026943661171 -0.0081054191582382654 -0.53700281299283659 0.84354151114100473
0.48224933527908248 0.1614449356848964 0.12370790023045877 -0.0050345335110207985 -0.52790481928044397 0.84928861716898596
0.46228963599431577 0.16173078848102851 0.12363127077206412 -0.0041069442586373064 -0.52661242379027318 0.85009557587284867
0.45253215486883602 0.16134514924161536 0.12343182205681422 0.0023007561398807374 0.52475533660784635 -0.85124998867710455
0.4473297938695413 0.16169772126295795 0.12345841469253957 -0.0031819433178365639 -0.52565157211413116 0.85069401077629803
0.44233860330857289 0.16166155720349906 0.12340077400684331 -0.0028333703582883304 -0.52532194287911482 0.85089883555104529
0.41289744526190847 0.16155022108455944 0.12350974732147325 0.00064063642051316193 0.52273533340686351 -0.8524947863729091
0.40720723221244526 0.16155908378975822 0.12352499577872424 0.00043531819459416616 0.52249152054199377 -0.85264436986341785
0.26230293141860406 0.2661798956911805 0.18949243894679424 -0.0060176066357752744 0.50684962784534593 -0.86201348200791594
0.26734909226551945 0.26617355321394809 0.18936383409449986 -0.0059261004225775148 0.5084024385643372 -0.8610992055481278
0.27750661659237547 0.26637143737260865 0.18916901391679825 -0.0051848862769028978 0.51233806009891769 -0.85876820453971947
0.36788292136578216 0.16145099908137597 0.12327973600635023 0.0014571903412334717 -0.52056981059957297 0.85381786634424217
0.60255914546698575 0.27792988562446197 0.19719405703236068 -0.0071126151069543187 -0.53891556894822013 0.84232975742968763
0.35709742658162463 0.16165495919886719 0.12343793369342211 0.0017437312099798136 -0.52019902339224866 0.85404328664489715
0.3222652504059757 0.26735817549328372 0.18901240604008371 -0.0016510265001733373 0.521278491839125 -0.85338502919691694
0.32756758486064314 0.26721177777770017 0.18887510523335407 -0.0011167213586425115 0.52166145915085815 -0.85315184754532691
0.37754164606616991 0.26708314891947432 0.18876549784553673 -0.0032645150619690327 -0.52238715687041815 0.85270217618946609
0.22742885974525689 0.16182102215819588 0.12400971391983301 0.0039342047819005159 -0.52220082015521596 0.85281347636042537
0.21737812882316732 0.16160703962775791 0.12391313605235467 0.0042592221055973286 -0.52260548061657963 0.85256399798288995
0.45261992280532554 0.26676314939223705 0.18878046569250964 -0.0084819110560740481 -0.54087906087205873 0.84105760723924061
0.66766996041423865 0.15705194022627472 0.12297058269368684 0.0083901847636338317 -0.53422681322661392 0.84529954266482876
0.45769533156015291 0.26674663583848185 0.18880711987819798 -0.0085432610949027262 -0.54135150936339727 0.84075296966459534
0.6575151067471946 0.15646195963881906 0.12412616294231886 -0.030559424629031984 0.52499933195517434 -0.8505538331069723
0.64744756708225792 0.15702194323625121 0.12297915915025161 0.0036785032269066233 -0.53379687083978367 0.84560473585219764
0.6423776334247997 0.15701953131874821 0.1229425494035829 0.0026386499722994773 -0.53365285822560682 0.84569951190358628
0.63751443124800844 0.157122875931794 0.12298704726250799 0.0016470881379451283 -0.53368159343020038 0.8456838912587068
0.4673652716430875 0.26654291477880176 0.18906843534588524 0.010182458447753994 0.53046845194834935 -0.84764352119713715
0.47193576142353771 0.26679238429279334 0.18895870580061699 -0.0086145248081502951 -0.54211936805588812 0.84025733007276671
0.47756983754663784 0.26610195047664764 0.18890673083825471 0.010370692381774529 0.53078261397453186 -0.8474445500691391
0.48252303443964428 0.2664713707022906 0.18885115850342352 -0.0086145427051347589 -0.54216031938425524 0.84023090739340445
0.60248945605503323 0.15725032201745848 0.12268364084628156 -0.0030931776042877348 -0.53335256628008476 0.84588738747823644
0.55263439737499764 0.27790283138093902 0.19712687986777436 0.006451500803935555 0.53380002534631077 -0.84558613462949761
0.54742993748085322 0.27787636806990113 0.19689038169235615 -0.0078310108248639786 -0.54067726123442561 0.84119366049293398
0.49220896109315831 0.26631353809361202 0.18885404861037702 -0.0085811147953411184 -0.54183526557353612 0.84044090181863762
0.58267866558010295 0.15780704527351108 0.12277623799489969 -0.0044097456921599531 -0.53300491564595298 0.84610065242864629
0.57777801499682002 0.15771193524639604 0.12265088771506692 -0.0045912809590086647 -0.53285727233835622 0.84619267750039195
0.57254310167800815 0.15805713944101638 0.12280535033174572 -0.0047618818749800354 -0.53274146247445531 0.84626465047382615
0.56259278107441846 0.15780681451102055 0.12230839994479108 0.0035731288699459153 0.52741279543319319 -0.84960165722732894
0.55756252340988399 0.15775927707681198 0.12243729712241563 -0.0051551168500895026 -0.53231227182203511 0.84653237979295604
0.5525986067003027 0.15789738635064457 0.1224542619485903 -0.0052591065936755665 -0.53204188818347475 0.84670170131871081
0.54741344414678572 0.15788573975191045 0.12240007163988684 -0.0052852056906786292 -0.53195761586288415 0.8467544871604068
0.5374334252212708 0.27791820588556421 0.19681956343774268 -0.0080988222217206179 -0.54115058460912269 0.84088670690874034
0.53257849959045767 0.27768398666305821 0.19661675822147154 -0.0082040643387408119 -0.54138130474005286 0.84073716237970808
0.50309776902948578 0.2661917514933409 0.18889799245588418 -0.008528354353957603 -0.54139776073276691 0.84072333846846381
0.50756907366442039 0.15784204849528566 0.12185461172556998 -0.0053230948385346111 -0.52967352482366692 0.84818489833420896
0.49778049102151778 0.15794885488667004 0.12168115320252536 0.0032858551253884547 0.52616353751005751 -0.85037705457696655
0.47739607836341957 0.15821179172963429 0.12165415897479921 -0.0045240859513146206 -0.52744152394837207 0.84957929086185002
0.38733186776892564 0.15806784193192761 0.12116583335895863 0.0010853668314479044 -0.52113713300494624 0.85347226702583967
0.52739512475546624 0.26673460599711662 0.18991887541081806 0.0089928520749501945 0.53238080102930752 -0.84645721174017463
0.54279867771838042 0.26683506047641103 0.1897796588052966 -0.0078836394165296333 -0.53970836101192565 0.84181514198983798
0.55262099883681781 0.26692181456854547 0.18992935269740813 -0.0076206146014031993 -0.53933104672627796 0.84205934961274209
0.55779656800553046 0.26678401912974631 0.19012805961453744 0.0060407384031751082 0.53370817102798751 -0.84564714725321743
0.56273253244391208 0.26690956773391128 0.19022987438379063 0.0058639652296255612 0.53367376591791849 -0.84567010440405921
0.56730320003860357 0.26693560712012976 0.1900488985392785 -0.0072526657171751528 -0.53894185700844854 0.84231174371741946
0.58391765713016797 0.26616859489937206 0.18979383920730011 0.0056822175367766828 0.5326710718143266 -0.84630327995113031
0.52752629840560772 0.27795573751477842 0.19673579745505271 -0.008325534349820897 -0.541624531359433 0.84057929578800861
0.58793574540768123 0.26678354782638097 0.1900413059182042 -0.0069382624062285523 -0.53846466954574246 0.84261952277749697
0.61446119220659712 0.26566145604518782 0.1894307194866961 -0.0072128669077036484 -0.53741500984065504 0.84328706959667088
0.21261068414068487 0.15781944756247951 0.12163104513231225 0.0039929488295754783 -0.52224296310294327 0.85278739662890324
0.65500458409442541 0.26771836418077455 0.19110277929765204 -0.0084438716309378839 -0.53583413921144507 0.84428104105647783
0.67842872985695002 0.26532888962133944 0.18990929326783032 -0.0088156775317221308 -0.53501859249248285 0.84479428828385161
0.1724905072889456 0.15783238244596703 0.12183785259091846 0.004426877181652608 -0.52307674063447052 0.85227409098577989
0.16761099945395636 0.15749361443643881 0.12260231552452933 0.011494239517972949 0.52050814095757103 -0.85377933780034576
0.16262629464937145 0.15794681709255531 0.12196254007222665 0.0045026525545598514 -0.52317762240870502 0.85221177035449802
0.15251062124004297 0.15768384299201138 0.12185728778909777 0.0045628256806223722 -0.52324604174737954 0.85216944348967816
0.14744387684215904 0.15767052705639745 0.12187477451192466 0.0045297917860462394 -0.52321258020793737 0.85219016475111231
0.14236499883229534 0.15762537166484181 0.12187748424153162 0.0045752782279451978 -0.52325033829344225 0.85216673855820912
0.13232356586648106 0.15775028747412745 0.12237462424257463 0.016583920000597406 0.52133527127666068 -0.85319078084582256
0.72611745434085306 0.15391142278731132 0.11909986005535356 -0.10637378278598665 0.52780108973940565 -0.84268062040472702
0.72218751585631002 0.1537331153301297 0.12019829007479541 0.015471875974872493 -0.53600887617641912 0.844070557307806
0.71229798380558762 0.15362037658164854 0.12029107281914089 0.014950833092657489 -0.53576247907066099 0.84423636418357095
0.70758101456497069 0.15312211542473972 0.12079818384643767 -0.095471082596231938 0.52748958100627974 -0.84418008405654943
0.70253142322980722 0.15285528215944938 0.12114580001528145 -0.092127767146292339 0.52741960954595724 -0.84459518704941039
0.69741209945648963 0.15347563481683357 0.12045983525220358 0.013962837835876308 -0.53548529003475054 0.84442912273083526
0.68745417584925628 0.15328803336027008 0.12045928018825876 0.012749179184241864 -0.53505549905760297 0.84472070612620087
0.68250117437270208 0.15327740980472804 0.12050868701826077 0.011850412954487011 -0.53489852813464023 0.84483319792264533
0.67721321309145277 0.15346717833077175 0.12070341366394328 0.010827860116571707 -0.53483035047328853 0.84489008377298125
0.66748903806483351 0.15338806254082721 0.12073837614772431 0.0088863407128851116 -0.53464373371733942 0.84503083431642734
0.66242783586458076 0.15254109823604273 0.12205300159093828 -0.039044440801859516 0.52566641562983285 -0.84979429929916206
0.6578245289922009 0.15322688270907381 0.1206621657687349 0.0063555683436351219 -0.53436130423951622 0.84523227770978582
0.647520901253412 0.15317272734914891 0.12062798990474685 0.0039665358060156242 -0.53433745544102196 0.84526194183017234
0.64246278759507647 0.15320322210159845 0.12062975316009249 0.0029500289063332063 -0.53428202192001473 0.8453011406490073
0.22193105631067578 0.26962535542771709 0.19195035995068671 0.0080651972115268773 -0.51107034458620826 0.85950105030678903
0.23189646613832091 0.26937268813312232 0.19165300764764437 0.007520538974711978 -0.51084511274657696 0.8596398735961861
0.23725546687106344 0.26880732678834152 0.19232587179344413 -0.0032521549390688953 0.49385967310060974 -0.869535535083651
0.24267338789385934 0.26941592679516874 0.19156338571130951 0.0067952188495949296 -0.51020500476106856 0.86002597525745939
0.24818521132550531 0.26965213427390289 0.19165915127266284 0.0065531478856230311 -0.50988480679777048 0.86021772828138654
0.25753326759321266 0.26960115555950676 0.19156152209291163 0.0059322608888181718 -0.50918075569569432 0.86063916150144404
0.26293009675058737 0.269473221808056 0.19144570721161971 0.0056234172772786578 -0.50893087126321646 0.86078902493781195
0.26750739977893445 0.26961778600574843 0.19150033348502343 0.005380152198563211 -0.50867859602783849 0.86093968424359868
0.56251437550193739 0.15393139246216339 0.12013532684729496 -0.0048539450185947838 -0.53309728521106714 0.84604002489146257
0.13254370032920434 0.11742801679492741 0.097412251081769721 0.012470328465165157 0.51545792458728812 -0.85682414700341891
0.13756574996301091 0.11738650775961972 0.097288640861477649 0.00067502086465582602 -0.51799899457630794 0.85538095955238935
0.55775629730695575 0.15409733263187783 0.11991822990414519 0.0034441367364278271 0.52752211727696707 -0.8495343157905787
0.14743654121647937 0.11745584813606087 0.097324894946147308 0.00070433321584758484 -0.51802131429580101 0.85536741921233594
0.55236199558962629 0.1541863985200965 0.12015909904697175 -0.0050339587266485771 -0.53255712704179214 0.84637909100859221
0.15757428034033599 0.11732498720692208 0.097648137748365921 0.010014844866518484 0.51414926928148041 -0.85764225162920893
0.54688328605674819 0.15436206199815244 0.12020369390798814 -0.005114296597766149 -0.53227354907961233 0.84655697559024545
0.53744613416087006 0.15421527399020518 0.12000611892116722 -0.005139150489229017 -0.53186594672027088 0.84681296863687605
0.27772624969791038 0.27009272082158559 0.19172022063201488 0.0048588497958070966 -0.50807485057254975 0.86129921502015949
0.17756261804576343 0.11751270631042041 0.097780560449371154 0.0052080267862195228 0.5118889021653682 -0.85903587136797044
0.28270103426666265 0.2703473148506032 0.19183361938694632 0.0046207637822470371 -0.50792726407027966 0.86138756837799157
0.18714622494848041 0.11726602819374735 0.097581017132300774 0.0030997407503408347 0.51093856709722452 -0.85961164037018223
0.19254853800176355 0.11723348927219185 0.097547334379521192 0.0025147367700155132 0.5107315617095799 -0.85973655730849963
0.19778576076448842 0.11717627800145035 0.097499531007899348 0.002033850353098437 0.51063284965652223 -0.85979646213763916
0.2875793840001124 0.27034934033256425 0.19179274281300557 0.0043880778746226822 -0.50784763937768762 0.86143573175894927
0.20756303063511611 0.11738506790315699 0.097571770446954489 0.0010033934287825639 0.51026477103948054 -0.86001677695127188
0.50738080714511125 0.27830774237098055 0.19672900441339189 -0.0086896031058801872 -0.54282710117295441 0.83979951716467982
0.50755199925370276 0.15468231418995437 0.11990426091850943 -0.005048270472815689 -0.52976329311434722 0.84813051367927772
0.49254248133488682 0.2783702004528058 0.19660339023443615 -0.0088352048243283601 -0.54342089770814106 0.83941388306948461
0.4976482903730422 0.15460991632538748 0.11972864491679946 -0.0048656183345876106 -0.5290477528775811 0.84857810538182288
0.48235124216414338 0.27812162904248111 0.19633355473859587 -0.0088826217103663719 -0.54351565453944561 0.83935203121342861
0.48754540371817179 0.15439405051162228 0.11944597014108492 -0.0045655700549675658 -0.5281401899091277 0.84914492012425291
0.48231003512753351 0.15441863163412098 0.11939730859713092 -0.0043875234437211136 -0.52776338801649203 0.84938010096033245
0.47241942069143994 0.15466722272755123 0.11941926301953859 -0.0039401071408135023 -0.52693614699069391 0.84989574216507324
0.46757881373687465 0.27819587554108727 0.19622953907578009 -0.0088778385089664721 -0.54315214486204577 0.83958735788193484
0.46237486429953001 0.27825983641873375 0.19621925153673203 -0.0088353332613038682 -0.5427602422526272 0.83984120898895598
0.46806945983932846 0.15449166485658633 0.11931904842539547 0.0021162917898769089 0.52504130154818607 -0.85107411720580872
0.45249050864024859 0.27839569212309229 0.1962036685907913 -0.008761091553693973 -0.54201856669827697 0.84032084148206931
0.44752536611247046 0.27829412668311254 0.19608809422045978 -0.008667027710392532 -0.54137046501784936 0.8407394972505009
0.44259025250681466 0.27842308855751768 0.19611850394306338 -0.0085754355099545258 -0.54075349513279536 0.84113739627214323
0.43759150149947273 0.27804548872903218 0.19582974378214182 -0.0084136376814749458 -0.53983313797112809 0.8417300005638445
0.4325169745097131 0.27843920072638001 0.19602801616312956 -0.0082772640528130104 -0.53908063242166226 0.8422134875716849
0.45734902851913511 0.15497028540323121 0.11942697554825363 -0.0031473164704104457 -0.52575617177356704 0.85062949763162954
0.29724451345237285 0.11772950124281588 0.097392126497294229 -0.0035867227423660186 0.51237270223409315 -0.85875569833643772
0.30248800854054159 0.11751009842477239 0.096974334770114953 0.0027644730616160637 -0.5137707633490245 0.85792305040513528
0.4531563718916034 0.15467764423454064 0.11921588248572366 -0.0029087232039957714 -0.52552386336261747 0.85077388791955255
0.44875158351117256 0.15493443524563905 0.11949688919578937 0.0014108232787343421 0.52416362967751717 -0.85161640361195889
0.31775228388109616 0.11809581001961848 0.097281047811405383 0.003037356217923655 -0.51371205375561169 0.85795728348991651
0.32253158191590559 0.11777133896191441 0.097073483757960211 0.0031353261832454201 -0.51370428747251529 0.85796158116904042
0.4418068289006194 0.15510166428564193 0.1193800448658979 -0.0022685442132402583 -0.52481510106007534 0.85121323028161133
0.43663362565595365 0.15477782438519747 0.11914753893114292 -0.0018184855481232361 -0.52435310973795257 0.85149897793153562
0.4273796353197038 0.27832146515289136 0.19590211401148239 -0.0080119127580262073 -0.5378233564087862 0.84301948171744268
0.42251782047859254 0.27841198739958917 0.19591381732873606 -0.0077575606733389273 -0.53667874509670621 0.84375099692612154
0.41731412284819297 0.27855987534900911 0.19595917780436867 -0.007428443850765085 -0.53528426016704478 0.84463931890445132
0.35274998362250526 0.11763865938090182 0.096874030275408654 0.0039605818130261719 -0.51436977236249015 0.85755935717095544
0.42764765665010152 0.15447985045941859 0.11920534758193838 0.00034023690418026294 0.52302664273204802 -0.85231626479335221
0.3626737395912597 0.11798413372182349 0.097341738353726351 -0.0052540181133105537 0.51919279782767791 -0.85464099713127095
0.36758552133300171 0.11799698179864165 0.097309795581751984 -0.0050175921360122331 0.51959677751489164 -0.85439687064343628
0.37250286748084183 0.11822684958801309 0.097417393982379155 -0.0049319941682937221 0.51986124662248567 -0.85423647761825239
0.42201817433239713 0.15496210952275316 0.11949715606335119 0.00034385965873670046 0.52285297312168966 -0.85242281190635949
0.38227613645998731 0.11806851416729242 0.096933951668854601 0.0043182216068734288 -0.51599599603254631 0.85658011011261193
0.38713522463318389 0.11813751816573416 0.09694020911080381 0.0042906280145356525 -0.51637214358323313 0.85635354839137423
0.41262721214155701 0.27867966432221264 0.19599522859796811 -0.0070503625047375219 -0.53380527984762083 0.84557803637237117
0.4075143243973266 0.27876786957359739 0.19598579071493116 0.0078492902682440868 0.52449220405402297 -0.85137906747161574
0.40243747447189332 0.27860454222513453 0.19582740802452883 0.0076826519040278339 0.52423207254034343 -0.85154078644523989
0.39764599429747238 0.2784271781249788 0.19574463504663245 -0.0057131875768668301 -0.52896834650556945 0.84862232346484701
0.41254895162403155 0.11831369257052277 0.096886083552820093 0.0034150561609813728 -0.51851486195210617 0.85506179620317835
0.41725191793990796 0.1179729555634932 0.096665595380004382 0.0031285179222436733 -0.51901865684007664 0.85475718553723368
0.41709164164231416 0.15510549609576676 0.11929558923254736 -0.00025517604331970733 -0.52275271761150977 0.85248432895565185
0.38709857827118666 0.15480827688465734 0.11946661983486988 -0.00071580569670113723 0.52134748319500845 -0.85334417991126821
0.31727325368925713 0.2702899372641745 0.19140656580110293 0.0025313070629953026 -0.50931851828297703 0.86057436600132675
0.32245826570094643 0.27045734769865815 0.19143310003092703 0.0021468872059712575 -0.50996430882571098 0.8601928822067989
0.36726996738993434 0.15491634064794285 0.11933486660359086 0.0019100127771903876 -0.51971832356974046 0.85433554063789807
