0.457516 0.143176 0.111691
0.462536 0.143137 0.11169
0.467275 0.14303 0.111801
0.472693 0.142822 0.112424
0.477559 0.142444 0.112962
0.482641 0.14228 0.113212
0.48743 0.142265 0.113151
0.492428 0.142411 0.112848
0.497492 0.142527 0.112544
0.502571 0.14253 0.112399
0.507605 0.142769 0.112271
0.512498 0.142742 0.112254
0.517477 0.142729 0.112436
0.522473 0.142824 0.112545
0.527158 0.142892 0.112474
0.532669 0.142851 0.112416
0.537562 0.142843 0.112364
0.542482 0.142712 0.112177
0.547687 0.142687 0.112088
0.552528 0.142871 0.112219
0.557648 0.142915 0.112357
0.562631 0.142616 0.11234
0.567404 0.142344 0.112357
0.572531 0.142129 0.112493
0.227295 0.272427 0.192627
0.222845 0.272516 0.192343
0.212407 0.272616 0.192152
0.592563 0.142221 0.11323
0.597489 0.142482 0.113511
0.602557 0.142159 0.113278
0.607462 0.14202 0.11316
0.612355 0.141701 0.11299
0.617632 0.141821 0.113079
0.622458 0.141606 0.112956
0.20761 0.272385 0.192156
0.202503 0.272366 0.192314
0.637335 0.142114 0.113237
0.642569 0.142113 0.113318
0.647165 0.14168 0.113183
0.65244 0.141358 0.113156
0.657655 0.141537 0.113443
0.662651 0.141529 0.113609
0.667648 0.141606 0.113667
0.197517 0.272203 0.192512
0.192695 0.271998 0.192624
0.682585 0.141857 0.113182
0.687529 0.142274 0.113121
0.692618 0.142265 0.11294
0.697219 0.142267 0.112859
0.702744 0.142197 0.112797
0.707179 0.142214 0.112613
0.712327 0.142528 0.112531
0.717558 0.142852 0.112087
0.721547 0.143118 0.111206
0.726168 0.144582 0.110119
0.162496 0.271773 0.194229
0.13258 0.145875 0.115122
0.137233 0.145909 0.115252
0.142452 0.145886 0.115176
0.147419 0.145998 0.115161
0.152379 0.146003 0.115037
0.157631 0.145975 0.114981
0.162705 0.145932 0.114899
0.167758 0.146086 0.114986
0.172426 0.145952 0.114777
0.177205 0.14618 0.114751
0.182499 0.146058 0.11459
0.187539 0.146079 0.114661
0.192264 0.146147 0.114823
0.157438 0.272028 0.194197
0.152702 0.271819 0.194065
0.147673 0.271945 0.194035
0.21287 0.145858 0.114807
0.217491 0.145706 0.114663
0.142675 0.271832 0.193855
0.137459 0.272133 0.193747
0.132556 0.272513 0.193395
0.7076 0.267855 0.192158
0.702502 0.267869 0.191871
0.697451 0.268027 0.191461
0.682459 0.268267 0.191623
0.677539 0.268203 0.191748
0.672548 0.268305 0.191784
0.657549 0.268285 0.191416
0.652444 0.268121 0.191595
0.277199 0.145758 0.114361
0.282554 0.146771 0.115024
0.287366 0.145922 0.114631
0.637506 0.268033 0.191721
0.622423 0.268062 0.191174
0.617662 0.268447 0.191349
0.6125 0.268535 0.19127
0.602243 0.268577 0.190893
0.317522 0.145586 0.114237
0.322299 0.14571 0.114224
0.597486 0.268466 0.190986
0.592482 0.268395 0.191222
0.587525 0.268337 0.19129
0.572465 0.268139 0.191457
0.567561 0.268216 0.191259
0.562539 0.26839 0.191016
0.557571 0.268549 0.190784
0.552707 0.268483 0.190656
0.547469 0.268379 0.190524
0.542548 0.268553 0.190207
0.377381 0.145824 0.114277
0.383102 0.145414 0.114208
0.537457 0.268692 0.189893
0.532505 0.268838 0.189799
0.527471 0.268872 0.189905
0.522438 0.268985 0.19007
0.517691 0.269159 0.19027
0.413215 0.145962 0.114816
0.41745 0.146033 0.114928
0.422529 0.145911 0.114716
0.427312 0.146295 0.114687
0.432063 0.146719 0.114731
0.438051 0.146835 0.114463
0.442668 0.146462 0.114
0.446951 0.146207 0.113575
0.452124 0.146049 0.113454
0.457668 0.146398 0.113689
0.461984 0.146551 0.113806
0.467278 0.146447 0.114047
0.472309 0.146109 0.114451
0.4776 0.145596 0.114826
0.512571 0.268978 0.19034
0.487369 0.145418 0.115104
0.492317 0.145645 0.114883
0.497326 0.146296 0.115055
0.502382 0.146066 0.11484
0.507391 0.146465 0.114879
0.512437 0.146135 0.114525
0.517601 0.145755 0.114385
0.522178 0.145881 0.114537
0.52692 0.146247 0.114688
0.532768 0.146032 0.114424
0.537396 0.145963 0.114286
0.542477 0.146205 0.114434
0.547736 0.146611 0.114688
0.552526 0.146353 0.11456
0.557217 0.146019 0.114437
0.562596 0.146511 0.114899
0.507397 0.268929 0.190842
0.50237 0.26873 0.190949
0.497583 0.268616 0.190744
0.492863 0.26858 0.190638
0.487495 0.268096 0.190534
0.482428 0.26819 0.190986
0.477572 0.268487 0.191338
0.472837 0.268458 0.191253
0.467946 0.268529 0.19117
0.462379 0.26885 0.191185
0.457303 0.269045 0.191043
0.452429 0.268786 0.190387
0.447746 0.268906 0.190244
0.637933 0.145412 0.115304
0.642476 0.145601 0.115513
0.647654 0.145437 0.115613
0.652133 0.145348 0.115689
0.65752 0.145339 0.115873
0.662484 0.145497 0.116142
0.667611 0.145638 0.116221
0.672566 0.145669 0.116036
0.67749 0.145602 0.115777
0.682649 0.145615 0.115471
0.687736 0.146052 0.115371
0.692344 0.146134 0.115255
0.697617 0.146099 0.115237
0.702739 0.146437 0.115295
0.707725 0.146296 0.115087
0.712598 0.14633 0.114847
0.717529 0.146833 0.114582
0.722637 0.147053 0.113671
0.725646 0.148027 0.1131
0.143306 0.148741 0.117231
0.147405 0.148778 0.117184
0.152428 0.149331 0.117438
0.157349 0.149053 0.117191
0.162756 0.148812 0.116886
0.166911 0.148827 0.11682
0.179253 0.148968 0.116482
0.18258 0.148958 0.116523
0.187388 0.148911 0.116521
0.283525 0.14899 0.116462
0.285588 0.147314 0.115457
0.387989 0.149189 0.116632
0.390597 0.149314 0.116626
0.417672 0.149769 0.117044
0.422387 0.149011 0.116443
0.428149 0.149682 0.116506
0.43275 0.1501 0.116504
0.437868 0.150808 0.116581
0.442589 0.151119 0.116582
0.446363 0.148705 0.115109
0.457636 0.149654 0.115615
0.462272 0.150315 0.116204
0.467163 0.149729 0.116225
0.472438 0.149265 0.116533
0.477553 0.14928 0.117122
0.497633 0.14973 0.117371
0.502044 0.149514 0.117153
0.538473 0.149116 0.116436
0.542389 0.149349 0.116657
0.547592 0.149503 0.116781
0.552891 0.14935 0.116634
0.557363 0.149444 0.116735
0.560828 0.149561 0.116838
0.442723 0.269043 0.190069
0.708254 0.149135 0.116684
0.713016 0.149289 0.116588
0.716347 0.149665 0.116412
0.724146 0.150138 0.115144
0.726472 0.151273 0.114947
0.366769 0.15532 0.119751
0.43767 0.269148 0.189955
0.367035 0.156906 0.120672
0.472576 0.138394 0.109566
0.134265 0.141649 0.111846
0.137139 0.142109 0.112327
0.413632 0.140772 0.111751
0.417589 0.140658 0.111763
0.420734 0.142629 0.112858
0.470214 0.141499 0.111162
0.471339 0.14072 0.110741
0.659192 0.140888 0.113038
0.661256 0.141724 0.113607
0.432596 0.269256 0.189959
0.132605 0.144284 0.113853
0.137668 0.144541 0.114161
0.142294 0.14427 0.113965
0.147303 0.144852 0.114289
0.152867 0.145092 0.114378
0.157328 0.144414 0.113825
0.162183 0.144311 0.113727
0.167629 0.144665 0.113969
0.172226 0.145114 0.114166
0.176907 0.145452 0.114216
0.182571 0.145441 0.114147
0.187943 0.145005 0.113927
0.19205 0.14475 0.113829
0.427167 0.26902 0.18978
0.203307 0.144856 0.114224
0.207579 0.144271 0.113895
0.212378 0.144648 0.114025
0.217553 0.144791 0.114083
0.422312 0.269108 0.189897
0.41755 0.269104 0.190009
0.279012 0.145233 0.114048
0.282898 0.14517 0.114048
0.287066 0.145212 0.114167
0.412701 0.269045 0.190018
0.407437 0.269012 0.190081
0.402621 0.268973 0.189924
0.316919 0.145428 0.114137
0.397641 0.269023 0.189676
0.393079 0.269408 0.189721
0.386739 0.268894 0.18936
0.382189 0.268861 0.189338
0.377371 0.26875 0.189244
0.374148 0.145598 0.114034
0.377078 0.144274 0.113295
0.3806 0.144646 0.113568
0.37246 0.269183 0.189534
0.367195 0.26917 0.189718
0.412808 0.143816 0.113516
0.417369 0.144703 0.11407
0.42188 0.145112 0.114225
0.427496 0.144981 0.113937
0.431818 0.145034 0.113812
0.439192 0.145387 0.113564
0.442847 0.145665 0.113417
0.447504 0.145743 0.113221
0.462355 0.145722 0.113229
0.468164 0.145087 0.113103
0.471203 0.14514 0.113526
0.487916 0.144947 0.114696
0.492453 0.144824 0.11429
0.497553 0.144973 0.114137
0.502922 0.145147 0.114114
0.507464 0.145026 0.113761
0.512237 0.145101 0.113777
0.517543 0.145044 0.113721
0.522136 0.145098 0.113915
0.525445 0.145539 0.114229
0.532148 0.145345 0.113938
0.537233 0.145462 0.113906
0.542905 0.145419 0.113855
0.547342 0.145438 0.113858
0.552303 0.145366 0.113852
0.55859 0.145593 0.11419
0.563668 0.145249 0.114036
0.56774 0.145144 0.114213
0.573182 0.144913 0.114351
0.362287 0.269112 0.189875
0.35725 0.269115 0.190012
0.352382 0.269135 0.190194
0.347035 0.269179 0.190495
0.597113 0.144597 0.114826
0.342259 0.268845 0.190376
0.337504 0.269069 0.190525
0.332251 0.268795 0.190308
0.327195 0.268804 0.19008
0.322558 0.269004 0.18994
0.317416 0.269374 0.189886
0.31335 0.270055 0.190244
0.307584 0.268078 0.189131
0.642422 0.143933 0.114432
0.647653 0.143705 0.114509
0.652502 0.143593 0.114573
0.657786 0.14371 0.114802
0.66208 0.14406 0.11519
0.667508 0.143963 0.115192
0.292726 0.268251 0.189579
0.286984 0.268684 0.190087
0.682434 0.144153 0.114497
0.687317 0.144361 0.114295
0.692515 0.144434 0.114169
0.697626 0.14415 0.113946
0.702368 0.14406 0.113849
0.707335 0.144426 0.11384
0.712388 0.144538 0.113741
0.717256 0.145059 0.113464
0.722218 0.145417 0.112623
0.725389 0.146436 0.11193
0.282079 0.268403 0.190183
0.132493 0.148259 0.116893
0.137361 0.148162 0.116824
0.142791 0.148194 0.116718
0.147674 0.148227 0.116705
0.152473 0.148234 0.116577
0.157661 0.148341 0.116592
0.162545 0.148289 0.116441
0.16749 0.148293 0.116371
0.172487 0.148492 0.116364
0.17757 0.148723 0.116335
0.182608 0.148429 0.116117
0.187344 0.148506 0.116214
0.277146 0.26866 0.190503
0.272158 0.268478 0.190512
0.2672 0.268819 0.190723
0.262693 0.268774 0.190487
0.257708 0.268365 0.190024
0.252418 0.268419 0.190052
0.247371 0.268986 0.190409
0.242331 0.268637 0.190416
0.237341 0.268893 0.190679
0.232265 0.268438 0.190421
0.227393 0.268758 0.190463
0.222528 0.267929 0.189676
0.217391 0.268697 0.189934
0.202357 0.26904 0.190505
0.197276 0.269171 0.190785
0.162529 0.2684 0.191975
0.157328 0.267927 0.191534
0.152464 0.267862 0.191534
0.282354 0.148429 0.116088
0.287483 0.148223 0.11603
0.147616 0.267652 0.191408
0.142369 0.267926 0.191596
0.137536 0.267733 0.19137
0.132379 0.268317 0.191116
0.703 0.264316 0.18972
0.697443 0.264929 0.189525
0.682603 0.264725 0.189367
0.677643 0.264545 0.189537
0.672218 0.26454 0.189624
0.657407 0.264863 0.1894
0.652533 0.264633 0.189491
0.622458 0.264936 0.188844
0.617636 0.264841 0.188817
0.612705 0.265051 0.188847
0.607524 0.26453 0.188452
0.602737 0.265132 0.188742
0.597064 0.265017 0.18878
0.592837 0.265034 0.188917
0.382511 0.148128 0.115925
0.587947 0.265405 0.189142
0.584778 0.265299 0.189116
0.576841 0.265306 0.189315
0.572182 0.26522 0.189248
0.567817 0.264893 0.188908
0.412359 0.14828 0.116152
0.417593 0.147961 0.116002
0.42258 0.148191 0.115951
0.427538 0.148422 0.115816
0.432437 0.148387 0.115586
0.43732 0.148407 0.115352
0.442388 0.148585 0.115107
0.447429 0.148626 0.114901
0.452439 0.148501 0.114886
0.457481 0.148785 0.115036
0.462569 0.148742 0.115153
0.467537 0.148641 0.115426
0.472722 0.148361 0.115936
0.477554 0.147999 0.116287
0.482485 0.147764 0.116554
0.487577 0.147965 0.116619
0.492594 0.148242 0.116442
0.497629 0.14798 0.116122
0.502522 0.148174 0.116137
0.507639 0.148196 0.115946
0.563544 0.265495 0.189089
0.556794 0.2657 0.188769
0.551743 0.265591 0.188688
0.548181 0.265662 0.188761
0.532533 0.148385 0.115981
0.537553 0.148274 0.115833
0.542427 0.148422 0.115933
0.547332 0.148521 0.116043
0.552863 0.148327 0.115899
0.557499 0.148222 0.115861
0.562486 0.14825 0.116045
0.567209 0.148334 0.11628
0.5424 0.265643 0.188371
0.537496 0.265375 0.187798
0.533236 0.265534 0.187736
0.527791 0.266109 0.188129
0.520802 0.264816 0.187275
0.517447 0.265063 0.187448
0.512841 0.265396 0.18783
0.506919 0.265793 0.188517
0.5019 0.265369 0.188389
0.497815 0.265373 0.188377
0.492795 0.265728 0.188635
0.487802 0.266923 0.189614
0.632869 0.148091 0.116982
0.637502 0.147894 0.116883
0.642459 0.147955 0.117003
0.64725 0.147928 0.117131
0.652593 0.148029 0.117348
0.657556 0.1478 0.117392
0.662448 0.148093 0.117693
0.667468 0.147864 0.117537
0.672369 0.147996 0.117386
0.677525 0.148044 0.117062
0.68253 0.148083 0.116855
0.687153 0.148324 0.116705
0.692488 0.148493 0.116515
0.697276 0.148664 0.116516
0.702468 0.148598 0.116417
0.707349 0.148818 0.116431
0.712254 0.148517 0.116026
0.717165 0.148856 0.115778
0.721889 0.14925 0.115166
0.725873 0.14985 0.114097
0.481657 0.265494 0.189188
0.132546 0.151381 0.119018
0.137506 0.15127 0.118954
0.142597 0.151367 0.118956
0.147449 0.15167 0.119045
0.152242 0.151827 0.119106
0.157695 0.151778 0.119006
0.162735 0.1518 0.118813
0.167518 0.151814 0.118662
0.172577 0.151981 0.118594
0.177399 0.152248 0.118614
0.182478 0.152192 0.118504
0.187542 0.152271 0.118624
0.477458 0.264456 0.188715
0.472755 0.264542 0.188702
0.467553 0.265142 0.188958
0.462454 0.265196 0.188764
0.457673 0.264902 0.188349
0.453064 0.264648 0.188008
0.445355 0.265957 0.188457
0.440586 0.265892 0.188184
0.436914 0.26562 0.187838
0.432795 0.265889 0.187897
0.427848 0.26603 0.188094
0.422968 0.265944 0.188161
0.417414 0.265447 0.187916
0.412801 0.265418 0.187923
0.40887 0.265935 0.188291
0.402353 0.265777 0.187939
0.39884 0.265741 0.187851
0.277749 0.152272 0.118442
0.28218 0.152159 0.118393
0.287437 0.152274 0.118489
0.386161 0.265561 0.187263
0.382769 0.265667 0.1872
0.361535 0.265935 0.187673
0.357171 0.265969 0.187852
0.354076 0.266076 0.188177
0.340836 0.265983 0.188576
0.337208 0.266048 0.188521
0.332198 0.265496 0.188099
0.327476 0.265531 0.187999
0.323212 0.265398 0.187785
0.318194 0.266096 0.18801
0.30535 0.266158 0.187987
0.291937 0.265579 0.187963
0.28762 0.263599 0.186982
0.362426 0.152276 0.11803
0.367536 0.152245 0.117954
0.372568 0.152407 0.118006
0.282273 0.264039 0.187444
0.277437 0.265025 0.188291
0.387504 0.152197 0.118332
0.392367 0.152181 0.118307
0.27216 0.265184 0.188572
0.267802 0.265334 0.188611
0.26427 0.265509 0.188584
0.412557 0.152075 0.118304
0.417604 0.152256 0.118384
0.422411 0.152199 0.11815
0.427447 0.152297 0.117947
0.432402 0.152504 0.117732
0.437394 0.152598 0.11763
0.442555 0.152896 0.117645
0.447321 0.152857 0.117425
0.452373 0.152953 0.117379
0.45725 0.152734 0.117357
0.462327 0.152689 0.117579
0.467442 0.152403 0.117817
0.472414 0.152008 0.118246
0.477562 0.151768 0.118625
0.482437 0.151734 0.118827
0.487633 0.151934 0.118857
0.492693 0.151822 0.11864
0.497463 0.152 0.11874
0.502536 0.15216 0.118706
0.507524 0.152066 0.118465
0.252546 0.265605 0.188235
0.24687 0.265953 0.188416
0.24257 0.266009 0.188589
0.237532 0.265843 0.188642
0.234881 0.265911 0.188771
0.537325 0.151943 0.118397
0.542178 0.151911 0.11836
0.547351 0.152181 0.118638
0.552451 0.152083 0.118532
0.557008 0.152127 0.118487
0.562541 0.151975 0.118462
0.567333 0.151744 0.118518
0.226777 0.265752 0.188556
0.222311 0.264584 0.187782
0.21874 0.26358 0.187153
0.181822 0.264063 0.18846
0.178787 0.26413 0.188575
0.155478 0.26689 0.190768
0.152861 0.265789 0.190142
0.150012 0.264813 0.18964
0.141945 0.263662 0.189151
0.137506 0.263671 0.189098
0.132455 0.263883 0.188672
0.12955 0.264404 0.188338
0.516926 0.26245 0.185872
0.637557 0.151499 0.119233
0.642464 0.15178 0.119463
0.647376 0.151398 0.119336
0.652647 0.151522 0.119542
0.657359 0.15123 0.119457
0.662339 0.150977 0.119365
0.66766 0.151224 0.119394
0.672692 0.151641 0.11941
0.677565 0.151793 0.119175
0.682423 0.151514 0.118775
0.687624 0.151137 0.118216
0.692677 0.151339 0.118145
0.697737 0.151692 0.118177
0.702631 0.151371 0.118113
0.707487 0.151372 0.118027
0.71256 0.151873 0.118049
0.71783 0.152054 0.11773
0.722479 0.152314 0.117079
0.725497 0.153703 0.117074
0.285795 0.262095 0.186172
0.13252 0.154815 0.121222
0.137556 0.154717 0.121196
0.142888 0.154509 0.120953
0.147249 0.154986 0.121172
0.15222 0.154993 0.121134
0.157138 0.155244 0.121137
0.161926 0.155275 0.121059
0.167459 0.155369 0.121029
0.172477 0.154957 0.120561
0.283514 0.261973 0.186197
0.220523 0.26269 0.186668
0.218258 0.26228 0.186438
0.198138 0.155171 0.120667
0.202342 0.155188 0.120767
0.206872 0.15489 0.120577
0.181699 0.261603 0.186827
0.217795 0.155298 0.120664
0.221718 0.155295 0.120614
0.179874 0.261905 0.187137
0.14166 0.259594 0.186675
0.137889 0.259746 0.186704
0.133419 0.260534 0.186785
0.427131 0.280825 0.196784
0.525467 0.276601 0.195655
0.523798 0.275979 0.195296
0.43081 0.277981 0.195098
0.428099 0.27825 0.195264
0.38804 0.277253 0.194312
0.52551 0.275616 0.194925
0.523 0.273631 0.193523
0.48214 0.273147 0.194064
0.444236 0.273578 0.192774
0.431389 0.274934 0.193361
0.318562 0.1564 0.120709
0.42844 0.274806 0.19318
0.405028 0.274066 0.193024
0.401871 0.274104 0.192962
0.340999 0.15746 0.121319
0.397391 0.274909 0.193129
0.353253 0.156624 0.120439
0.35804 0.156809 0.120555
0.362323 0.155879 0.120111
0.36656 0.154537 0.119302
0.372709 0.15533 0.119741
0.392439 0.274881 0.192972
0.387463 0.27444 0.192688
0.388497 0.155221 0.120215
0.392056 0.155636 0.12054
0.383281 0.274429 0.192756
0.402876 0.156364 0.120736
0.407388 0.156513 0.120817
0.412382 0.155941 0.120465
0.417138 0.155434 0.119995
0.427944 0.15582 0.119806
0.432198 0.15578 0.119578
0.437386 0.156338 0.119863
0.442141 0.155887 0.119504
0.447209 0.156656 0.119686
0.452532 0.156943 0.11982
0.457554 0.156544 0.119676
0.462046 0.156284 0.119845
0.467099 0.156076 0.120077
0.472142 0.156285 0.120731
0.477252 0.15574 0.120897
0.481969 0.155927 0.121294
0.487124 0.155285 0.120841
0.492975 0.155216 0.120738
0.497625 0.155591 0.120966
0.502431 0.155664 0.120876
0.507434 0.155127 0.120365
0.702422 0.268053 0.192022
0.517786 0.155535 0.120584
0.676506 0.267801 0.191551
0.656858 0.269918 0.192373
0.653289 0.269258 0.192284
0.53698 0.154952 0.120565
0.549483 0.154726 0.120441
0.552568 0.155048 0.120633
0.557681 0.15481 0.120351
0.562251 0.155109 0.120575
0.567583 0.155206 0.120787
0.571914 0.155292 0.121083
0.578236 0.155078 0.121288
0.581677 0.154561 0.121062
0.585469 0.154531 0.121131
0.617088 0.267505 0.190905
0.521451 0.270792 0.191496
0.636615 0.154853 0.12141
0.642365 0.154313 0.121109
0.64798 0.154625 0.121387
0.653078 0.154426 0.121457
0.656864 0.154525 0.121505
0.67388 0.154792 0.121044
0.678141 0.155948 0.121494
0.68269 0.155635 0.1211
0.687788 0.155043 0.12051
0.692728 0.155277 0.120357
0.697635 0.155689 0.120488
0.702737 0.155577 0.120434
0.707698 0.155332 0.120212
0.71254 0.155581 0.120215
0.71765 0.156479 0.120283
0.722662 0.156795 0.119789
0.72658 0.156601 0.118568
0.32001 0.159229 0.12232
0.342792 0.159051 0.122194
0.358813 0.159636 0.122148
0.362537 0.159128 0.121936
0.365833 0.157497 0.121013
0.407666 0.159069 0.122291
0.413526 0.159491 0.122424
0.417594 0.159618 0.122342
0.421138 0.160485 0.12265
0.438837 0.159805 0.121955
0.442568 0.160261 0.12218
0.447334 0.160016 0.121813
0.451124 0.16005 0.121788
0.463223 0.159517 0.121919
0.467655 0.159267 0.12213
0.498724 0.158525 0.122593
0.502077 0.158689 0.122611
0.679622 0.159232 0.123246
0.682651 0.158934 0.122992
0.687579 0.158812 0.122691
0.69252 0.159243 0.122644
0.697682 0.159498 0.12263
0.702769 0.159552 0.122615
0.707723 0.159614 0.122577
0.712805 0.159562 0.122365
0.717176 0.159873 0.122433
0.722866 0.159596 0.121623
0.72684 0.160258 0.121057
0.702971 0.162507 0.124235
0.705186 0.162492 0.124208
0.713877 0.162518 0.123941
0.518595 0.269458 0.190608
0.662153 0.145649 0.116152
0.12946 0.151042 0.118617
0.132981 0.150713 0.118508
0.137439 0.150657 0.1185
0.142028 0.150563 0.118358
0.148389 0.150568 0.118216
0.152357 0.150639 0.118229
0.156803 0.150704 0.118226
0.171813 0.151169 0.118007
0.472671 0.150835 0.117454
0.488882 0.149803 0.117533
0.490088 0.151002 0.118146
0.511478 0.270072 0.191394
0.643758 0.150691 0.118748
0.647854 0.150584 0.118796
0.65246 0.150591 0.118899
0.659281 0.149768 0.118584
0.66138 0.148928 0.118139
0.667365 0.150472 0.118963
0.672816 0.150705 0.118799
0.677579 0.150645 0.118444
0.681533 0.150649 0.118282
0.687472 0.150917 0.118001
0.692699 0.151076 0.117882
0.69786 0.151207 0.117828
0.703719 0.151251 0.117915
0.708052 0.151385 0.117891
0.712491 0.151173 0.117565
0.71722 0.151331 0.117285
0.721862 0.151789 0.116758
0.507837 0.268624 0.190675
0.132473 0.154002 0.120689
0.137333 0.154222 0.120806
0.142418 0.153969 0.120594
0.147405 0.153505 0.120144
0.152481 0.154071 0.120427
0.157582 0.153493 0.120009
0.162239 0.153796 0.120095
0.167614 0.153914 0.120004
0.172641 0.153502 0.119533
0.177359 0.153555 0.119368
0.502443 0.269509 0.191644
0.487042 0.26998 0.192023
0.482582 0.269704 0.192039
0.470444 0.269799 0.192145
0.202614 0.154381 0.120213
0.467133 0.270106 0.192257
0.462812 0.27029 0.192301
0.458323 0.270276 0.192112
0.452033 0.270119 0.19133
0.226943 0.154718 0.120198
0.447442 0.270569 0.191217
0.442874 0.271132 0.191313
0.437617 0.270574 0.190781
0.432301 0.271186 0.191112
0.427511 0.270629 0.190784
0.420523 0.269996 0.190553
0.416501 0.269867 0.190537
0.412362 0.270015 0.190766
0.407251 0.270234 0.190867
0.402749 0.270515 0.190989
0.397342 0.270585 0.190702
0.392022 0.270398 0.190314
0.387487 0.270284 0.190281
0.382656 0.270152 0.190225
0.377553 0.269796 0.190019
0.372277 0.269805 0.190038
0.367306 0.269998 0.190316
0.362457 0.270267 0.190723
0.357845 0.270327 0.19091
0.353289 0.269736 0.19067
0.34785 0.269833 0.190954
0.342148 0.269855 0.191084
0.337514 0.269925 0.191172
0.33289 0.269624 0.190857
0.327552 0.270005 0.190923
0.357206 0.1548 0.11941
0.36231 0.154926 0.119523
0.367271 0.15486 0.119426
0.372338 0.154812 0.119428
0.322452 0.270664 0.191064
0.317264 0.270666 0.190742
0.387099 0.154625 0.119768
0.39248 0.154442 0.11971
0.312562 0.270755 0.190744
0.292422 0.270355 0.19085
0.408205 0.154624 0.119746
0.412227 0.15446 0.119596
0.417092 0.154863 0.119692
0.422018 0.15491 0.119582
0.427647 0.154558 0.119077
0.432145 0.154521 0.118826
0.436634 0.154886 0.118971
0.441808 0.15529 0.119073
0.448751 0.155355 0.118808
0.453161 0.15506 0.118592
0.457354 0.155318 0.11886
0.463142 0.155028 0.118926
0.468069 0.154585 0.119166
0.472417 0.154526 0.119648
0.477411 0.154262 0.119942
0.482302 0.153997 0.120077
0.487539 0.154025 0.12004
0.492095 0.153725 0.119803
0.497645 0.154365 0.120122
0.503033 0.154567 0.12013
0.507551 0.154613 0.120016
0.287576 0.270637 0.191295
0.517137 0.1545 0.119812
0.282699 0.27053 0.19152
0.277725 0.270205 0.191529
0.272217 0.269757 0.191302
0.537446 0.154228 0.119985
0.542454 0.1542 0.12003
0.546883 0.154364 0.1202
0.552363 0.154252 0.120055
0.557758 0.15413 0.119868
0.562517 0.154094 0.119878
0.567423 0.154042 0.12003
0.267507 0.269709 0.191349
0.262929 0.269686 0.191093
0.582348 0.153691 0.120526
0.257532 0.269894 0.191076
0.252739 0.270143 0.191217
0.248184 0.269946 0.191168
0.242672 0.269669 0.191138
0.237246 0.269503 0.191102
0.231893 0.269673 0.191141
0.227509 0.269863 0.191139
0.221921 0.270178 0.191004
0.203138 0.26954 0.190722
0.195388 0.268403 0.190465
0.637461 0.15334 0.120454
0.642462 0.153325 0.120436
0.64752 0.153273 0.12047
0.652469 0.153212 0.120555
0.657824 0.153267 0.120605
0.662375 0.153364 0.120722
0.667488 0.153478 0.120602
0.6725 0.15373 0.120487
0.677206 0.153757 0.120243
0.68249 0.153656 0.119907
0.687437 0.153772 0.119689
0.692423 0.154052 0.11959
0.697387 0.154106 0.11946
0.70234 0.153944 0.119395
0.707412 0.153989 0.11941
0.712279 0.154222 0.119341
0.717247 0.154401 0.119088
0.72214 0.154752 0.118589
0.725859 0.154863 0.117591
0.704997 0.266454 0.191184
0.132311 0.157497 0.122776
0.137702 0.157224 0.122666
0.142366 0.157209 0.122548
0.147445 0.157289 0.12249
0.152512 0.157319 0.122446
0.157441 0.157498 0.122455
0.162628 0.157612 0.122504
0.167612 0.157621 0.122398
0.172492 0.157621 0.122181
0.702295 0.265391 0.190306
0.680021 0.264755 0.189568
0.678426 0.265266 0.190011
0.655 0.267587 0.19131
0.197483 0.157479 0.121934
0.202458 0.157512 0.1221
0.207498 0.157423 0.122019
0.212613 0.157531 0.122102
0.217467 0.15772 0.12212
0.222408 0.157583 0.12198
0.227602 0.157557 0.121961
0.232465 0.157817 0.122122
0.65386 0.266585 0.19086
0.618673 0.266167 0.189859
0.614462 0.265651 0.189445
0.605516 0.263535 0.187932
0.60142 0.264677 0.188572
0.597283 0.265207 0.188983
0.592624 0.266066 0.189751
0.587935 0.266718 0.190144
0.583918 0.266152 0.189818
0.571598 0.265377 0.18946
0.567301 0.266774 0.1903
0.562733 0.266951 0.190163
0.557799 0.267047 0.18972
0.552624 0.267083 0.189679
0.547559 0.267128 0.189687
0.312353 0.157744 0.121723
0.317348 0.15803 0.12169
0.542804 0.267097 0.189373
0.53767 0.267512 0.189161
0.532225 0.267031 0.188655
0.337627 0.157877 0.121566
0.342351 0.157865 0.121511
0.527413 0.267333 0.188977
0.352458 0.157753 0.121039
0.357334 0.158186 0.121335
0.362198 0.158414 0.121454
0.367507 0.158284 0.121378
0.372636 0.158073 0.121327
0.522171 0.267183 0.18887
0.517228 0.266692 0.188584
0.387333 0.157713 0.12175
0.392383 0.157872 0.121916
0.397346 0.157905 0.121659
0.40239 0.158011 0.121697
0.407551 0.158024 0.12167
0.412471 0.15789 0.121495
0.417418 0.158023 0.121411
0.422221 0.158174 0.121292
0.512163 0.266782 0.188867
0.432254 0.158263 0.121076
0.437395 0.158341 0.12102
0.442432 0.158249 0.120842
0.447482 0.15819 0.120576
0.452504 0.158251 0.12064
0.457553 0.158285 0.120744
0.462655 0.158195 0.120939
0.467485 0.157971 0.121238
0.472508 0.158063 0.121875
0.47739 0.157922 0.122123
0.482416 0.15778 0.122259
0.487405 0.157765 0.122286
0.492708 0.157674 0.122266
0.497779 0.157666 0.122139
0.502697 0.15761 0.121937
0.507569 0.157831 0.121873
0.512466 0.158082 0.121965
0.517345 0.157879 0.121952
0.522471 0.157726 0.122271
0.507654 0.266337 0.188947
0.503096 0.266084 0.189061
0.497573 0.266031 0.188962
0.542506 0.157598 0.122502
0.547411 0.157749 0.122616
0.552597 0.157804 0.122602
0.557563 0.157779 0.122406
0.562593 0.157768 0.122372
0.567448 0.157824 0.122489
0.572543 0.158053 0.122812
0.577777 0.157618 0.122801
0.582677 0.15764 0.123044
0.587484 0.157302 0.122898
0.492208 0.266173 0.189068
0.487572 0.266244 0.189417
0.60249 0.15734 0.122541
0.482519 0.265952 0.189646
0.477562 0.265648 0.18963
0.471929 0.26617 0.189912
0.467359 0.266151 0.189692
0.462535 0.266208 0.189572
0.632591 0.157044 0.122867
0.637514 0.157206 0.12286
0.642377 0.157105 0.122812
0.647447 0.157082 0.122891
0.652607 0.157288 0.123186
0.65748 0.157133 0.123043
0.45769 0.266337 0.189435
0.667667 0.15723 0.122693
0.672171 0.157103 0.122453
0.676908 0.157252 0.12229
0.682464 0.157273 0.121946
0.687393 0.157432 0.121704
0.69276 0.158187 0.121933
0.69718 0.157904 0.1216
0.702593 0.15759 0.121432
0.707308 0.157693 0.121463
0.712278 0.157975 0.121377
0.717265 0.157974 0.121054
0.722399 0.158438 0.120852
0.726307 0.158909 0.120259
0.452616 0.266494 0.189193
0.132757 0.161288 0.12493
0.137607 0.161428 0.125057
0.142608 0.160964 0.124755
0.147601 0.161131 0.124742
0.152646 0.161268 0.124779
0.157516 0.161368 0.124856
0.162269 0.161611 0.125016
0.167569 0.161445 0.124828
0.447335 0.26656 0.18896
0.442556 0.266896 0.188892
0.437486 0.266929 0.188719
0.432495 0.266848 0.188607
0.427603 0.267033 0.188762
0.422605 0.266581 0.188608
0.417465 0.266601 0.188612
0.412417 0.26703 0.188926
0.407821 0.266823 0.188846
0.21738 0.161328 0.124368
0.222341 0.161582 0.12447
0.22743 0.161565 0.124428
0.402619 0.266712 0.188617
0.397155 0.26632 0.188225
0.392083 0.267047 0.188395
0.387608 0.267067 0.188301
0.38235 0.26672 0.187973
0.377543 0.267336 0.188348
0.372538 0.267043 0.188066
0.367485 0.267098 0.188324
0.362612 0.267189 0.188602
0.357469 0.267189 0.188761
0.352203 0.266928 0.188895
0.347371 0.266542 0.188882
0.342908 0.266427 0.188915
0.33763 0.266413 0.188896
0.332633 0.26658 0.188921
0.327568 0.2671 0.189058
0.312297 0.161773 0.123979
0.322266 0.267369 0.188995
0.317041 0.267139 0.188676
0.312391 0.266888 0.188419
0.307638 0.26682 0.188429
0.337536 0.161417 0.12356
0.302606 0.266639 0.188355
0.297631 0.266712 0.188544
0.352644 0.161946 0.123399
0.357098 0.16175 0.123278
0.361576 0.162111 0.123499
0.367884 0.161509 0.123181
0.292598 0.266362 0.188492
0.287573 0.266578 0.188781
0.282557 0.26647 0.189013
0.277508 0.266382 0.189152
0.2725 0.266497 0.189383
0.26735 0.266253 0.189233
0.262303 0.266404 0.189118
0.407207 0.161489 0.123639
0.412897 0.161519 0.12356
0.417338 0.161999 0.12371
0.257553 0.266523 0.189007
0.252482 0.266632 0.189014
0.24736 0.266414 0.188853
0.437266 0.161996 0.123397
0.44234 0.161849 0.123096
0.447333 0.162006 0.122956
0.452533 0.161753 0.122764
0.457562 0.162003 0.123131
0.462292 0.16187 0.123405
0.467585 0.161784 0.123654
0.472569 0.161341 0.123828
0.477624 0.161517 0.124242
0.482243 0.161136 0.124207
0.487341 0.161267 0.124465
0.492609 0.161253 0.124276
0.497574 0.161236 0.124067
0.502446 0.161282 0.123892
0.507559 0.16155 0.124005
0.51222 0.161476 0.123973
0.517562 0.161307 0.124074
0.522571 0.161073 0.12434
0.242228 0.266659 0.189157
0.237469 0.266629 0.18925
0.537643 0.160434 0.124477
0.542775 0.160723 0.124719
0.547127 0.161033 0.124889
0.551875 0.160604 0.124508
0.558779 0.160335 0.124164
0.562361 0.160914 0.124466
0.567209 0.162287 0.12527
0.572356 0.160778 0.124475
0.579035 0.161027 0.124859
0.581891 0.160723 0.124786
0.232517 0.266492 0.189218
0.227424 0.266555 0.189137
0.597455 0.161342 0.124973
0.602606 0.161496 0.124879
0.607119 0.161481 0.124919
0.61244 0.16152 0.124939
0.222456 0.266526 0.188929
0.217661 0.266611 0.188887
0.212489 0.266723 0.189006
0.634327 0.160197 0.124731
0.637609 0.160587 0.124925
0.643004 0.160992 0.125201
0.197585 0.266313 0.189204
0.177104 0.266027 0.189946
0.157456 0.265286 0.189733
0.152691 0.265022 0.189693
0.667576 0.161466 0.125158
0.672519 0.161424 0.124849
0.677441 0.161397 0.124527
0.682641 0.162131 0.12462
0.687286 0.162506 0.124677
0.692453 0.162415 0.124378
0.696355 0.162678 0.124375
0.708951 0.162457 0.124087
0.710458 0.162209 0.123938
0.718553 0.162162 0.123516
0.722637 0.161838 0.123006
0.72604 0.162598 0.122945
0.147098 0.265425 0.190074
0.137464 0.164823 0.126955
0.140453 0.166064 0.127662
0.162134 0.164544 0.12685
0.16693 0.164511 0.12682
0.183481 0.16456 0.126273
0.187554 0.164538 0.126253
0.191014 0.164499 0.12619
0.142603 0.265518 0.19018
0.22073 0.164253 0.126083
0.137773 0.265309 0.19004
0.132367 0.265797 0.189713
0.702379 0.262155 0.188362
0.307663 0.165167 0.126063
0.312829 0.164997 0.125789
0.697518 0.262696 0.18823
0.32939 0.165281 0.125794
0.332632 0.165979 0.126166
0.335964 0.166474 0.126408
0.682335 0.262022 0.187738
0.354632 0.165308 0.125381
0.357759 0.16521 0.125352
0.362148 0.166294 0.126077
0.365173 0.166481 0.126188
0.677667 0.261908 0.18811
0.652551 0.26219 0.187929
0.622168 0.262888 0.187393
0.617486 0.262685 0.187387
0.612478 0.262515 0.187247
0.438881 0.164852 0.125095
0.442387 0.165711 0.125581
0.446822 0.165211 0.125071
0.458439 0.165505 0.125511
0.462219 0.165692 0.125853
0.467284 0.165378 0.125901
0.471708 0.165622 0.126329
0.477227 0.165147 0.126429
0.483091 0.164709 0.126473
0.487329 0.165033 0.126643
0.492606 0.165023 0.126385
0.497484 0.165274 0.126277
0.502485 0.165047 0.126058
0.507298 0.165478 0.126316
0.511329 0.165436 0.126261
0.523142 0.164077 0.12617
0.564496 0.165767 0.12747
0.567487 0.165592 0.127276
0.570931 0.164745 0.126856
0.597753 0.164561 0.126733
0.601701 0.164471 0.126595
0.60877 0.165267 0.127035
0.611171 0.164893 0.126813
0.669351 0.164318 0.126455
0.67166 0.164311 0.126419
0.678353 0.164717 0.126248
0.681936 0.164936 0.126228
0.687866 0.164463 0.125792
0.692511 0.164376 0.125565
0.697783 0.16438 0.125354
0.702692 0.164871 0.125536
0.707483 0.165093 0.125608
0.7126 0.164781 0.125233
0.717486 0.165126 0.12538
0.722368 0.16522 0.125099
0.726609 0.16579 0.124857
0.334376 0.169398 0.12819
0.335745 0.169572 0.128297
0.44374 0.168668 0.127413
0.445854 0.169141 0.127646
0.459522 0.168431 0.12746
0.460496 0.169379 0.128128
0.607653 0.262735 0.187367
0.48969 0.15167 0.118484
0.491 0.153123 0.119391
0.491402 0.154507 0.120222
0.602248 0.262667 0.187358
0.132803 0.159644 0.124016
0.137478 0.159528 0.123945
0.142443 0.159664 0.123979
0.147316 0.159889 0.123991
0.152596 0.16013 0.124047
0.157901 0.160422 0.124225
0.163106 0.160427 0.124206
0.167779 0.160034 0.123878
0.171182 0.160476 0.123967
0.597527 0.262548 0.187303
0.202398 0.16021 0.123671
0.59245 0.262414 0.187269
0.219461 0.160422 0.123793
0.223133 0.160403 0.123704
0.227931 0.160514 0.12375
0.587418 0.262807 0.187383
0.360166 0.161235 0.122985
0.582464 0.263015 0.187583
0.394468 0.160662 0.12368
0.395704 0.160565 0.123468
0.577406 0.262831 0.187584
0.468114 0.160869 0.12306
0.47228 0.160654 0.123291
0.475328 0.16057 0.123456
0.48852 0.160216 0.123729
0.490871 0.160175 0.123701
0.514068 0.160736 0.123587
0.516502 0.160138 0.123281
0.520818 0.160542 0.123926
0.537893 0.160251 0.124314
0.542265 0.159973 0.124137
0.547107 0.160497 0.124503
0.553009 0.160384 0.124306
0.557482 0.160369 0.124168
0.562765 0.160335 0.124069
0.56754 0.160169 0.12395
0.572292 0.160023 0.123989
0.577709 0.160261 0.124308
0.583707 0.159815 0.124337
0.58652 0.15973 0.124292
0.57273 0.262835 0.187601
0.59747 0.160187 0.124292
0.602214 0.160165 0.124152
0.607133 0.159968 0.12403
0.612374 0.159956 0.124013
0.567416 0.26282 0.187486
0.562453 0.263108 0.187446
0.557615 0.263368 0.187333
0.552567 0.263181 0.187165
0.637777 0.159935 0.124492
0.641928 0.160044 0.124554
0.647291 0.159653 0.124465
0.652199 0.159577 0.12455
0.547465 0.263048 0.187256
0.542391 0.263102 0.186978
0.667678 0.159975 0.124247
0.673 0.15982 0.12387
0.677095 0.15977 0.123644
0.68236 0.159738 0.12332
0.687291 0.159967 0.123234
0.692327 0.160104 0.12305
0.697414 0.160329 0.122904
0.702289 0.160247 0.122823
0.707648 0.160384 0.122891
0.712413 0.160304 0.122698
0.71729 0.160551 0.122604
0.722017 0.161156 0.122492
0.725589 0.161283 0.122134
0.537402 0.263154 0.186578
0.132564 0.163252 0.126013
0.13742 0.163587 0.126227
0.142351 0.163616 0.12624
0.147368 0.163566 0.126147
0.152289 0.163441 0.126035
0.157243 0.163144 0.125872
0.162593 0.16347 0.12612
0.167637 0.163739 0.126244
0.532202 0.263329 0.186564
0.527506 0.263235 0.186491
0.522483 0.263502 0.186501
0.517366 0.26334 0.186485
0.512298 0.26319 0.186444
0.507579 0.263309 0.186841
0.502147 0.263114 0.18684
0.497371 0.26298 0.18682
0.492444 0.263065 0.186917
0.48752 0.262986 0.187179
0.222484 0.1637 0.125688
0.227388 0.163906 0.12582
0.482644 0.262676 0.187294
0.477635 0.262501 0.187491
0.472443 0.262495 0.187424
0.467452 0.262294 0.187235
0.46264 0.262335 0.187048
0.457472 0.262586 0.18687
0.452596 0.262741 0.1868
0.447597 0.263131 0.186921
0.442453 0.263141 0.186637
0.437449 0.262999 0.186361
0.43253 0.263033 0.186414
0.427597 0.263216 0.186625
0.422692 0.262866 0.186418
0.417501 0.262755 0.186364
0.412502 0.262633 0.186373
0.407495 0.263038 0.186564
0.402537 0.263179 0.186481
0.397308 0.263367 0.186487
0.392581 0.263229 0.186278
0.387483 0.263321 0.186091
0.332482 0.164337 0.125177
0.337745 0.164143 0.124948
0.382382 0.263537 0.18591
0.377471 0.263473 0.185741
0.372598 0.263777 0.185833
0.357528 0.164058 0.124644
0.362221 0.163806 0.124498
0.367226 0.1639 0.124582
0.367097 0.263702 0.186007
0.362499 0.263421 0.185923
0.357302 0.263123 0.185951
0.35241 0.263015 0.186161
0.347425 0.263113 0.186558
0.342168 0.263423 0.186994
0.337558 0.263042 0.186733
0.332407 0.262597 0.186342
0.327292 0.262966 0.186476
0.41754 0.16404 0.124839
0.322307 0.262973 0.18634
0.317688 0.263161 0.186429
0.312961 0.263177 0.18626
0.437211 0.164058 0.124626
0.442304 0.164315 0.124663
0.44751 0.164573 0.124567
0.307542 0.263292 0.186231
0.457579 0.164482 0.124683
0.462609 0.164044 0.124755
0.467604 0.163941 0.124935
0.472525 0.163742 0.125168
0.477463 0.163542 0.125436
0.482424 0.163415 0.125602
0.487394 0.163329 0.125653
0.49233 0.16349 0.125565
0.497584 0.1638 0.12549
0.502781 0.163757 0.12525
0.507747 0.163785 0.125309
0.512576 0.163659 0.125212
0.517486 0.163429 0.125338
0.522572 0.163201 0.125616
0.302597 0.263379 0.186353
0.297558 0.263382 0.186486
0.537422 0.163002 0.126224
0.542581 0.163088 0.126371
0.547506 0.163048 0.126356
0.55238 0.163006 0.126204
0.557567 0.163141 0.12607
0.562504 0.163298 0.125985
0.567239 0.163115 0.125753
0.572438 0.162988 0.12583
0.292864 0.263487 0.186746
0.288173 0.263163 0.186766
0.282297 0.263358 0.187071
0.277235 0.262577 0.186907
0.597424 0.163094 0.125918
0.602609 0.163244 0.125893
0.607895 0.163372 0.125973
0.61269 0.163435 0.125948
0.617627 0.163573 0.12618
0.272269 0.262367 0.186904
0.267628 0.262459 0.186883
0.632584 0.163001 0.12639
0.637593 0.162989 0.12635
0.642281 0.163085 0.126349
0.647387 0.163203 0.126443
0.262762 0.262857 0.186886
0.25783 0.263474 0.187106
0.662342 0.163278 0.126282
0.667593 0.163209 0.125987
0.672521 0.163226 0.125734
0.677319 0.163624 0.125712
0.682431 0.163722 0.12551
0.687484 0.163887 0.125369
0.692701 0.164089 0.125293
0.69718 0.164127 0.125074
0.702358 0.16447 0.125233
0.707446 0.1645 0.125206
0.712485 0.164385 0.12495
0.71739 0.164577 0.124944
0.72228 0.164816 0.124786
0.726224 0.165026 0.124356
0.252852 0.263332 0.186844
0.132589 0.166852 0.128073
0.137406 0.16703 0.128234
0.142455 0.166814 0.128038
0.14764 0.166874 0.128048
0.15289 0.166687 0.12799
0.15754 0.166608 0.127957
0.162328 0.166695 0.128101
0.167112 0.166884 0.128202
0.172728 0.166692 0.127884
0.247093 0.263149 0.186635
0.18259 0.166992 0.12774
0.187475 0.167279 0.127883
0.192359 0.167296 0.12785
0.197207 0.167147 0.127695
0.242505 0.263105 0.186693
0.237478 0.262672 0.186689
0.23261 0.262958 0.187045
0.227743 0.262874 0.186948
0.222348 0.167613 0.12797
0.227512 0.16736 0.127856
0.222423 0.263535 0.187269
0.217157 0.263485 0.187118
0.212433 0.263237 0.187103
0.197726 0.26277 0.187166
0.192677 0.262917 0.187441
0.187618 0.262859 0.187625
0.182518 0.262698 0.187578
0.177366 0.26242 0.18755
0.172727 0.262448 0.187787
0.157369 0.2626 0.187862
0.152518 0.262386 0.187986
0.147471 0.262562 0.188425
0.142592 0.262048 0.188202
0.137341 0.262127 0.188108
0.302513 0.167653 0.127561
0.307445 0.167785 0.127521
0.312348 0.167631 0.127301
0.31743 0.167714 0.127248
0.132786 0.26226 0.187728
0.327483 0.168013 0.127349
0.332445 0.167763 0.127173
0.337658 0.167962 0.127239
0.697579 0.258373 0.185804
0.692569 0.258435 0.185466
0.687518 0.258507 0.185407
0.35758 0.167914 0.127116
0.362374 0.167867 0.12707
0.367419 0.167899 0.127119
0.682488 0.25829 0.185517
0.677555 0.25797 0.185807
0.657528 0.25845 0.185447
0.652578 0.258415 0.185317
0.647564 0.258669 0.185095
0.642578 0.258927 0.185159
0.637525 0.259082 0.184981
0.632461 0.258807 0.184658
0.627407 0.258984 0.184735
0.622668 0.259152 0.18479
0.617769 0.259045 0.184923
0.612603 0.25923 0.185189
0.607517 0.258916 0.185143
0.602566 0.258637 0.185057
0.442278 0.1679 0.126956
0.44763 0.167946 0.126798
0.452628 0.168205 0.126917
0.457647 0.168086 0.127045
0.462644 0.168003 0.127335
0.467472 0.167767 0.127422
0.47249 0.167632 0.127622
0.477571 0.167447 0.127853
0.482653 0.167181 0.127918
0.487559 0.167139 0.127876
0.492604 0.167412 0.127799
0.497472 0.167784 0.127816
0.502323 0.167676 0.127657
0.507393 0.167779 0.127641
0.512653 0.167764 0.127693
0.517525 0.16774 0.12791
0.522398 0.167441 0.128087
0.597685 0.258777 0.185086
0.532326 0.167085 0.128493
0.537446 0.167055 0.128712
0.542464 0.166954 0.128909
0.547193 0.166627 0.128733
0.552401 0.166772 0.128754
0.557504 0.167029 0.128645
0.56212 0.166591 0.128008
0.56775 0.166997 0.128116
0.572776 0.166785 0.128076
0.592398 0.258779 0.185001
0.587384 0.258642 0.184704
0.582618 0.258719 0.18472
0.577527 0.258695 0.184717
0.597524 0.167323 0.128346
0.602637 0.16713 0.128129
0.60756 0.166966 0.127976
0.61251 0.166976 0.127899
0.617323 0.167052 0.127993
0.572528 0.258935 0.185011
0.56752 0.258839 0.184882
0.632389 0.166777 0.128411
0.637585 0.167059 0.12854
0.642579 0.16684 0.128364
0.647491 0.166516 0.128095
0.547611 0.258629 0.184634
0.542551 0.258846 0.18462
0.66254 0.167143 0.128152
0.667464 0.167059 0.127941
0.672533 0.167103 0.127732
0.677347 0.167321 0.127647
0.682519 0.167608 0.127624
0.687464 0.16762 0.127454
0.692586 0.167543 0.12729
0.697401 0.168071 0.127435
0.702175 0.16844 0.127618
0.70822 0.167926 0.127221
0.712314 0.168178 0.127199
0.717722 0.168088 0.127055
0.722889 0.168265 0.126925
0.726422 0.168521 0.126676
0.53745 0.258844 0.184345
0.132578 0.170731 0.130341
0.137317 0.17106 0.130554
0.142435 0.170933 0.130486
0.147123 0.171242 0.130618
0.152662 0.171148 0.130619
0.157434 0.170629 0.13039
0.162326 0.170698 0.130532
0.532817 0.259438 0.184506
0.172543 0.170858 0.130476
0.177508 0.170336 0.129901
0.182284 0.170592 0.129963
0.52731 0.259548 0.184531
0.522063 0.259465 0.184374
0.517515 0.259585 0.184354
0.512616 0.259533 0.184238
0.507905 0.259506 0.184288
0.502838 0.259794 0.184479
0.497976 0.259768 0.184534
0.492901 0.259776 0.184751
0.48774 0.259702 0.184923
0.481939 0.259347 0.185053
0.477736 0.259015 0.185128
0.472659 0.258775 0.185093
0.46763 0.258616 0.18488
0.462222 0.259147 0.184883
0.457748 0.259449 0.184889
0.452811 0.259302 0.184643
0.447549 0.259387 0.18457
0.442524 0.259471 0.184521
0.437391 0.259441 0.184414
0.432218 0.259361 0.184373
0.427765 0.259501 0.184334
0.422906 0.25951 0.184384
0.417766 0.259148 0.184129
0.302491 0.171225 0.129623
0.307675 0.171391 0.129588
0.31236 0.171666 0.129642
0.317561 0.171466 0.129445
0.322544 0.171604 0.129456
0.326818 0.171563 0.129481
0.332186 0.171244 0.129325
0.336483 0.17079 0.129007
0.413061 0.25933 0.184149
0.407638 0.259261 0.184103
0.402374 0.259636 0.184321
0.357419 0.170928 0.129087
0.362271 0.170896 0.129093
0.367219 0.171383 0.12941
0.397457 0.259269 0.184194
0.392882 0.259719 0.18429
0.387045 0.260281 0.184262
0.382617 0.260313 0.183912
0.377066 0.260259 0.18361
0.372473 0.260543 0.183646
0.367155 0.260152 0.183565
0.362635 0.259967 0.183611
0.357358 0.260117 0.183849
0.352268 0.259829 0.184113
0.336812 0.259574 0.184529
0.332264 0.259407 0.184381
0.327565 0.259845 0.184577
0.322745 0.259869 0.184563
0.442417 0.171553 0.129329
0.447336 0.17155 0.129212
0.452636 0.172061 0.129465
0.457546 0.171688 0.129348
0.462568 0.171115 0.129338
0.467936 0.171206 0.129715
0.472494 0.17124 0.129976
0.477539 0.170886 0.129858
0.482771 0.171008 0.130174
0.487588 0.170824 0.130042
0.492481 0.170792 0.129874
0.497433 0.170488 0.129499
0.503139 0.171039 0.129734
0.507443 0.171094 0.129716
0.512126 0.171604 0.130081
0.316995 0.259425 0.184156
0.312142 0.25961 0.184078
0.526325 0.1702 0.129924
0.532761 0.17045 0.130372
0.537164 0.170397 0.130497
0.54134 0.170018 0.130518
0.308376 0.259985 0.18425
0.301767 0.260044 0.184273
0.297646 0.260031 0.18435
0.56246 0.170224 0.130291
0.567491 0.169996 0.129874
0.292822 0.259798 0.184434
0.287709 0.259828 0.184719
0.28238 0.259477 0.184794
0.599074 0.170394 0.13006
0.602926 0.170666 0.130054
0.60759 0.17067 0.129937
0.612238 0.171104 0.130079
0.277306 0.259652 0.18512
0.272868 0.259216 0.184943
0.267345 0.26 0.185347
0.262575 0.259661 0.184885
0.637573 0.170684 0.13032
0.642728 0.170421 0.130133
0.257701 0.259395 0.184466
0.252676 0.259606 0.184434
0.657207 0.170243 0.129767
0.663017 0.170239 0.12951
0.247147 0.259512 0.184265
0.243104 0.259673 0.184489
0.237927 0.25987 0.184914
0.682296 0.171105 0.129472
0.687361 0.171052 0.129413
0.691224 0.170958 0.129355
0.703629 0.17133 0.129486
0.70719 0.171355 0.129391
0.712613 0.171788 0.129524
0.717444 0.171492 0.129225
0.722302 0.171708 0.129212
0.232244 0.259545 0.184918
0.143285 0.174051 0.132323
0.146012 0.174038 0.132285
0.153046 0.173891 0.13224
0.155828 0.173854 0.132215
0.303024 0.174323 0.131368
0.314868 0.174271 0.131123
0.318026 0.175191 0.13162
0.322627 0.174703 0.131336
0.33306 0.173471 0.13066
0.353115 0.175064 0.131859
0.356486 0.174594 0.131572
0.368851 0.174944 0.131681
0.372461 0.174579 0.131496
0.375416 0.174915 0.131767
0.227073 0.259114 0.184642
0.409992 0.174322 0.130867
0.413 0.175128 0.131337
0.417655 0.175301 0.131509
0.422452 0.175028 0.131512
0.425629 0.175036 0.131598
0.443993 0.174454 0.131148
0.4482 0.174754 0.13124
0.453007 0.175554 0.13177
0.456277 0.175232 0.131581
0.461983 0.174205 0.131308
0.472429 0.174085 0.131829
0.504979 0.174584 0.132144
0.507511 0.17441 0.132008
0.53121 0.174433 0.132255
0.604681 0.174149 0.132034
0.60771 0.173932 0.131737
0.611374 0.174207 0.131748
0.63267 0.176939 0.133526
0.636986 0.175694 0.132896
0.704751 0.174233 0.131393
0.71291 0.174857 0.13165
0.71714 0.174757 0.131479
0.72067 0.174512 0.13132
0.222358 0.259216 0.184716
0.154093 0.165975 0.127572
0.157432 0.165965 0.127529
0.16152 0.166046 0.127675
0.53773 0.165994 0.128062
0.540157 0.165641 0.128007
0.550921 0.166037 0.128305
0.563603 0.16611 0.127649
0.565841 0.166371 0.12776
0.638059 0.165689 0.127806
0.641304 0.164957 0.127345
0.217157 0.259248 0.184782
0.132408 0.169821 0.129763
0.137636 0.169837 0.129813
0.142658 0.169355 0.1295
0.147755 0.169049 0.129331
0.152503 0.169096 0.129363
0.157537 0.169309 0.129562
0.162496 0.168841 0.129371
0.167454 0.168827 0.12935
0.202488 0.258284 0.184654
0.197169 0.258601 0.184894
0.182091 0.169784 0.129455
0.187438 0.169945 0.12945
0.19383 0.169664 0.129216
0.192491 0.258752 0.185085
0.187827 0.259051 0.185413
0.181922 0.259285 0.185561
0.17766 0.258957 0.185377
0.172658 0.258688 0.185304
0.142777 0.259505 0.186625
0.137433 0.258775 0.186063
0.131865 0.259367 0.185766
0.69138 0.255594 0.183872
0.302775 0.170336 0.129051
0.306812 0.170334 0.129009
0.311725 0.170369 0.128868
0.315111 0.170443 0.128835
0.32183 0.170551 0.128792
0.329357 0.170392 0.128795
0.332438 0.170306 0.128703
0.336827 0.170462 0.128795
0.358046 0.170703 0.128909
0.362477 0.170616 0.128848
0.366278 0.170623 0.128864
0.687973 0.255534 0.18373
0.68084 0.255468 0.184011
0.662336 0.255341 0.18359
0.44772 0.170926 0.128755
0.452857 0.170884 0.128658
0.457399 0.17073 0.128737
0.462604 0.170577 0.128937
0.467354 0.170407 0.129109
0.472613 0.170111 0.12909
0.47714 0.169781 0.129118
0.482316 0.169901 0.129431
0.487559 0.169592 0.129288
0.492178 0.16999 0.129349
0.495621 0.169984 0.129179
0.50273 0.170286 0.129282
0.507585 0.170485 0.129297
0.513591 0.169699 0.128869
0.658228 0.255268 0.183424
0.652034 0.255485 0.183208
0.526601 0.169737 0.129665
0.532968 0.16955 0.129879
0.537538 0.169275 0.129911
0.542665 0.168907 0.129996
0.647877 0.255696 0.183039
0.642886 0.256004 0.183112
0.557712 0.1693 0.130057
0.562759 0.169165 0.129555
0.567529 0.169283 0.129452
0.63792 0.256081 0.18302
0.634135 0.256296 0.183011
0.626174 0.256353 0.182991
0.62269 0.255834 0.18275
0.619815 0.256194 0.183019
0.605601 0.2559 0.183523
0.602427 0.169464 0.129397
0.607648 0.169592 0.129311
0.612621 0.169206 0.129053
0.601017 0.255796 0.183431
0.59661 0.255962 0.183413
0.592476 0.255906 0.183319
0.585759 0.256045 0.182995
0.637302 0.16902 0.129491
0.642064 0.169251 0.129556
0.58213 0.25584 0.182824
0.578757 0.25573 0.182778
0.657751 0.16965 0.12945
0.662189 0.169662 0.129282
0.667496 0.1697 0.129136
0.672519 0.169536 0.128923
0.677497 0.169458 0.12874
0.682217 0.169902 0.128817
0.687428 0.169992 0.128736
0.692694 0.169403 0.128357
0.697674 0.169358 0.128202
0.702434 0.169376 0.128154
0.70733 0.169589 0.128222
0.712421 0.16952 0.127997
0.717348 0.169782 0.127999
0.722369 0.169775 0.127851
0.726221 0.170365 0.127991
0.551104 0.255307 0.182891
0.132315 0.172884 0.131533
0.137824 0.173262 0.131838
0.1425 0.173218 0.131834
0.147633 0.173254 0.131803
0.152634 0.173192 0.131812
0.157552 0.1732 0.131862
0.162393 0.173018 0.131862
0.546523 0.255912 0.18314
0.172556 0.173459 0.132004
0.177583 0.172931 0.131478
0.182518 0.173049 0.131435
0.543028 0.255825 0.18295
0.53942 0.256189 0.18303
0.51636 0.255879 0.182422
0.513051 0.256204 0.182331
0.476784 0.255874 0.182902
0.472833 0.255887 0.183016
0.417938 0.256578 0.182395
0.401151 0.256396 0.182423
0.398347 0.255843 0.182118
0.270575 0.256366 0.18309
0.269126 0.255451 0.182504
0.202467 0.254087 0.182257
0.198176 0.254912 0.182845
0.192917 0.25568 0.183325
0.189951 0.256389 0.183814
0.180228 0.255829 0.183449
0.178394 0.2557 0.183375
0.171924 0.256033 0.183644
0.167696 0.255353 0.183212
0.203265 0.25176 0.180872
0.676745 0.266752 0.19098
0.699547 0.264843 0.18965
0.676842 0.265736 0.190421
0.302759 0.173077 0.13065
0.307776 0.173384 0.130752
0.31263 0.173231 0.130561
0.317232 0.173038 0.130361
0.322631 0.173515 0.13061
0.327708 0.173385 0.130612
0.332453 0.173536 0.130677
0.337583 0.17335 0.130568
0.652705 0.265604 0.190404
0.618018 0.263631 0.188087
0.352507 0.173375 0.130714
0.357677 0.173249 0.130614
0.362661 0.173255 0.130601
0.367464 0.17334 0.130643
0.372189 0.173268 0.130663
0.601681 0.263091 0.187648
0.597898 0.262998 0.187614
0.592215 0.263409 0.187994
0.589222 0.263391 0.187927
0.570799 0.264248 0.188622
0.567752 0.264129 0.188426
0.562656 0.264241 0.188231
0.557293 0.264672 0.188167
