0.21000200492292573 0.18699880209017597 0.13921082265075999 0.030271730240417183 -0.52132420398710422 0.85282160894612857
0.21638802030796925 0.19165874360683985 0.14176848306399836 0.023198491680498295 -0.52860463019876813 0.84855110330266703
0.21868328485952029 0.19418108207137336 0.14330120197749177 0.017677500465850569 -0.53288124530764569 0.84600536899989742
0.20742606139788736 0.17527654157720482 0.13295632605539615 -0.091546815143965274 0.48623986527395957 -0.86901667075802302
0.20627906387819689 0.17128934442072408 0.13091230427825765 -0.090049171892162605 0.48649428168819675 -0.8690307592520653
0.20886133308993543 0.17443683471721683 0.13225512576539539 0.030281621637990197 -0.51080140964098009 0.85916525959780354
0.20880303192146035 0.17175578118117085 0.13080559771664671 0.031217910546009017 -0.51193005814872783 0.8584597006412017
0.40825105441027737 0.13557136899354172 0.10836113734882387 -0.023068802876858131 -0.53475628718078305 0.84469138959412415
0.22678056002762864 0.24400396968298416 0.17535172710489513 -0.0065068035211075454 -0.56093137788475667 0.82783672956220422
0.40909197658268331 0.13243822747447329 0.10645489752244969 -0.02143600899621281 -0.53637672390797375 0.84370641076624731
0.22440150160052211 0.23643720213792785 0.16925193154622181 -0.023081043074584442 0.50529435016223312 -0.862638328121766
0.21743660781069474 0.22499817699472044 0.16316572632209744 -0.011506397667485327 -0.53085464537786831 0.8473847699206396
0.53649350746915558 0.20406884218792165 0.15159240109028546 -0.0034065422714114491 0.49320235569071114 -0.86990794444635711
0.22483139301392224 0.23066985506913779 0.16664438192020883 -0.0080683687638580751 -0.54152134345339353 0.84064828317788298
0.37104473880887756 0.12620327220053501 0.10244384849020538 0.012960314501597436 -0.5179930539671268 0.85528663399460936
0.49455875256003134 0.15183845778554991 0.11834734450058666 -0.016369167173747774 0.47903103616272663 -0.87764532515071403
0.2061537434005439 0.20436751533513439 0.15108595320079546 -0.22705668146360203 0.48936032339059687 -0.84200459457997423
0.21050660541042349 0.20969634413954638 0.15400204854009406 0.0016323803880126935 -0.53582793844352039 0.844325621853107
0.23607413078194037 0.23803878571845588 0.17141740555732338 0.0055407341911867802 -0.54807228360404081 0.83641262078574263
0.21787091172928832 0.21532192547335485 0.15763425655399568 -0.0050046800766301632 -0.53154207532328535 0.84701710451344803
0.22051949030324114 0.21824974550506995 0.15944573969820289 -0.0064224142835200143 -0.52993894302856048 0.84801147943677202
0.221679325912714 0.21953725846633659 0.16022685255824809 -0.0066269072683646946 -0.5296826110539371 0.84817003934773605
0.21444962522778821 0.20913598548993736 0.15363827117447598 0.001729433214252612 -0.53742162567855623 0.84331192646243014
0.21819589307722295 0.21321319642344741 0.15632055232312944 -0.0031894578654978701 -0.53401658878813696 0.84546798298788717
0.22197041107300308 0.21760834555414893 0.15845233709915205 -0.043318283551633224 0.49537484046074831 -0.86759857869214396
0.23225519075891757 0.22795821917205408 0.16518641105534906 0.0018502612213444803 -0.53612377885869755 0.84413735273098955
0.50015792245878954 0.13359541819202422 0.10735816768488712 0.00943027094748102 -0.53229796886303082 0.84650454359923488
0.22017336193805939 0.21200625519221383 0.15557440214304852 -0.0025035445848630711 -0.53575250624870063 0.84437135450745104
0.22392801795161543 0.21612083421580114 0.15823869391841183 -0.0042429775223774566 -0.53211268681943602 0.84666291147513095
0.22616495476772644 0.21859707033371331 0.15976678803950728 -0.0037899152442173695 -0.53075672428831433 0.8475157439040174
0.21066971148613231 0.19937321149907739 0.14706052825263738 0.019329946371770164 -0.53788837442795689 0.84279442916319436
0.22617088706213781 0.21273693448394329 0.1561395113888237 -0.0027589071329353304 -0.53583394293169395 0.84431888172283942
0.2066907647527001 0.18904663207092404 0.1405914116466114 0.031573589115144442 -0.52445626853073157 0.85085176785924899
0.20894547476933059 0.19142796796529279 0.1422996972241318 -0.175381190096739 0.49645661729219176 -0.85016014097759585
0.21155353907308833 0.19449712246588671 0.1437888854641054 0.02587430667595806 -0.53244900751131996 0.84606653086754868
0.21202562932657162 0.23119516441881388 0.16566984536942383 -0.082625718006290705 0.50240523933550818 -0.86067529662014564
0.37007972853163601 0.14560726815271718 0.11385804800200125 0.0074266187645827932 -0.52027840156487826 0.85396441974992188
0.40511817636399189 0.14113911207492669 0.11165024044287684 -0.022799179039468161 -0.53213308725147945 0.84635369372818103
0.21863997657435125 0.2387905669416592 0.17152577678546124 -0.014179346303344036 -0.55947290777306091 0.82872734455088781
0.22364424592372911 0.24389668991283653 0.1751949319853621 -0.0097151260299030897 -0.56297085344278819 0.82641964793930311
0.22174503487032704 0.23886707883078706 0.17171060217051451 -0.011973050122084633 -0.55866927408047928 0.82930409878956002
0.22416137945076847 0.24162354242925788 0.17366535272397582 -0.0093598937527016191 -0.56067585409677489 0.82798247506924327
0.21072699298560865 0.22507197509084104 0.16306802430013309 -0.012435109478959852 -0.53033462643586504 0.84769720540731852
0.2220869511255209 0.23682080600410846 0.17037241485162774 -0.011779362666545593 -0.5551062193788564 0.83169605735634144
0.22398829420219563 0.23883673323519405 0.17178660734694781 -0.0097636862649085505 -0.55747553349529011 0.83013595271176044
0.20683642977957706 0.2162769675563759 0.15803883448305503 -0.0056290247646932539 -0.52987463134379942 0.8480573029804479
0.20811523697766038 0.21831583256456197 0.15924974730743893 -0.0073436856585759186 -0.52884025093880871 0.84868961303171719
0.20635417518946819 0.15836985818648169 0.12306765090209411 0.039084011962522251 -0.52605934140694122 0.84954929776170651
0.21863849809204799 0.23028591808995391 0.1661916112103585 -0.013210807343305169 -0.54022250452613796 0.84141851665674972
0.2061494892128849 0.21295493701298601 0.15603971177706899 -0.0021493211974155323 -0.53237768440374955 0.84650421237421614
0.21077963195719504 0.21576654307032431 0.15779120170768088 -0.0051422282195479696 -0.530402017949551 0.84773065111743029
0.21189967058424317 0.21702547824749596 0.15855702321177345 -0.0063496122573021719 -0.52954504035724193 0.84825805782039521
0.21341883611433601 0.21874161939043607 0.15958271906159291 -0.0077928877511367909 -0.52873903310808834 0.84874867055473024
0.2122053309515203 0.21487904930613758 0.15727308519955141 -0.0043154077755285453 -0.53133512735198973 0.84715073021132192
0.21290850111722717 0.21316658653917769 0.15622519853341468 -0.0027674891248441994 -0.53291985540535136 0.84616119546968316
0.27203075179000397 0.19084711037832955 0.14238453522179814 0.0056712577232678075 -0.51743019478619101 0.85570662633835004
0.21189428907177255 0.23480715190712925 0.1687058343268773 -0.016202166078556193 -0.55020900371997827 0.83486977549785091
0.21789020407718651 0.24143040994357748 0.17329214698015791 -0.014164283852505066 -0.56283302225973475 0.82644924957127186
0.51491453144521493 0.22644606048128524 0.16482085484011594 0.0013338887733316529 0.49351198929523554 -0.86973797040407497
0.20480060404841141 0.21543244504466783 0.15783393186583253 -0.20669926020011808 0.48470133959865785 -0.84990589315758391
0.51145782880054147 0.22894490923223784 0.16614450488860341 -0.010474191422173592 -0.55901308181525189 0.82909267616682403
0.5124355315115624 0.22977447825246691 0.16673177673958622 0.0053564975212117691 0.49442964659037958 -0.8692011461720569
0.30280432858130946 0.20805587886265919 0.15257354740638121 0.0066095815066519806 -0.53578945505043707 0.8443257506964138
0.50630833708262857 0.23680523908427145 0.17139907622423331 -0.022664960567293287 -0.58243713415788512 0.81255971123138571
0.50128268393898212 0.24034154074137293 0.17369469531656359 -0.028899925740199704 -0.58262058638450087 0.8122302916126628
0.49907082046172918 0.24313649885727789 0.17555724512993542 -0.029665813956607816 -0.58278207892244671 0.81208681061147825
0.59120513386927676 0.14561080688913328 0.11573168059934393 -0.025255428512604934 -0.53756888490153043 0.84284153748873203
0.20890347287996655 0.14080367119021495 0.11163888284225765 0.025829332528348663 -0.5297344115124043 0.84777019223416128
0.277398139774994 0.19241406574569497 0.14314050387576793 0.010954633802411141 -0.51766924180207663 0.85551069665452939
0.21081475219058501 0.1375127954181484 0.10949650111823016 0.020215283357007039 -0.52820432238610415 0.84887663186792484
0.21269704897497707 0.14115364221331614 0.11105773051657068 -0.15204750999637834 0.49798168714085062 -0.85375394229031421
0.54894859861020651 0.19179599249849472 0.1432726931164631 0.0019794283970093599 -0.54655401805970005 0.83742151107194407
0.21650839598468097 0.16038007799961068 0.12385636859903217 0.032505712342235628 -0.52485071719026211 0.85057339679182975
0.24043335738726776 0.17116589148060149 0.13009612442442831 -0.00016003768771364913 -0.5189648628533341 0.85479555772802107
0.2147104253679939 0.13247248290974487 0.10626917741863293 0.010229652607355083 -0.52462675023396088 0.85127088940388773
0.23697538590084283 0.17181167752901416 0.13047618364010793 0.0013776637849855378 -0.51769671448850041 0.85556309752718274
0.27581629052928885 0.18872969590335348 0.14111808963048003 0.0085461280250829202 -0.51731245641492674 0.85575392849447873
0.38337885946816641 0.19552388305555793 0.1444726705346929 0.0024895756736734061 -0.53779775420350884 0.84307020916803077
0.54477785666005851 0.20005276947803327 0.14865372448051717 -0.0025077711624742756 -0.54684197379321253 0.83723208656963222
0.38411385505782014 0.1924832940748496 0.14242859569987323 0.0029255596576025721 -0.53746351702149808 0.84328192733603136
0.54175238605791554 0.20288205860180511 0.15052433460049733 -0.0031883601659646655 -0.54614362300850805 0.8376854883586039
0.31884235378074649 0.21541881272264551 0.15675344468607941 0.007531379401693265 -0.52815092075133463 0.84911711985675176
0.52058324022019087 0.22412497355334776 0.16328362826617113 -0.0048092940632090166 0.49225216760491336 -0.8704393569794957
0.21942985608819995 0.16031223348744073 0.12370296887607896 0.028957194397158124 -0.52534725409834926 0.85039505143431404
0.49570675224486432 0.14128530422707139 0.11208247368859392 0.00021076904263878541 -0.52479201604344095 0.85123045967203947
0.49762071390532936 0.13300705222513143 0.10708532173285601 -0.015278660431872093 0.49113635554338853 -0.87094870273682934
0.22914832090457102 0.11019094048316767 0.093626554096121306 -0.010969259051200815 -0.50004872237667097 0.86592779757051719
0.49837458102594978 0.13117421893460118 0.10604039588568756 -0.01528726655523371 0.49218631004844471 -0.87035563747365097
0.50175525929586251 0.24415357346919703 0.17653276123993275 -0.028026003350788711 -0.58755697214215907 0.80869731520719146
0.2757696268160798 0.18635142354352663 0.13977835953708381 0.0070422065702388341 -0.51793049359758991 0.8553937170264807
0.31927992014035328 0.21355886080766137 0.15565143103062246 0.0072349991729821492 -0.52853944027319888 0.84887791516958455
0.31672513538448882 0.21231834749891706 0.15494125827539382 0.0084108689405139152 -0.52924729730037723 0.84842592816574836
0.57998977742735025 0.1651799008099108 0.12665978967914859 -0.036241871539817894 -0.52438253999292705 0.85071116044040329
0.56926323911302479 0.17907444205641868 0.13398819655673697 -0.0022104292141382452 -0.54411709968783928 0.8390063741295315
0.21679172014618334 0.1514114318191884 0.11810141791230408 0.032496629553403863 -0.53153365391401464 0.84641357729214461
0.3778919164208463 0.20635380702898454 0.15151600122960085 -0.0060901195333221154 -0.53399490701891883 0.84546575904759502
0.21651624643914089 0.15456651508672173 0.120146084430373 0.033652832929869862 -0.53020841975181754 0.84719922005398163
0.24069559060762402 0.16623830274056653 0.12712997577976901 0.00076295375532036867 -0.52140976346166923 0.8533060860373689
0.23781547380210466 0.16598308037972068 0.12698245619773713 0.0029892031650586635 -0.52154767739761188 0.85321690376222314
0.21883600413921414 0.15142415492012745 0.11803027866349033 0.030408335930629426 -0.53160559073372404 0.84644599887209482
0.22092564617923643 0.13979259591607793 0.11074138881755109 0.018027224407707692 -0.52820994270332999 0.84892242025375864
0.22091645751651207 0.15142376798901999 0.11795912536078142 0.027614060756489998 -0.53167674152093569 0.84649707983797384
0.22087848880669558 0.15313245240218948 0.11905443256319312 0.027718047940785959 -0.5312823957321301 0.8467412389883231
0.22309368137057042 0.12152809670314306 0.098742343204155369 -0.046217046488567386 0.47039496995420355 -0.8812448903997443
0.22302191662670806 0.13466644899119043 0.10762534555275735 0.0098606246447709503 -0.52490162038195887 0.85110578484816368
0.48357034020385381 0.17211760823776728 0.13058681104812217 -0.0019837287892674953 -0.52994073012417708 0.84803236222183453
0.55891289736258798 0.18924178143527703 0.14157753293602812 0.0079817065604067209 -0.54778739040179447 0.8365795044567943
0.22707918198826402 0.12450936264189068 0.10157870210310857 -0.0034384430781527349 -0.51407802298008265 0.85773653495586155
0.22914028356594304 0.11760399195541812 0.097733650109723194 -0.0085803696419352524 -0.50523706551693393 0.86293793802604679
0.54218272815206059 0.20534636863117062 0.1522042242860436 -0.0022230563860228263 0.48764990049644241 -0.87303644400798897
0.53169112968267707 0.22147843218636787 0.16144803118319023 -0.0044624232020991786 -0.54684954933745156 0.83721900191562282
0.52542036225193156 0.22503684229145796 0.16365845809432508 -0.0015596794529392638 0.49344534059460915 -0.86977540965784628
0.2393787779332911 0.11397867267664515 0.096011176485419875 0.0067229606359234728 -0.50870643614536015 0.86091379569883453
0.20612556002491558 0.17305224036906508 0.13188750526839912 -0.091085916971590283 0.48630216919124675 -0.86903023881182218
0.20998583458883341 0.18239920934470877 0.13655916768003612 0.030114615660417662 -0.51545847201600725 0.85638523664910771
0.49165046879919 0.14575743158354049 0.11478819985562619 -0.002756187780679945 -0.52053032517910103 0.85383873418688205
0.5056835563700337 0.24126568550682734 0.1746514602202042 -0.024462942391185918 -0.58973246828184667 0.80722808443696148
0.21421940102361131 0.17371348548653559 0.13167024574564781 0.027180180461079798 -0.51058898409686915 0.85939521008033914
0.50341472431596157 0.24441476213284558 0.17685895056286696 -0.026579637191395979 -0.59012017928874672 0.80687774593366457
0.37694791614010725 0.20289818055006392 0.14931400631806346 -0.004443111340344948 -0.53452555370975641 0.84514063397336159
0.21586823535581273 0.17762231914249224 0.13344440491459264 -0.073505632005168811 0.48598739832105547 -0.87086920414988422
0.21597636079389251 0.18082247439501192 0.13545404348577586 0.024516595003088056 -0.51282714405232765 0.8581417463872667
0.32092271604492151 0.2063583037584992 0.15126425870295829 0.0083922985667348217 -0.5317184240372268 0.84687961769317288
0.47857217509506816 0.18351062103029103 0.13798847632651096 0.010905964235902005 0.51992739360753204 -0.85414083459378276
0.22007722697782681 0.1597948817803132 0.12335377516197951 0.027889350292421584 -0.5261175514408003 0.84995441419302209
0.58865174048483893 0.16052311853751142 0.12473983592059584 -0.035443731660598166 -0.52597731848708384 0.84975973211438316
0.58718354031820419 0.16126121241603827 0.12506961036020167 -0.03613334209767121 -0.52535230281507284 0.85011725045181419
0.2199682350461801 0.1809981164278715 0.13512139430385489 -0.05836956942086742 0.48757448549777843 -0.87112807006616388
0.47014030099226195 0.20091086457705168 0.14787687556828269 0.018777088318708481 0.50649773701320266 -0.86203681090471784
0.2220835099349302 0.17733285184261977 0.13343698901256845 0.01542825311871435 -0.51099830504178123 0.85944325074441741
0.47373621880729117 0.18579938534734253 0.1391943043170431 -0.013641265296136781 -0.52506687254824114 0.85095164094884357
0.22641342163293973 0.13968674386811866 0.11065779464584292 0.013707037295813631 -0.52778483167284385 0.84926750119419914
0.46355314299175127 0.21181109463692749 0.15474266436355164 -0.01020335592788648 -0.54628570528082387 0.83753675724331156
0.58028974167439606 0.16881287656397526 0.12847184096317332 -0.037127470455220024 -0.52590645797179614 0.84973169200704535
0.23111027113407678 0.13455507903870259 0.10757262158453486 0.0074220927792562211 -0.52468256700297899 0.85126559687440706
0.23046938019019975 0.13962709919003868 0.11062533602153278 -0.0013422126708670741 0.47808369553787283 -0.87831325762850498
0.23232606968921715 0.15358053855302356 0.11919795984089408 0.010378723331348542 -0.53097500932926445 0.84732391773736615
0.23471236957797906 0.14006023433276116 0.11087757689282905 0.008325479134886838 -0.52926073628304171 0.84841838701569117
0.23501706638203193 0.14307759405857756 0.1128052628064742 0.0078941360522690185 0.47809471245070145 -0.87827280986187284
0.23742556925924227 0.1192952507145574 0.098849745571559816 0.0033188036539462621 -0.5099708797557001 0.86018526338429202
0.23656305416447412 0.14004245154592701 0.1111654933594157 0.008856912264850374 0.47715120513609555 -0.87877658283678939
0.23240536375489812 0.15998237362921788 0.12327042261478592 0.0094867232284023741 -0.52693128772337572 0.84985494062255873
0.37712075865977235 0.19737900067867079 0.14615567297673634 0.011324791465761076 0.50254391859127978 -0.86447750635003695
0.459012247972299 0.21972159543514672 0.16007547661937002 -0.0026266544459558681 -0.54855266434288574 0.83611187955245736
0.45417699080786617 0.22869123571776351 0.16605735190912449 0.00027898179895290018 -0.54398633637618687 0.83909402810720191
0.2412665379848207 0.1345848276896574 0.1074524561814853 0.0071729065172309722 -0.52814327706165032 0.84912497802542353
0.56914630894534501 0.18230670224647358 0.13508301986937368 -0.04757152619281111 0.47543962561391018 -0.87846121843356961
0.45968837600159124 0.21116027841333676 0.1542047197285713 -0.0071363841042303188 -0.54638040383068798 0.83750673211128945
0.45222647515509734 0.22673227867767254 0.16483327819180368 -0.0014043417981416816 -0.54410958063351977 0.83901298684044767
0.36288699805403446 0.23513822340285778 0.168211974315611 -0.011020481705137381 -0.54162874002580208 0.84054557101982796
0.23450704197054614 0.15785636676803705 0.12191864155786372 0.0072502608696340155 -0.52866633827393983 0.84879876089291406
0.45337342741438158 0.22329190652911379 0.1625429128730061 -0.0010503496683169991 -0.54638587995239474 0.83753290499790012
0.45477754096705852 0.21854502965089811 0.15929308422754979 -0.0020152525190787925 -0.54850459859659362 0.83614510946107556
0.24730985297192676 0.12271832764290547 0.10058016841772942 0.016839480924585506 -0.51778214216714669 0.85534676309377078
0.25284745634506789 0.17007864963301456 0.12932878623327779 -0.0056391273355133036 -0.52159562347929067 0.85317419429454378
0.24919231588128646 0.121044671683303 0.099650975643001918 0.020724915678362429 -0.51749728401168349 0.85543383081957658
0.24911099268007408 0.12444569939625763 0.10101062730306699 -0.02059405968577457 0.44334338677613133 -0.89611524153287803
0.216360173022215 0.14626140244430932 0.11484055711654421 0.029587919076791404 -0.53133903799595184 0.8466424166944635
0.25129350042139265 0.16344490120713617 0.12542277143724037 -0.0053327412629984939 -0.5219182156487624 0.85297886142895352
0.20614140055028707 0.21248082342258445 0.15584391498729375 -0.21982684538609415 0.48497057685714656 -0.84645123759756224
0.45761157739227298 0.21130966728184455 0.15427806909919251 -0.0052852385884048511 -0.5463935129253592 0.83751190754887117
0.20811018835990414 0.19945260244984048 0.14719749791354747 0.02023804042106235 -0.53736455044903575 0.84310720649311333
0.20804461089713508 0.20587166918426361 0.15151066169945709 0.0076385083003374238 -0.53806100536887724 0.8428712877375637
0.20799197186274421 0.21626687852383084 0.15804948273096026 -0.0055992461353230093 -0.52991236344392956 0.84803392356201457
0.45368408863176207 0.21665513905772796 0.15800178338013943 -0.0021463501661341203 -0.54841738935335793 0.83620198530965695
0.20993154703889461 0.21624344885573901 0.15806657401928309 -0.0055228103537715784 -0.53001925924781057 0.84796761930642051
0.20991199124302981 0.21969855782921249 0.16007230685006829 -0.0084378090636496126 -0.52846111095967752 0.84891557741713564
0.44566617745729142 0.23557091572038411 0.17035130496084444 -0.0091240865230119081 -0.53719130093787426 0.84341108437214329
0.44704602800995169 0.23236191602142128 0.16842429594972719 -0.0069838558456246464 -0.5389787547474858 0.84229040579148062
0.21187346944214919 0.2162167632965572 0.15807673645004827 -0.0055909159167253867 -0.5301098393878062 0.84791054943516675
0.21378086496580351 0.19988732943422177 0.14641686007678156 -0.21102913889187377 0.49471858292775805 -0.84304224463813515
0.21400915936193091 0.20267794063728875 0.14923759621957022 0.011749068960590773 -0.54048043120362432 0.84127454666387214
0.45072084673376023 0.21968323190793468 0.16012922813705383 -0.0018758313282836181 -0.54714067555005541 0.83703856686263678
0.21599739547933919 0.19955930765743571 0.14701813739991346 0.015373433380667875 -0.53945841781928794 0.84187188632831822
0.44584960425893216 0.22865430540171586 0.16609969331833313 -0.0074888665413099156 -0.5407924890065251 0.84112270253040589
0.22433582136578495 0.17191806993674189 0.13048256023090621 0.015195202097655775 -0.51310491895451737 0.85819138190609301
0.5096448595791121 0.10831996870480264 0.090781367721106301 0.013423370930624531 -0.57006114025901855 0.82149261072723379
0.37872872003835173 0.15690796647890079 0.12102580037491052 -0.003826838218654394 -0.52154337527651651 0.85321618773580887
0.50118509436779435 0.12685504321811211 0.10322939140846071 0.015601177608266405 -0.54010171696097187 0.84145513165768115
0.22396597222409781 0.20465531783204596 0.15054899889837872 0.0012311267023704625 -0.54272246983127992 0.8399111887975288
0.50489595143043331 0.11706108197834628 0.096893558118130177 0.017720022640656374 -0.56157869331119881 0.82723356557655536
0.37611157725101441 0.12466570587390002 0.10150338368196801 0.015261007114531416 -0.52154617481325249 0.85308656606437927
0.22604729036326088 0.19455241141275856 0.14349237479695012 0.0034229975455743349 -0.53376488013031032 0.84562600233630381
0.22528650450982263 0.20101368611287992 0.14793889383315054 0.0018954492798462356 -0.54200094704525781 0.8403757377947505
0.20670417678295261 0.13961827958030454 0.11119376228776887 -0.1685062501992097 0.49758063785830581 -0.85089314985626896
0.5053446251689222 0.11555944338133187 0.095874095072630325 0.017384173413822632 -0.56449438652629502 0.82525382646493672
0.22796868426152422 0.18466028538417867 0.13751736281798121 0.0022928228357270912 -0.5181263965412134 0.85530098805663801
0.26571896963901109 0.16448446432911765 0.12594201410347555 0.0070547280595841966 0.47388331920546028 -0.88055938504499576
0.25421405789119322 0.16344149428759253 0.12542372720750114 -0.0065221951445778017 -0.52193459346434856 0.85296057418599436
0.50043709643078882 0.12504918676245713 0.10215502687768668 0.016700135114318219 -0.54267120784616274 0.8397791767256142
0.50157846401374961 0.1215889958386267 0.099966837114327536 0.018200088660381052 -0.55060433783012541 0.83456792409929303
0.29299149152039061 0.18397438523437717 0.13763400356161171 0.016932073455602881 -0.51698297535547411 0.85582820009689753
0.50262930835008179 0.11811212704276686 0.097695288037094263 0.018680894204362461 -0.5596684026961346 0.82850606709624186
0.50306852783549194 0.11662320378097875 0.096692606171370224 0.018651279673824388 -0.5630095665173902 0.82623989117957097
0.2319262541446846 0.18787117558022032 0.13954624656744169 -0.00443237184310583 -0.52297239880394042 0.85233809264228988
0.23373924303083771 0.18924631599845543 0.14047228919331414 -0.0066108965335183517 -0.52475882007772523 0.85122527969842199
0.41130767679585212 0.12394113152765053 0.10139455326253831 -0.014159090149547393 -0.54658387145084919 0.83728465388775553
0.23634227461196386 0.15520480898952468 0.12025707382685942 0.0049275579194226239 -0.52987786265505066 0.8480596499309857
0.52810824335141815 0.22738965548145748 0.16492230306491279 -0.0036111098566773653 -0.56071404369142508 0.82800164317035851
0.23588795679265381 0.18599026649281636 0.13865085143313505 -0.0075124239170516055 -0.52130375051116895 0.85333812945975851
0.50381143318906996 0.11356286506290257 0.094595357010385975 0.018061207938414162 -0.56910723578039479 0.82206492867060288
0.51998150007795585 0.23210137886953969 0.16802363212966018 -0.0036361046489335217 -0.57632928195768873 0.81720948201860533
0.50528342839643436 0.10866954433355533 0.091222105580094401 -0.0018250917242840906 0.5299275231015651 -0.84804097147463242
0.49304903116731263 0.14067485285340522 0.11171881731770673 0.00056921228287559928 -0.52379424558893151 0.8518446244975072
0.51923580021574556 0.23425098086512863 0.16956355971789272 -0.0046704715828896643 -0.58316307403340761 0.81234168659444028
0.52009423989847892 0.23565937923759719 0.17059159115329178 -0.0045405673317078692 -0.58718883141659983 0.80943724865360267
0.24504462344064537 0.15174736645098741 0.11827671803994955 -0.0031065588836796418 -0.53103957224248322 0.84734132556156061
0.20746540308747036 0.13665453796227239 0.10902445163932886 0.019700703254152366 -0.5279405590365599 0.84905279483401763
0.24709058530315231 0.14833597836285706 0.11629931490200447 0.010100869042851898 0.48838898538836156 -0.87256757411440977
0.24999350532332279 0.12501070646272305 0.10176837256541874 0.018213584989083362 -0.52141839211612828 0.85310674929042551
0.39351954593115146 0.17345059657151696 0.13080906989954269 -0.0022920015536889615 -0.51815672442991445 0.85528261741773959
0.24915598206436987 0.13685487519190939 0.1088226965311949 0.0057335314296656902 -0.53564911605292076 0.84442119294169171
0.24845155811738334 0.15162266705632985 0.11830653809526021 -0.0048912232728629216 -0.53146084641816715 0.84706873667924998
0.39756973419010289 0.16124842673596498 0.12387496365047265 -0.0021631955756070578 -0.51818102054283766 0.85526823309069822
0.25126407174142584 0.13515888027185255 0.10774360773678672 0.0076855458079799384 -0.53595352726723333 0.84421250227383182
0.39855610019201315 0.1581500134356818 0.12199985037964792 -0.0037280777323113433 -0.51977662867869079 0.85429406981193323
0.25329254310389426 0.12678590301420473 0.1026751339437115 0.019225756679734654 -0.5256484479169683 0.85048461448904178
0.25323375647263835 0.13690545069204044 0.10865086171479428 -0.010901579742931669 0.4755640657783945 -0.87961353724202729
0.58151540699755488 0.17299827588426239 0.13072335257564469 -0.038206366197796819 -0.53100368643337947 0.84650774277387497
0.25644076938407429 0.14271865707495729 0.11281963454095102 0.0011266022696729537 -0.54439333329456774 0.8388293207987878
0.25957298759847508 0.10772594906974356 0.091283327966264705 0.040881213155614923 -0.5169017362217353 0.85506802156429695
0.2594654885084054 0.11600324923282132 0.096342402926614529 -0.03562255632657263 0.461689818704071 -0.88632586828195536
0.25940004747984441 0.12008135205639411 0.098502356503337482 0.035389413833246466 -0.52121762596820154 0.8526897300710331
0.25921787007538544 0.13031886098291301 0.1045545286897071 0.017831031521440149 -0.53776883890037463 0.84290374908563803
0.26122706309084959 0.13031792418579105 0.10445826921335748 0.018393903202752155 -0.54042924106449342 0.84118838539736362
0.50025413454227063 0.11967493386327441 0.098832003672112451 0.019061397009763205 -0.55563093410978881 0.83121051978684668
0.26342880722357787 0.11683218506025421 0.096209916937929629 0.040295686412709461 -0.51892342717047901 0.8538704435628236
0.26545575330944815 0.113574795656081 0.094046479084333293 0.040687493901873789 -0.51654062903748343 0.8552954497678249
0.26539234021728803 0.11695358380057726 0.096020162140389678 0.039402380229075398 -0.5188471315902089 0.85395849224238984
0.56335488832029035 0.19482898159544687 0.14537032007401951 0.0009077611343409961 -0.54650907685651284 0.83745268814612162
0.56155093198824224 0.19582979061042213 0.14601581970047309 0.0010190871098465779 -0.54533909090126576 0.83821491122291758
0.2652232105339794 0.12876774487100756 0.10317822595769885 0.020433652317831178 -0.5426806857037908 0.83969050204049422
0.48965024820861464 0.14531303643055032 0.11452965561581493 -0.0028544157313462998 -0.52003814455552 0.85413826779865376
0.26735798694169799 0.11704773595319172 0.09582545336228436 0.037472781846706549 -0.51884779623043009 0.85404493732326248
0.49159781261869706 0.13873697846771421 0.11056667327000143 0.0019340567764823912 -0.52400276897524167 0.85171436381610055
0.53698320518192466 0.21847638668780855 0.15987795056551193 -0.0020281286460949017 -0.5426319598260394 0.83996812015072719
0.37990193633754049 0.13029354370768589 0.10471210311272226 0.0099387290690744444 -0.52199814979474191 0.85288871095551377
0.20697844403141891 0.24252740280496338 0.17276427310038392 -0.068849727797707705 0.51686929778976187 -0.85329118358535738
0.21009144778120706 0.22839823165455581 0.16490295434025096 -0.014300282014410319 -0.534801385870734 0.84485678052854063
0.43083940775116225 0.24594634298087284 0.1763490635718947 -0.01768273104138695 -0.54827533415617669 0.83611092504454854
0.2141338721111643 0.13835206989495769 0.10995243235113684 0.020198406191510084 -0.52831847546114852 0.84880599248222244
0.21198762682182867 0.22848837989921719 0.16498136116913933 -0.014301802484468811 -0.53539861210846262 0.84447840978797517
0.21188695390081741 0.23357842099340034 0.16795239320873775 -0.0160067445250749 -0.54678859379973066 0.83711768457022939
0.21386861497116755 0.22465377792174049 0.16289997348392812 -0.012000103346936438 -0.52989871126748567 0.84797603345655981
0.21584150133833366 0.22295503109542791 0.16200740464152472 -0.010609719124683559 -0.52886754600519925 0.84863805750304044
0.21594359125416732 0.22842592334875944 0.16503529924814353 -0.013712108641272184 -0.5357980003699423 0.84423484936134996
0.21822070548752948 0.20770908202681534 0.15267611208920784 0.0023921181904693789 -0.53971180919639739 0.84184644727201552
0.21717305673767598 0.23667936280118149 0.17006726521155677 -0.015032901159723009 -0.55579356158226512 0.83118441322393855
0.2201584094007146 0.21254054135896305 0.15592141854306607 -0.0028580845248853525 -0.53518492603678902 0.84473009079577932
0.2221446121796502 0.20770480862047322 0.15268580906662935 0.00048698883004081673 -0.54072288767977805 0.84120064287964125
0.22411714324347989 0.207691249615792 0.15270086161911053 -0.00055057035317260304 -0.54101203229547179 0.84101467156275556
0.22416970740831116 0.2129750339197907 0.15626320834496393 -0.0031335165088067509 -0.53531658165363238 0.84464568813257968
0.5348907442148092 0.22349551964520128 0.1626893014807276 0.0021767726724878323 0.49467986499368444 -0.86907254750714713
0.26645860024361112 0.16318927438316458 0.12522837083137262 0.0063839048775182396 0.47341230726488442 -0.88081782060120317
0.5247335567471374 0.23211165104837855 0.16801454768753357 -0.0027807573150146286 -0.57595589500441569 0.81747603903626276
0.52142587010267294 0.2340933200009897 0.16942867548547041 -0.0035218240895190512 -0.58256107531736456 0.81277929985953656
0.24237567426287893 0.17055473292020229 0.12972158794515107 -0.00085883718448317146 -0.51958668636825112 0.85441730889978529
0.52046687377929779 0.23812188206903515 0.17244852950522696 -0.0051074877045500346 -0.59255146193175579 0.80551640488067455
0.51859697773952329 0.23906871750028161 0.17319446347150361 -0.0072346011130972054 -0.59462151045040723 0.8039732084195409
0.24197929175408669 0.18766184229287244 0.13997516071476993 -0.0091328855621256051 -0.52373348409836207 0.85183321609074381
0.24441097045794019 0.16056626480061439 0.1236801019269443 -0.0022525048055113237 -0.52467844164688027 0.85129751502814943
0.2442194872258194 0.18444453293908675 0.13809917091976387 -0.0082201853449441736 -0.52203510794851404 0.85288438526102583
0.31884591550604985 0.18919359034397273 0.14045460270253413 0.0094566276541480851 -0.52641583256921209 0.85017465465272135
0.55919616541034878 0.2023576305249532 0.15000080056108839 0.00037670797413221554 -0.53904259226809104 0.84227842297663003
0.43225054927875084 0.24610379724557666 0.17648708852963008 -0.017320397256637421 -0.54637337467419733 0.83736260919986238
0.49955929901333385 0.11466881554444934 0.095566677240565626 0.019708507560527694 -0.56915735046611504 0.82199238751957338
0.48831258935348604 0.14283685359394732 0.11305356359254139 -0.0020321291759901575 -0.52051362800788448 0.85385094337892586
0.26301973597687744 0.1501415271733251 0.11811301164421097 -0.00081184950041139029 0.47822097103167654 -0.8782391723021179
0.26510124746572816 0.14526646146779792 0.11468583608034637 0.0024594884464008556 -0.55119516642320865 0.83437272212619307
0.26931010806524597 0.11715235258873588 0.095646526303047333 0.03455582459208445 -0.51891272434795355 0.85412849120992673
0.54767728520254111 0.21174336791788012 0.15582768472258526 0.0043230077164006378 -0.53883642780801166 0.84239932079233382
0.27336140122631686 0.11224213971439158 0.092351870341205691 0.026366504725618779 -0.51356466716431903 0.85764569611754959
0.2731771772652265 0.12736911324932026 0.10158643093317574 0.010416358280857215 -0.54984353267914232 0.83520272332595147
0.27524076018833787 0.1190386819654916 0.096118373137004692 0.018095693007622864 -0.52501137312597668 0.85090281700259418
0.27505798192412928 0.13891397272523842 0.11010989384432752 0.0011409803321897538 -0.5622091136716324 0.82699432323833955
0.28164054533481214 0.16819194670182649 0.12885223150836164 0.0019957737441601711 -0.52944253294145782 0.84834345709723924
0.27727357935878294 0.11222985981361235 0.092449729973260841 -0.0096608435369350577 0.48112109088289945 -0.87660091490358583
0.2772546045036634 0.11901580269459634 0.096195600807001555 -0.0098249028546152344 0.48372556315300941 -0.87516458499884542
0.27660285119571293 0.12908212952444664 0.10266068054930917 -0.0013899468861659266 -0.55857023685641405 0.82945606185368437
0.2764876097424408 0.13426129282176422 0.10655818714736427 -0.0023891333802045452 -0.56447712765528457 0.82544525220981868
0.27925857219034211 0.11919150148105408 0.095973364596091612 0.0042950478459440359 -0.52838866891574565 0.84899173560491603
0.27924933576393796 0.12081539005766051 0.0969623991829313 0.00189588208511257 -0.53448612188509259 0.84517512454127119
0.28122873282287419 0.11571376215772572 0.094266221455507102 -0.00061892997758549058 0.48323916049277404 -0.87548816707704391
0.38392897301454254 0.1455957552170089 0.11386403708789895 -0.0030870559325163484 -0.5262557382408537 0.85032074422199277
0.28120978761159715 0.11920825804572127 0.095937848701852554 -0.0028405777226607346 -0.53046269623609321 0.84770352070764454
0.54768352562097655 0.21473620362555179 0.15760571573642332 0.0054511753408501796 -0.5394973713671084 0.84196963779900258
0.21590913575536194 0.24192382665234549 0.17356029011722424 -0.014837839962130291 -0.56342273034397428 0.82603551100240213
0.22007910476702233 0.22476980508463143 0.16311550731233468 -0.01030651248608957 -0.53113707335582783 0.84722322035422293
0.22007416555832884 0.23363156518744568 0.16825516291728682 -0.013169882159077544 -0.54823554604315827 0.83622027017926082
0.222166661911155 0.22846823309687 0.16525936404878594 -0.01020473570606871 -0.53716304970148832 0.84341669499990679
0.22212919547102733 0.23348268063118352 0.16825329331129513 -0.011259088793503161 -0.54803009066348829 0.83638283856551532
0.22425859825598052 0.2215856475369179 0.16144984904096116 -0.0059639792537818813 -0.52998823299839437 0.84798402333693768
0.22619166187260051 0.21613592489652195 0.15828421788429742 -0.0032978420672284303 -0.53232649458431747 0.84653270899668853
0.53276476063781986 0.23011134489792534 0.16687587126469944 -0.0031353999435918363 -0.56594890492874073 0.82443435534744247
0.22824909795011136 0.21980209167339571 0.16049215184655305 -0.002373649305840208 -0.53051294663331516 0.84767350981578415
0.53029145422549007 0.23332839532265717 0.16898214471047324 -0.0025266329780725075 -0.57724245459291845 0.8165688977308263
0.23221377292922737 0.21647985024833824 0.15853894659354811 0.0010951897804832443 -0.53202224586043756 0.84672966788046411
0.23218207363835494 0.21815983588347729 0.15954222140363786 0.0014799811719830754 -0.53092904178631162 0.84741498821038064
0.38616963624692818 0.11467679648658012 0.095236275942888943 0.022009907032397566 -0.54478499755686605 0.83828686643021588
0.52978562415730202 0.23534076806785925 0.17041634406741343 -0.002137365876756496 -0.5824596010342421 0.81285684153492876
0.23413422723529212 0.21818943914214711 0.159538604920509 0.0034724649819411245 -0.53077931681652202 0.84750295505486894
0.52652165972788001 0.23706294929683946 0.17164066986088389 -0.0024167047064711242 -0.58833182030281661 0.80861599585806865
0.52574859591439127 0.23900772400034817 0.17311149401435855 -0.0027488761638454861 -0.59196938339391614 0.80595576355285314
0.23804325113843644 0.21824006246275274 0.15948239783356172 0.007392177183880003 -0.53035538518675052 0.84774319290684697
0.52999904681594845 0.23771663933741138 0.17218337686047597 -0.0015977761434359374 -0.58706881606131889 0.80953545464034926
0.40407582362386807 0.23444054358196503 0.16774679300926967 0.00057162648860448998 -0.5561797931279282 0.83106179731674135
0.24018319026286486 0.20829354709499973 0.15327547702201008 0.00199402572954222 -0.53693404399431799 0.84362186805540895
0.24013458203561244 0.2098905907784713 0.15447294667085901 -0.03043340916405288 0.49055935631646586 -0.87087618266721945
0.58887173023378014 0.17504188983728231 0.1324171355640284 -0.043816143212368083 -0.53360721134745848 0.84459664313326632
0.24211200735860666 0.20998540874924926 0.15432179411604385 0.0054143765211522145 -0.53479006490049841 0.84496761536203724
0.24139473454458296 0.21435099018919027 0.15705292981161789 0.0083012480039262402 -0.53205690042432996 0.84666790655630264
0.24692338616716381 0.1826900239744878 0.13708432686252101 -0.0072604141608688709 -0.52204769023782138 0.8528853941201997
0.48345838409040759 0.15267684093661479 0.1189425217685241 -0.0060459949081568256 -0.51682075497527169 0.85607228267965818
0.47257771487879552 0.18046657583475639 0.13590394166372818 -0.011617725651147505 -0.52820902558884975 0.8490348954767245
0.25461038449324996 0.19467954225951492 0.14477904720140347 0.0041461566140408692 0.48819143363230943 -0.87272672327216039
0.25679679987374349 0.18420379833454384 0.13812960108194336 -0.0063980277517897153 -0.52328300876193334 0.85213494118123434
0.47893793324725725 0.16031183938861815 0.12344840277744269 -0.0071765074678581909 -0.51998482127908996 0.85414535260687141
0.47835714819497693 0.15481955463395861 0.12019376310930051 -0.010029430176953581 -0.5172705647064828 0.85576315264129132
0.26280869932037576 0.17748315347886098 0.13406590418745762 -0.0089043519562388065 -0.52487957314006817 0.85112992322943237
0.47656428842710996 0.15662689367850238 0.12123789927190204 -0.011332408638089249 -0.51815297672825511 0.85521287947627844
0.4642162705274675 0.18906436095562196 0.14084663638932687 -0.014898482394505693 -0.52272527237717947 0.85237100187684944
0.44801821786725537 0.22543313748285596 0.16402317588894938 -0.0045093509852815314 -0.54351449414467057 0.83938766991679969
0.44080415416696267 0.23627732199073503 0.17065785474088871 -0.013908104041300167 -0.53718753655345297 0.84334815776973693
0.4412233527896588 0.23522377503696948 0.17004311993626378 -0.013507515190430964 -0.53728814461453289 0.84329057666385254
0.43583126308430209 0.24439598108637975 0.17549541189890372 -0.01626341263474847 -0.54171556137877075 0.84040451686646422
0.44489468233965695 0.2165824574135026 0.158105188644487 -0.0034058105118486581 -0.54511105754098166 0.83835692601737954
0.38841976357664298 0.12527503273338314 0.1015849737504084 0.0095886711226685056 -0.53080633280983158 0.84743890306917091
0.43407727152095316 0.24574809081801549 0.17630491567975343 -0.01679421451533427 -0.54401923584427747 0.83890465810497283
0.27268962462120022 0.15541018060160958 0.12099105969698895 -0.00039382370057780515 -0.53661860548718587 0.84382481425227174
0.27288771875944623 0.15905413443167093 0.1230803116450729 -0.0030813580657581283 -0.53194479486408708 0.84677342922972898
0.50230138752968512 0.11159322700839058 0.09330186283472576 0.018503017551017849 -0.57294321311502483 0.81938618055648094
0.27505852252682805 0.14361052542649325 0.11350144827815009 0.0026264220980250163 -0.55656759221946672 0.83079818078639811
0.27782891705184914 0.13425167531021126 0.10655229395848374 -0.0052559930800247642 -0.56533949300184305 0.82484158005592911
0.27704184556903966 0.14518654148958959 0.11457338129207482 0.0023706852486189175 -0.55342493786964564 0.83289568254099544
0.49686931723839473 0.11507811856749793 0.095978039089483866 0.019719605673723196 -0.56948433506856799 0.82176561698794859
0.27906630341890776 0.1357911931890016 0.10775304159538221 -0.0064461728892051305 -0.56572557165511894 0.82456838675186395
0.27896662020675023 0.13876374685055703 0.11043267566583843 0.030774956074391485 0.48989171302007423 -0.87123992768517944
0.27898282747403508 0.14203596877977506 0.1123946259095801 -0.00059316773310292669 -0.55798817178161353 0.8298486900055051
0.38850087778899478 0.17004185590442483 0.12890464701505724 -0.0035772941936966377 -0.51644613983764931 0.85631220218623694
0.28308015148058713 0.13570940034298348 0.10781250953122501 -0.014081737422582062 -0.56639883378783074 0.8240109621570253
0.54782837457474776 0.21935200733024179 0.16043371335479917 0.006450546186356312 -0.54252934743404602 0.84001208183375897
0.28726521494675372 0.11574062038918924 0.094350390918614205 0.011443920263486998 0.48433713808394119 -0.87480659197428334
0.39033652782437889 0.16366604849381955 0.12531398436503993 -0.0039566077613446219 -0.51792461295198788 0.85541711495244011
0.53120048100174133 0.23990422943576487 0.17384278611342269 -0.00086650242010187126 -0.58841122658178469 0.80856136291939873
0.29105846023645982 0.13077031604495787 0.10467790272464174 -0.032496291755116709 -0.56548525867382093 0.82411796075851196
0.29401570233323843 0.10881333220188502 0.090580102519028025 -0.036419432967704092 -0.52299763045972725 0.85155569602687853
0.29397833747160401 0.11217577606548776 0.092552370931139091 -0.03809334424702502 -0.52608424137933252 0.84957887691279721
0.29601109290624988 0.10870047435047638 0.090741277583687066 -0.038966677484703484 -0.52535166398237509 0.8499924865531181
0.48686295393961598 0.14091048901397393 0.11191432636913502 -0.0015592005160984653 -0.52053969289567581 0.85383604808758573
0.22349705625964703 0.13889374291039 0.11018612720783991 0.014796652616551581 -0.527414969797526 0.84947896307373016
0.37333924605238344 0.21229360236626296 0.15515190857480179 -0.013449629918635145 -0.53241943617152387 0.84637382487990986
0.3017146368037123 0.11676337726959704 0.096287297302091318 -0.04370572954901647 -0.54035232698025371 0.84030302387389588
0.37432721939326191 0.20929335053315506 0.15313992639990348 0.010762823094007324 0.50065263001394611 -0.86558136861832102
0.49546852691971321 0.11318272859015538 0.094724457751690985 0.01930065950855846 -0.57368221944699593 0.81885053314564282
0.49628996750739174 0.11026045780206271 0.092615961844488545 0.019072694270345511 -0.57768901378326531 0.81603408978264402
0.30340058901191586 0.11647016790313552 0.096450871114635767 0.035020251831979557 0.4907067002451273 -0.87062076491211915
0.30569118333384071 0.10660965632830657 0.090524475744525712 -0.035746133613424519 -0.53521966628041284 0.84395623272677744
0.28581661022858768 0.16574734996434246 0.1273144681968687 0.0060653213967559877 -0.52946273293955959 0.84831151489563461
0.48389964537440516 0.14407133294721994 0.11381492743561281 -0.0049477562850094581 -0.51810545361290272 0.85530243694515007
0.48451958789113636 0.14202132990459629 0.11259000454754998 -0.0034804816679962864 -0.51904914001787472 0.85473731432181166
0.22624360874888394 0.23045191352014008 0.16655987468648856 -0.0063476162329462703 -0.54101524590282202 0.84098882957436971
0.22619820440364805 0.23857227977235995 0.17169117128748607 -0.0072422624475362166 -0.55588731338085484 0.83122610910440986
0.38385305853132529 0.1800028044512747 0.134403594667096 0.00036166879908543952 -0.52570757459362027 0.85066527800926084
0.22828992948218121 0.23033751756104623 0.16654297285539679 -0.0037835306977181309 -0.54056272982409237 0.84129520384974543
0.22815629009643987 0.23853364138283911 0.17172046501265822 -0.0048991280966778558 -0.55475535942898491 0.83199909238454717
0.23225480892393568 0.23027315487168323 0.16656218608427673 0.0014265299932750106 -0.53945049149692226 0.84201611162489476
0.38535656406565416 0.17340195320715171 0.13067741603338029 -0.0028897783618463003 -0.51794302615824728 0.85541023540466044
0.23223177718244212 0.23562440453437561 0.16989795663402527 0.00071836882285989593 -0.54747213070900669 0.83682360748438189
0.23201706498324792 0.24090444588748647 0.17268606384990418 -0.012466639749961173 0.50315085736657761 -0.86410867234661082
0.30463863167256261 0.17180249791109264 0.13031305077285577 0.019920254815966317 -0.51874766378431347 0.85469529352066975
0.49452104251224427 0.10989580985880458 0.092419143873588683 0.018541769995408106 -0.57884220947083187 0.81522874047739691
0.49512850216301407 0.10810210848221945 0.091106687471528003 0.018469398592147222 -0.58033867859338717 0.8141657690201215
0.23798409359553771 0.23041800647036995 0.16646696871570207 -0.017512756120787201 0.49418020083846809 -0.86918308340205586
0.24028191822011324 0.20657885762365844 0.15214302833343965 0.00068505794844189694 -0.53764292753764142 0.84317235080638264
0.23997394230644803 0.22156339814828546 0.16136397075255401 0.0099176357673285906 -0.52999294280783971 0.84794405539202444
0.23998773969455697 0.23029199846705087 0.16650442377340166 0.0096522224256604724 -0.5363892581828511 0.84391551609642557
0.24194793067608031 0.22155030633397058 0.16128337206620438 0.011316962479067192 -0.53000428265174837 0.84791944589745838
0.24200039855256755 0.23018630516526489 0.16637734687914557 0.010903532024443116 -0.53588032099801874 0.84422354536962085
0.48951812672679007 0.1201082287532456 0.099912560135006309 -0.012757034106159486 0.49952170499441295 -0.86620743723445892
0.24592540741632235 0.2215626747481603 0.16111913139781456 0.012710268322812987 -0.53030673939565576 0.84771057043705078
0.49330591951387859 0.10775494839224511 0.090906314146908571 0.017790298345280557 -0.58135526895173129 0.81345531933035287
0.47741230204714485 0.15139512699467622 0.11812443445837774 -0.011611907166117739 -0.51617616846908443 0.85640371713143604
0.24803639379858083 0.21701679751694256 0.15828619936349742 0.012685181641777815 -0.53061028837450408 0.84752097793378578
0.48034325709473918 0.14112706303120995 0.1120636896130182 -0.0062416065867654542 -0.51710339159188579 0.85590018387156863
0.48138242741431325 0.13805192060734858 0.11027668483243462 -0.0021954320677181143 0.49120732038970205 -0.87103992358192428
0.48572336122624871 0.12311560605572267 0.10152972358817235 0.010500236036873369 -0.54592078033201774 0.83777099892801898
0.37579523380354307 0.19728911177436104 0.14574331508619326 -0.00070817925341699634 -0.53539344789862087 0.84460248308264629
0.48997663333445635 0.11192386711503866 0.093994782578978586 0.016326176880874541 -0.57753017618064251 0.81620607174243098
0.56796307225346376 0.20313975947084034 0.1505010230799099 0.00073009896300588314 -0.53675350771333741 0.84373878594795693
0.49184659873385878 0.10620133607290132 0.089811735323543085 0.016899723854109521 -0.58279135684809813 0.8124460804981507
0.47004065002334905 0.16935258173747531 0.1288235552686344 -0.013095917303777982 -0.52852857930533992 0.84881448963095085
