0.453507 0.234111 0.169681
0.24164 0.22835 0.165241
0.243513 0.231237 0.166946
0.244729 0.232584 0.167699
0.448819 0.240435 0.172987
0.449673 0.238799 0.172127
0.445556 0.244621 0.174915
0.445872 0.243583 0.174382
0.245952 0.233951 0.168377
0.247116 0.235305 0.169046
0.24148 0.226472 0.164249
0.242619 0.227768 0.164908
0.246191 0.231813 0.167009
0.247409 0.23319 0.167699
0.248547 0.234507 0.168385
0.251155 0.237477 0.170118
0.25587 0.242602 0.173582
0.256993 0.24379 0.17444
0.258161 0.244979 0.175367
0.22133 0.200964 0.147862
0.242609 0.225045 0.163812
0.248369 0.232595 0.167371
0.24912 0.233475 0.167799
0.256174 0.240182 0.171954
0.506167 0.132959 0.106682
0.257366 0.241728 0.173043
0.258491 0.242938 0.173871
0.221505 0.199619 0.146832
0.242238 0.220797 0.161384
0.243483 0.222367 0.162669
0.244656 0.223707 0.163378
0.245821 0.225125 0.163957
0.257736 0.239606 0.17173
0.259304 0.240784 0.172453
0.260437 0.241767 0.173078
0.261871 0.240831 0.172499
0.262959 0.242103 0.17319
0.217757 0.188784 0.140301
0.218873 0.190055 0.141022
0.217198 0.186464 0.138952
0.219478 0.189034 0.140395
0.220616 0.19034 0.141083
0.498022 0.151212 0.117418
0.216828 0.182671 0.136715
0.222108 0.189426 0.140562
0.207647 0.168389 0.129498
0.21676 0.180034 0.135175
0.222908 0.186845 0.139192
0.224071 0.188144 0.139924
0.225569 0.189859 0.140851
0.504771 0.130959 0.105633
0.50517 0.129407 0.104742
0.217077 0.177723 0.134038
0.218229 0.17908 0.134662
0.223189 0.18465 0.13784
0.22438 0.185916 0.138658
0.225547 0.187201 0.139411
0.227421 0.189352 0.140565
0.228174 0.190223 0.141001
0.218551 0.176747 0.133605
0.219697 0.178108 0.134191
0.225362 0.185335 0.138235
0.223441 0.179822 0.134965
0.221644 0.174061 0.132318
0.23912 0.242838 0.17443
0.241777 0.243279 0.174581
0.233994 0.231335 0.16755
0.234737 0.232084 0.16819
0.23595 0.233216 0.169191
0.242756 0.24277 0.174188
0.234574 0.230464 0.166741
0.235727 0.231564 0.167733
0.236937 0.232697 0.168754
0.239039 0.234071 0.169705
0.240172 0.235393 0.170452
0.23842 0.231946 0.168068
0.240126 0.232897 0.168706
0.241323 0.234213 0.169471
0.502978 0.130545 0.105411
0.503255 0.128962 0.104502
0.220025 0.207443 0.153156
0.221147 0.208615 0.153959
0.229737 0.218328 0.159689
0.238045 0.228619 0.165272
0.241087 0.232443 0.168189
0.217279 0.203008 0.149758
0.218386 0.20419 0.1506
0.2199 0.205701 0.15185
0.238012 0.226063 0.163796
0.239522 0.227721 0.164778
0.219927 0.203406 0.149899
0.210206 0.188796 0.140463
0.48444 0.182284 0.137171
0.484759 0.18126 0.136569
0.220314 0.201472 0.148309
0.486371 0.177792 0.134516
0.221447 0.202655 0.149158
0.20927 0.186096 0.138827
0.211142 0.188223 0.14003
0.488426 0.171685 0.129923
0.488918 0.170244 0.128917
0.220709 0.198767 0.146317
0.213393 0.182121 0.136644
0.214508 0.183419 0.137306
0.215668 0.182487 0.136671
0.207616 0.210171 0.153212
0.492058 0.160069 0.122954
0.492511 0.158546 0.122058
0.492977 0.157016 0.121166
0.493611 0.154945 0.120033
0.209088 0.211147 0.15365
0.209818 0.21187 0.154287
0.20946 0.209088 0.152381
0.210859 0.208073 0.151957
0.227043 0.224725 0.163149
0.232772 0.231188 0.167369
0.234125 0.232978 0.168971
0.235263 0.23417 0.169896
0.21079 0.205271 0.150788
0.212271 0.207017 0.151667
0.227354 0.222512 0.161956
0.228477 0.223787 0.162636
0.211546 0.20248 0.149679
0.21268 0.203856 0.15028
0.501064 0.130091 0.105181
0.501426 0.128531 0.104282
0.502402 0.12715 0.103352
0.214176 0.205571 0.151245
0.213003 0.20154 0.149182
0.216137 0.204272 0.150618
0.217257 0.205448 0.151509
0.208094 0.188046 0.140209
0.481586 0.183972 0.137782
0.482517 0.182513 0.137069
0.482839 0.181016 0.136127
0.483255 0.179505 0.135179
0.209248 0.189355 0.140898
0.208118 0.185907 0.138787
0.209037 0.187551 0.139672
0.220348 0.244159 0.175847
0.22096 0.24334 0.17509
0.222455 0.242636 0.174484
0.220616 0.237634 0.170961
0.208982 0.222092 0.161675
0.206306 0.210788 0.154084
0.207567 0.212479 0.154934
0.208143 0.211654 0.15411
0.209637 0.212709 0.15497
0.489994 0.157941 0.121872
0.490472 0.15636 0.121074
0.49111 0.154249 0.120021
0.491627 0.152626 0.119302
0.218826 0.242778 0.174524
0.219569 0.243447 0.175181
0.207035 0.220562 0.161051
0.207839 0.221869 0.161626
0.208907 0.135393 0.109012
0.224884 0.10665 0.0919216
0.224861 0.108419 0.0928134
0.224893 0.110166 0.0936918
0.226935 0.108282 0.0931586
0.227014 0.110023 0.0939421
0.22702 0.111789 0.0948187
0.227078 0.113505 0.0957006
0.22889 0.111517 0.094833
0.49922 0.129635 0.104996
0.499469 0.128571 0.104448
0.220956 0.148016 0.115902
0.480596 0.182256 0.136649
0.481024 0.180763 0.135708
0.220969 0.149497 0.117264
0.220869 0.154378 0.120808
0.222975 0.151178 0.118319
0.482933 0.174144 0.131812
0.222946 0.152761 0.119526
0.229387 0.113804 0.0959945
0.208405 0.168153 0.129211
0.485147 0.167226 0.127307
0.2079 0.181191 0.136355
0.486097 0.164096 0.125659
0.486574 0.162523 0.124836
0.487052 0.160989 0.123936
0.208065 0.187323 0.139729
0.488149 0.157514 0.121688
0.488548 0.155978 0.120804
0.489176 0.153817 0.119833
0.48966 0.152182 0.119153
0.490186 0.150568 0.118393
0.20804 0.188975 0.140858
0.210053 0.187341 0.139526
0.210025 0.188994 0.140643
0.212052 0.182215 0.136762
0.21407 0.182213 0.136679
0.214136 0.183267 0.137261
0.216044 0.182289 0.136604
0.216107 0.183347 0.137168
0.217997 0.177228 0.133867
0.477188 0.186281 0.139138
0.217965 0.179029 0.134716
0.217985 0.187361 0.139518
0.220047 0.177157 0.133854
0.478994 0.180056 0.135166
0.479767 0.178754 0.134467
0.480127 0.176823 0.133379
0.480609 0.175276 0.132511
0.219921 0.189141 0.140488
0.48172 0.171732 0.130366
0.482236 0.170308 0.129315
0.482707 0.168806 0.128383
0.222913 0.154432 0.120624
0.222903 0.156172 0.12157
0.484287 0.163715 0.125388
0.484803 0.162146 0.124558
0.222144 0.157986 0.122493
0.485847 0.158604 0.122422
0.486917 0.157233 0.121559
0.487311 0.155722 0.120618
0.487943 0.153574 0.119628
0.488411 0.151899 0.119003
0.488879 0.150273 0.118268
0.489376 0.148708 0.117387
0.461781 0.227344 0.164438
0.462662 0.225603 0.163414
0.463235 0.224399 0.16283
0.46307 0.222743 0.161887
0.22151 0.175261 0.132956
0.221882 0.18748 0.139586
0.221884 0.189154 0.140509
0.221909 0.190305 0.141039
0.472477 0.194376 0.144449
0.472713 0.192633 0.143354
0.473175 0.191165 0.142398
0.473793 0.189208 0.141118
0.224978 0.149832 0.116727
0.224327 0.151292 0.11808
0.224318 0.152856 0.119299
0.224256 0.154515 0.1204
0.224227 0.15621 0.121412
0.477412 0.179538 0.134886
0.480423 0.16988 0.12916
0.480894 0.168404 0.128177
0.481526 0.166425 0.12688
0.482004 0.164866 0.126025
0.482565 0.163307 0.125159
0.483038 0.16176 0.124295
0.483469 0.160179 0.123497
0.4839 0.158648 0.122614
0.459926 0.229362 0.166109
0.460154 0.22847 0.165392
0.460523 0.227087 0.164355
0.461007 0.225171 0.163033
0.461453 0.223673 0.162129
0.462008 0.222061 0.161342
0.462687 0.220388 0.160595
0.465603 0.211707 0.154585
0.224189 0.157938 0.122365
0.466246 0.209863 0.153127
0.468474 0.202846 0.14862
0.468738 0.201347 0.147736
0.224104 0.177731 0.134014
0.470202 0.197782 0.14599
0.224051 0.178976 0.134627
0.224027 0.180719 0.13548
0.471293 0.192398 0.143203
0.471853 0.190876 0.142322
0.223879 0.185759 0.138632
0.223835 0.187461 0.139613
0.223852 0.18917 0.140501
0.226291 0.15148 0.117751
0.226545 0.153369 0.11924
0.226077 0.154779 0.120309
0.480377 0.166171 0.126724
0.480279 0.164491 0.125757
0.225403 0.179001 0.134532
0.481387 0.160819 0.123814
0.482437 0.159389 0.123063
0.457257 0.231049 0.167679
0.45791 0.229391 0.166407
0.458269 0.228031 0.165324
0.458664 0.226708 0.164171
0.225387 0.180735 0.135384
0.459628 0.223378 0.161794
0.460157 0.22182 0.160937
0.225899 0.185716 0.138537
0.461156 0.218764 0.15933
0.461441 0.217034 0.158216
0.462082 0.21508 0.156951
0.462952 0.213572 0.15588
0.225853 0.187389 0.139577
0.463954 0.210537 0.153476
0.464528 0.209126 0.152381
0.465019 0.207291 0.151087
0.46512 0.205525 0.149943
0.466055 0.203936 0.148959
0.466571 0.202102 0.147959
0.466885 0.200531 0.147142
0.225166 0.18915 0.140511
0.228325 0.153652 0.11914
0.228345 0.155173 0.120356
0.468755 0.193613 0.143826
0.4693 0.192055 0.142963
0.228374 0.156774 0.121457
0.229721 0.156219 0.121078
0.237248 0.129585 0.104395
0.471434 0.185558 0.138949
0.471889 0.183592 0.137616
0.23727 0.132664 0.106802
0.455529 0.230866 0.16772
0.456036 0.228995 0.166321
0.45645 0.227625 0.1652
0.456818 0.226264 0.164085
0.237308 0.134144 0.108084
0.236637 0.136243 0.109716
0.23664 0.137935 0.110743
0.239237 0.128138 0.103056
0.459549 0.218409 0.158859
0.460357 0.216377 0.157661
0.46084 0.214931 0.156675
0.461148 0.213506 0.155669
0.239229 0.129764 0.104136
0.237965 0.137964 0.11072
0.462558 0.20882 0.152062
0.463278 0.206825 0.150719
0.463722 0.205286 0.1498
0.464169 0.203793 0.148879
0.464645 0.201748 0.147702
0.464959 0.200166 0.146903
0.465179 0.199097 0.146432
0.238907 0.152012 0.118189
0.468631 0.18812 0.140663
0.469147 0.186635 0.139715
0.46958 0.185172 0.138729
0.469914 0.183692 0.137749
0.452858 0.233279 0.169214
0.241433 0.117489 0.0981041
0.24122 0.126649 0.101687
0.241201 0.128355 0.102708
0.454593 0.227161 0.165172
0.240218 0.150278 0.117278
0.240252 0.151973 0.118179
0.456143 0.222554 0.161489
0.456679 0.221105 0.160457
0.457189 0.219618 0.159487
0.457801 0.218105 0.158553
0.243392 0.117607 0.097939
0.458921 0.214651 0.156312
0.243355 0.119509 0.0984676
0.243327 0.121383 0.0988977
0.243303 0.123228 0.0995319
0.460596 0.208436 0.151856
0.461293 0.20641 0.150575
0.461749 0.204921 0.149633
0.462156 0.203387 0.148755
0.462856 0.201555 0.14767
0.463718 0.199897 0.146806
0.467503 0.187359 0.140221
0.467906 0.186397 0.139554
0.468333 0.184917 0.138586
0.448133 0.239665 0.172442
0.448947 0.23804 0.171592
0.449574 0.236693 0.170874
0.450039 0.235135 0.170042
0.450639 0.233049 0.168961
0.450984 0.231531 0.168137
0.451319 0.230017 0.167297
0.243261 0.125045 0.100419
0.243239 0.126784 0.101415
0.245339 0.117674 0.0978137
0.24534 0.11955 0.0983431
0.245338 0.12144 0.0987929
0.454381 0.220498 0.160358
0.245344 0.123279 0.0994682
0.247265 0.117668 0.0978934
0.20663 0.211215 0.154212
0.456454 0.213764 0.155606
0.45679 0.21232 0.154591
0.206717 0.220532 0.161063
0.458853 0.207527 0.151368
0.459298 0.205984 0.150483
0.45978 0.204488 0.149554
0.460091 0.203467 0.148939
0.446062 0.24257 0.173863
0.446378 0.241538 0.173287
0.207935 0.209668 0.152831
0.447192 0.238013 0.171356
0.447719 0.236438 0.170509
0.448188 0.234886 0.169663
0.44886 0.232736 0.168633
0.44927 0.231173 0.167847
0.44954 0.229657 0.167071
0.449941 0.227659 0.165923
0.450536 0.225713 0.164578
0.207918 0.211343 0.153875
0.207922 0.212848 0.155131
0.208012 0.219474 0.160343
0.208008 0.220596 0.160964
0.210284 0.208236 0.151943
0.20982 0.20981 0.152717
0.454122 0.215417 0.156714
0.454466 0.213962 0.155702
0.210038 0.211756 0.154179
0.212066 0.200716 0.148858
0.443962 0.242859 0.173802
0.44449 0.240807 0.172721
0.444856 0.239278 0.171904
0.212022 0.202492 0.149672
0.21207 0.204756 0.150637
0.446656 0.234419 0.169287
0.212165 0.206445 0.151347
0.44727 0.230465 0.167401
0.447928 0.229186 0.166774
0.448223 0.227534 0.165822
0.449272 0.225468 0.16446
0.44984 0.223988 0.163455
0.214161 0.184384 0.13785
0.214077 0.204649 0.150714
0.216129 0.184438 0.137802
0.216101 0.186138 0.138811
0.216052 0.204021 0.150471
0.217945 0.202521 0.149386
0.218019 0.204004 0.150487
0.220003 0.196247 0.144765
0.441276 0.242483 0.173507
0.442484 0.240531 0.172494
0.442913 0.238983 0.171645
0.219938 0.20258 0.149247
0.220009 0.204497 0.150846
0.444021 0.233616 0.168725
0.444558 0.231998 0.167963
0.222297 0.171717 0.130954
0.22226 0.173464 0.131945
0.222884 0.175262 0.132859
0.448848 0.219263 0.160053
0.449474 0.217436 0.158573
0.221989 0.193013 0.1426
0.439024 0.243156 0.173963
0.439409 0.24162 0.173139
0.441159 0.240316 0.172371
0.44154 0.238788 0.171532
0.442015 0.237236 0.170652
0.221967 0.199551 0.146755
0.442082 0.233279 0.168544
0.442616 0.231668 0.167774
0.221941 0.201138 0.147915
0.224271 0.173503 0.131836
0.441304 0.231444 0.16767
0.224187 0.175298 0.132814
0.22417 0.176486 0.133415
0.223909 0.19027 0.141045
0.226151 0.177142 0.133577
0.22676 0.179022 0.134408
0.226722 0.180745 0.135232
0.226085 0.189869 0.140888
0.22813 0.177211 0.133459
0.22809 0.179029 0.134283
0.227946 0.186224 0.138718
0.227902 0.187903 0.139808
0.227876 0.189625 0.140766
0.230637 0.156907 0.121571
0.230402 0.158288 0.122654
0.23013 0.177823 0.133574
0.229953 0.186255 0.13856
0.229917 0.187848 0.139722
0.232402 0.156697 0.121486
0.232433 0.158207 0.122703
0.232008 0.184607 0.137382
0.231966 0.186178 0.138553
0.238977 0.154203 0.119461
0.23833 0.155265 0.120173
0.238376 0.156875 0.12123
0.241628 0.150192 0.117263
0.240749 0.153464 0.118994
0.24035 0.155287 0.120091
0.240369 0.156918 0.121131
0.240378 0.158532 0.122186
0.24037 0.160189 0.123219
0.24255 0.153769 0.11926
0.242361 0.155239 0.120117
0.242161 0.160353 0.123291
0.259195 0.131634 0.106038
0.261506 0.109707 0.0917441
0.261495 0.114429 0.0951083
0.261232 0.131604 0.106021
0.263522 0.109769 0.0916931
0.263505 0.111273 0.0928843
0.26349 0.11286 0.0939475
0.263462 0.114509 0.0950177
0.263235 0.131699 0.105833
0.263207 0.133332 0.106875
0.265505 0.111333 0.092754
0.50248 0.113698 0.0937833
0.485604 0.156979 0.121368
0.486037 0.155461 0.120439
0.486624 0.153381 0.119332
0.487082 0.151737 0.118643
0.487546 0.150061 0.117978
0.488632 0.147803 0.116894
0.265225 0.130269 0.104449
0.265197 0.131868 0.105549
0.264537 0.13284 0.106422
0.271356 0.113202 0.0933356
0.208019 0.221711 0.161528
0.208035 0.222787 0.162137
0.214203 0.206269 0.151511
0.216133 0.205044 0.151112
0.218089 0.204969 0.151223
0.220176 0.207437 0.153093
0.220219 0.208957 0.154182
0.494858 0.128513 0.104662
0.495263 0.126942 0.103799
0.495681 0.125356 0.102956
0.496151 0.123867 0.101939
0.254912 0.16751 0.127201
0.254882 0.169251 0.128116
0.25485 0.170968 0.129071
0.256972 0.163767 0.125773
0.2563 0.165604 0.12646
0.256277 0.167996 0.127468
0.477801 0.177988 0.134032
0.478277 0.176426 0.133198
0.478765 0.174861 0.132348
0.256209 0.169809 0.128383
0.257073 0.171302 0.12925
0.484136 0.157658 0.121953
0.484371 0.156692 0.121245
0.484803 0.155226 0.12023
0.485389 0.153137 0.11911
0.485856 0.151526 0.118358
0.486258 0.149863 0.117687
0.486831 0.14768 0.116651
0.258958 0.160205 0.124254
0.258959 0.16191 0.125119
0.261013 0.160199 0.124132
0.260325 0.161305 0.124813
0.265427 0.133597 0.106839
0.267177 0.131993 0.105351
0.267109 0.145121 0.114847
0.267 0.150068 0.118187
0.266975 0.151863 0.119108
0.269156 0.132123 0.105164
0.268422 0.145086 0.114885
0.492941 0.128031 0.104523
0.493415 0.126456 0.103672
0.493831 0.124873 0.102782
0.494299 0.123339 0.101853
0.26829 0.150067 0.118237
0.268276 0.151264 0.118872
0.27134 0.114299 0.0940007
0.2753 0.11385 0.0935106
0.275281 0.115594 0.0943873
0.219993 0.236872 0.170459
0.220045 0.242123 0.173947
0.219603 0.243685 0.175368
0.225657 0.223183 0.162252
0.230221 0.216464 0.158659
0.230189 0.218189 0.159592
0.242147 0.194475 0.144038
0.479061 0.16801 0.127964
0.479144 0.165925 0.12655
0.248093 0.193339 0.143307
0.248022 0.195117 0.144252
0.482523 0.156215 0.121137
0.247993 0.196739 0.145319
0.249985 0.195087 0.144281
0.483926 0.151239 0.117887
0.484364 0.149621 0.117131
0.485051 0.147665 0.116223
0.24996 0.196694 0.145368
0.252856 0.184203 0.138187
0.252813 0.185913 0.1392
0.252612 0.196564 0.145464
0.490178 0.133088 0.106925
0.49066 0.131451 0.106227
0.491226 0.129282 0.105254
0.491701 0.127701 0.104439
0.492187 0.126142 0.103566
0.493759 0.121139 0.100333
0.251981 0.19814 0.146506
0.252034 0.199132 0.147201
0.254832 0.182567 0.137145
0.472192 0.182089 0.136659
0.254805 0.184263 0.138131
0.254613 0.196452 0.145552
0.25398 0.198076 0.146515
0.253366 0.1991 0.147177
0.257667 0.164899 0.126246
0.257648 0.166125 0.126717
0.257621 0.167955 0.127451
0.257588 0.16973 0.128332
0.47663 0.167516 0.127631
0.47735 0.165557 0.126286
0.256814 0.180873 0.13621
0.256803 0.182576 0.137115
0.25899 0.16421 0.126162
0.258985 0.16604 0.126795
0.258776 0.177561 0.134194
0.25879 0.179185 0.135203
0.2588 0.180869 0.136129
0.258759 0.18657 0.139107
0.48208 0.150888 0.117562
0.465405 0.198025 0.145966
0.258613 0.192965 0.143649
0.258583 0.194645 0.144678
0.261212 0.162047 0.125177
0.467459 0.191173 0.142473
0.470145 0.182707 0.137092
0.470374 0.181738 0.136403
0.470718 0.180261 0.135398
0.471264 0.17822 0.134197
0.471695 0.176633 0.133405
0.260997 0.164106 0.12623
0.472638 0.172951 0.131456
0.261018 0.167726 0.127516
0.260815 0.174558 0.131609
0.260789 0.176039 0.132885
0.474805 0.167183 0.127328
0.475539 0.165187 0.126004
0.476008 0.163589 0.125164
0.260799 0.177546 0.134068
0.260788 0.179151 0.135154
0.260776 0.180869 0.136076
0.260758 0.184887 0.138087
0.260531 0.186377 0.138922
0.261144 0.199275 0.147122
0.262989 0.161898 0.124984
0.46248 0.199634 0.146685
0.463476 0.198206 0.145926
0.262971 0.164077 0.12628
0.262987 0.1658 0.127016
0.464865 0.192892 0.143395
0.465525 0.190785 0.142295
0.466073 0.189232 0.141411
0.262997 0.167624 0.127665
0.262945 0.16953 0.128382
0.467041 0.184641 0.138475
0.468171 0.182848 0.137165
0.46851 0.18139 0.136132
0.468855 0.179896 0.135152
0.469402 0.177845 0.133952
0.470451 0.176382 0.133239
0.470841 0.174783 0.132464
0.471952 0.171186 0.130351
0.262914 0.171348 0.129221
0.262881 0.173028 0.13028
0.472949 0.166811 0.127077
0.47369 0.164818 0.125725
0.474124 0.16322 0.124862
0.262836 0.174579 0.131483
0.475264 0.159622 0.123287
0.476173 0.157921 0.122528
0.262737 0.183188 0.137163
0.477035 0.154778 0.120853
0.456889 0.210665 0.153492
0.457666 0.208919 0.152274
0.457519 0.207239 0.15131
0.457991 0.20576 0.150355
0.458456 0.20422 0.149506
0.459402 0.202625 0.148476
0.460778 0.200938 0.147434
0.461216 0.199407 0.146548
0.461668 0.197821 0.145721
0.262723 0.184885 0.138081
0.462628 0.194078 0.143972
0.462999 0.192495 0.143208
0.463588 0.190378 0.142162
0.262474 0.196353 0.145671
0.262452 0.19811 0.146555
0.262426 0.199855 0.147469
0.465797 0.184381 0.138343
0.466293 0.182464 0.136947
0.466645 0.181033 0.135879
0.466995 0.179541 0.134884
0.264976 0.162435 0.125187
0.471093 0.166422 0.126867
0.264971 0.163992 0.126295
0.454594 0.212968 0.155023
0.454806 0.211965 0.154398
0.455134 0.210539 0.153365
0.455707 0.208531 0.152099
0.45618 0.207027 0.151152
0.456734 0.205473 0.15029
0.457379 0.203451 0.149073
0.457783 0.201983 0.148095
0.458883 0.200617 0.147202
0.459375 0.199087 0.146267
0.459825 0.19752 0.14543
0.264965 0.165716 0.127128
0.264962 0.167527 0.127817
0.264948 0.169407 0.12848
0.461989 0.189865 0.141862
0.462245 0.18841 0.141101
0.462863 0.186893 0.140156
0.264931 0.171228 0.129316
0.264551 0.177639 0.134176
0.464484 0.182286 0.136854
0.465315 0.180766 0.135738
0.447538 0.226711 0.165318
0.264746 0.179621 0.135481
0.264714 0.181358 0.136396
0.451649 0.214456 0.156108
0.264688 0.183128 0.137264
0.264014 0.184854 0.138166
0.453223 0.210156 0.153189
0.453797 0.208162 0.151906
0.454313 0.206635 0.150977
0.454809 0.20514 0.15006
0.455463 0.203131 0.148837
0.455923 0.201654 0.147862
0.456356 0.200222 0.146831
0.456995 0.198228 0.145543
0.457476 0.196662 0.14464
0.458087 0.195268 0.143957
0.458936 0.193456 0.143286
0.46095 0.186496 0.139969
0.263763 0.196356 0.145714
0.264377 0.198111 0.146636
0.446167 0.227002 0.165457
0.264356 0.199864 0.14752
0.447233 0.223532 0.163191
0.264325 0.201604 0.148454
0.449855 0.216053 0.157471
0.450175 0.214688 0.156336
0.26496 0.202734 0.14912
0.451065 0.210738 0.153683
0.453064 0.204303 0.149489
0.439791 0.240098 0.172295
0.440329 0.238067 0.171144
0.266945 0.165658 0.127179
0.266953 0.167421 0.127925
0.266943 0.169253 0.12868
0.266647 0.179546 0.135647
0.266627 0.18129 0.136566
0.445245 0.223209 0.162956
0.266611 0.182481 0.137146
0.44658 0.219923 0.160454
0.447099 0.21851 0.159407
0.266285 0.200444 0.147922
0.26627 0.201603 0.148552
0.448506 0.214223 0.156033
0.448874 0.212605 0.154865
0.449692 0.211007 0.153842
0.269631 0.150017 0.118272
0.26918 0.152033 0.119232
0.437014 0.242776 0.173904
0.437376 0.241266 0.173071
0.437804 0.239733 0.172206
0.4383 0.237693 0.171118
0.438777 0.236135 0.170265
0.439351 0.234552 0.169365
0.439882 0.232564 0.168271
0.44011 0.230706 0.167317
0.441167 0.229234 0.166613
0.441493 0.227238 0.165506
0.442398 0.225851 0.164679
0.442766 0.224411 0.163648
0.443252 0.222965 0.162615
0.443855 0.221541 0.161557
0.443932 0.219564 0.16003
0.268946 0.153657 0.119895
0.268901 0.166815 0.12773
0.44545 0.214776 0.15654
0.446414 0.213478 0.155565
0.270927 0.151786 0.119216
0.434494 0.244344 0.175176
0.43502 0.242409 0.173841
0.435558 0.240375 0.172707
0.435891 0.238868 0.171876
0.43621 0.237823 0.17132
0.270844 0.166854 0.127678
0.438106 0.232101 0.168079
0.438749 0.230521 0.167187
0.439176 0.228959 0.166367
0.439591 0.226953 0.165207
0.432249 0.244907 0.175819
0.432667 0.243547 0.174647
0.43325 0.242231 0.173882
0.434254 0.240121 0.172653
0.436958 0.231351 0.16769
0.437278 0.230334 0.167087
0.437813 0.228785 0.16619
0.43824 0.227285 0.165267
0.500948 0.114324 0.0943934
0.272776 0.165901 0.126807
0.272783 0.166884 0.127619
0.275069 0.145048 0.114791
0.275082 0.14645 0.116153
0.274719 0.165901 0.126788
0.274724 0.166866 0.127616
0.277287 0.146769 0.116423
0.276399 0.147935 0.117445
0.276968 0.152114 0.1196
0.500968 0.107938 0.0903476
0.276916 0.153994 0.120225
0.276019 0.166855 0.127626
0.279393 0.126001 0.0999679
0.281358 0.124896 0.0993302
0.281424 0.126 0.100058
0.283372 0.125954 0.100148
0.499138 0.107699 0.0900891
0.285279 0.126483 0.100767
0.287201 0.126433 0.100847
0.287216 0.127947 0.102151
0.298011 0.108554 0.0910261
0.297961 0.110201 0.0920385
0.297919 0.111939 0.092951
0.299936 0.10848 0.0911606
0.299887 0.110124 0.0922088
0.299895 0.111822 0.0931477
0.299861 0.113557 0.0940578
0.48887 0.132763 0.106838
0.489351 0.131127 0.106133
0.489994 0.128999 0.105095
0.490465 0.127433 0.104256
0.490913 0.125822 0.103437
0.491969 0.124398 0.10261
0.301821 0.108358 0.0914066
0.492525 0.120857 0.100173
0.301789 0.109988 0.0924813
0.301769 0.111659 0.0934797
0.303681 0.108126 0.0918312
0.303645 0.10978 0.0928806
0.303628 0.111501 0.0938317
0.303613 0.11328 0.0946639
0.303642 0.115017 0.0955011
0.305536 0.107873 0.0922805
0.305504 0.109564 0.0933571
0.482463 0.149332 0.116664
0.305497 0.11135 0.094208
0.305507 0.113137 0.0950253
0.305528 0.114919 0.0957866
0.306892 0.106587 0.0917791
0.306863 0.107688 0.0925903
0.30682 0.109469 0.093578
0.307479 0.111219 0.09448
0.307248 0.112856 0.0951265
0.222084 0.243447 0.175164
0.487635 0.132454 0.106729
0.488042 0.130826 0.105986
0.488671 0.128687 0.104947
0.489147 0.12711 0.104124
0.489621 0.125546 0.103237
0.227004 0.223126 0.162215
0.228348 0.223616 0.162473
0.491291 0.12062 0.0999443
0.234143 0.230345 0.166534
0.234144 0.231755 0.167809
0.234142 0.233194 0.16905
0.236035 0.231786 0.167866
0.236071 0.233202 0.169072
0.23801 0.223228 0.162352
0.238045 0.224894 0.16318
0.238034 0.227182 0.164363
0.237998 0.22884 0.165397
0.237991 0.231793 0.167865
0.480223 0.150467 0.117357
0.480614 0.148975 0.116352
0.238025 0.233237 0.169037
0.240022 0.227089 0.164388
0.239978 0.228774 0.165383
0.239977 0.231788 0.167777
0.240003 0.233268 0.168885
0.240026 0.234776 0.16995
0.242009 0.225177 0.163744
0.242025 0.226925 0.164455
0.242021 0.228601 0.165312
0.485698 0.131996 0.106523
0.486159 0.130399 0.105737
0.486734 0.128271 0.104658
0.487244 0.12668 0.103828
0.487739 0.125118 0.102971
0.241982 0.231783 0.167491
0.241323 0.23329 0.168745
0.241317 0.234876 0.16981
0.244015 0.216738 0.157947
0.243948 0.221177 0.161803
0.24394 0.223383 0.16315
0.243974 0.22509 0.163872
0.2462 0.207857 0.153379
0.246149 0.209717 0.154121
0.245946 0.223347 0.163154
0.245967 0.225045 0.163848
0.245993 0.22615 0.164271
0.469117 0.176142 0.13306
0.469589 0.174541 0.132273
0.470786 0.172549 0.131247
0.470705 0.170908 0.130223
0.248214 0.207784 0.153183
0.474527 0.158733 0.122868
0.474841 0.157642 0.122394
0.475316 0.156051 0.121592
0.476391 0.153962 0.120269
0.476963 0.152744 0.119313
0.248171 0.210133 0.154265
0.477823 0.149924 0.117107
0.478197 0.148432 0.11609
0.478728 0.146439 0.11474
0.247919 0.223436 0.162971
0.247949 0.225041 0.163729
0.25015 0.201497 0.149188
0.249937 0.218827 0.159089
0.249877 0.223536 0.162721
0.249904 0.225153 0.163495
0.25208 0.200096 0.147922
0.482853 0.133054 0.107002
0.483219 0.131461 0.10615
0.483743 0.130084 0.105431
0.484792 0.127857 0.10436
0.485266 0.126272 0.103521
0.252119 0.201564 0.148964
0.252135 0.203068 0.149901
0.251845 0.222069 0.161372
0.251852 0.223623 0.162407
0.253631 0.220738 0.160013
0.253164 0.223157 0.161886
0.256668 0.199628 0.147401
0.257334 0.204481 0.149971
0.258599 0.199727 0.14735
0.261419 0.187068 0.139397
0.26032 0.199965 0.147446
0.262729 0.186504 0.139081
0.26534 0.184762 0.138242
0.467491 0.177481 0.133694
0.467873 0.175906 0.132868
0.468342 0.174295 0.132099
0.468928 0.172176 0.130993
0.46946 0.170684 0.130016
0.264705 0.186405 0.13918
0.265087 0.196296 0.145726
0.263702 0.202677 0.149023
0.266641 0.183582 0.137718
0.473503 0.15738 0.122227
0.473979 0.155789 0.121414
0.474667 0.15375 0.120197
0.475196 0.152339 0.119121
0.475628 0.150917 0.118048
0.476051 0.1495 0.116966
0.266619 0.184718 0.138359
0.476946 0.146059 0.114518
0.266477 0.194996 0.145127
0.266407 0.196807 0.146062
0.266345 0.19805 0.146691
0.266329 0.199212 0.147288
0.479569 0.137857 0.10963
0.48006 0.136289 0.108765
0.266296 0.202677 0.149133
0.266274 0.20384 0.149737
0.266315 0.205445 0.150551
0.266352 0.207073 0.151296
0.268918 0.167929 0.128315
0.268933 0.169082 0.1289
0.268646 0.177667 0.134843
0.268568 0.181148 0.13677
0.463752 0.181465 0.136302
0.464137 0.180029 0.135235
0.465312 0.179051 0.13455
0.465579 0.17715 0.133376
0.466008 0.175563 0.132561
0.268612 0.182869 0.137601
0.268614 0.184565 0.138495
0.268375 0.198486 0.147004
0.268333 0.20025 0.147922
0.268288 0.202036 0.148871
0.268287 0.203716 0.149729
0.268303 0.205369 0.150552
0.268311 0.207046 0.151328
0.268337 0.208683 0.152105
0.471024 0.158679 0.1226
0.471492 0.157047 0.121854
0.472019 0.155451 0.121049
0.472765 0.153419 0.119835
0.4733 0.151991 0.118792
0.473832 0.15055 0.117796
0.474252 0.149082 0.116775
0.268321 0.210349 0.153063
0.475186 0.145626 0.114354
0.270853 0.167897 0.128405
0.27056 0.177503 0.135095
0.270609 0.182743 0.137712
0.27065 0.184403 0.138527
0.270402 0.19829 0.146989
0.270373 0.200055 0.147843
0.270318 0.201854 0.148798
0.270315 0.203525 0.149669
0.27031 0.205246 0.150485
0.457402 0.1944 0.143456
0.457802 0.192747 0.142749
0.270299 0.20754 0.151535
0.270282 0.209239 0.152417
0.459751 0.187941 0.140743
0.45971 0.186267 0.139779
0.272786 0.167865 0.128436
0.272596 0.17907 0.136245
0.272587 0.180855 0.137091
0.272616 0.1826 0.137829
0.272648 0.184872 0.13882
0.272632 0.186553 0.139759
0.272479 0.194614 0.145289
0.463996 0.173547 0.131298
0.464691 0.171459 0.130171
0.465227 0.169941 0.129259
0.27179 0.196395 0.146111
0.271768 0.198159 0.146983
0.271707 0.201651 0.148732
0.271675 0.203394 0.149619
0.271647 0.205143 0.150473
0.470069 0.155192 0.120554
0.470875 0.153165 0.119351
0.471414 0.151676 0.118408
0.47194 0.150201 0.117442
0.471836 0.148586 0.116365
0.472274 0.147087 0.115394
0.271605 0.20753 0.15151
0.272222 0.209261 0.152418
0.272188 0.210901 0.153445
0.274765 0.16783 0.128436
0.274687 0.17889 0.136247
0.274638 0.180646 0.137186
0.274634 0.182422 0.137917
0.274465 0.194024 0.144994
0.451386 0.209343 0.152616
0.274123 0.210859 0.153526
0.274081 0.212376 0.154678
0.452655 0.20533 0.150089
0.453448 0.202817 0.148576
0.453949 0.201404 0.147512
0.454464 0.200002 0.146445
0.455126 0.198021 0.145143
0.455648 0.196432 0.144215
0.456092 0.194801 0.143414
0.274046 0.213353 0.155473
0.277725 0.148513 0.117715
0.27769 0.150237 0.11874
0.276015 0.178804 0.136323
0.45842 0.186047 0.139575
0.275961 0.18117 0.137488
0.275779 0.194044 0.144956
0.275378 0.211322 0.153979
0.275355 0.212311 0.154761
0.275323 0.21328 0.155541
0.27904 0.147545 0.116794
0.279037 0.148583 0.117614
0.462297 0.172698 0.130694
0.46283 0.171196 0.129775
0.463373 0.169697 0.128812
0.463865 0.168257 0.127781
0.464456 0.166347 0.126362
0.278997 0.150315 0.118611
0.278947 0.152126 0.119431
0.469763 0.152504 0.118694
0.470201 0.151519 0.118074
0.470078 0.149895 0.117021
0.469924 0.148254 0.115948
0.470469 0.1467 0.115062
0.471587 0.144749 0.113943
0.280988 0.147748 0.116516
0.280985 0.148786 0.117296
0.280969 0.150393 0.118387
0.280929 0.152159 0.119247
0.280612 0.165716 0.126947
0.280631 0.167195 0.128158
0.448112 0.211778 0.154335
0.448939 0.210181 0.153336
0.449507 0.208917 0.152477
0.282922 0.147444 0.115825
0.45028 0.205542 0.150339
0.451154 0.204308 0.14953
0.451511 0.202492 0.148312
0.452049 0.201064 0.147312
0.452546 0.199674 0.146223
0.453236 0.197741 0.144815
0.453765 0.196214 0.143848
0.454208 0.194544 0.142984
0.282918 0.148988 0.116979
0.282909 0.150571 0.118071
0.282881 0.152264 0.119054
0.282866 0.153957 0.119924
0.282795 0.159288 0.122427
0.282603 0.166126 0.127423
0.284861 0.149157 0.116719
0.284851 0.150728 0.117832
0.284834 0.153972 0.119856
0.287443 0.15563 0.120825
0.460734 0.173508 0.131071
0.461054 0.172495 0.130465
0.461581 0.171007 0.129518
0.462132 0.169521 0.128547
0.462565 0.168088 0.127491
0.462987 0.166642 0.12644
0.441032 0.225684 0.164464
0.44135 0.224699 0.163797
0.442171 0.222343 0.16201
0.442659 0.22091 0.160972
0.445157 0.213188 0.155467
0.446736 0.212011 0.154555
0.287446 0.157344 0.121673
0.447517 0.208529 0.152341
0.447949 0.207032 0.151383
0.448539 0.205017 0.150143
0.289412 0.153802 0.120108
0.44953 0.202055 0.148221
0.450053 0.200667 0.147117
0.450633 0.199284 0.146044
0.451315 0.197398 0.144611
0.451842 0.195931 0.143559
0.452196 0.194313 0.1426
0.452658 0.192144 0.14151
0.289392 0.156132 0.121223
0.289386 0.157869 0.122074
0.291331 0.156065 0.121354
0.290664 0.15783 0.122184
0.298602 0.148043 0.115895
0.305588 0.116696 0.0964711
0.305524 0.12582 0.101549
0.436433 0.236799 0.170812
0.436906 0.235248 0.169934
0.439784 0.225519 0.164225
0.440621 0.223977 0.163152
0.440808 0.222185 0.161776
0.441415 0.220754 0.16072
0.441897 0.219318 0.159673
0.307826 0.10578 0.0913504
0.308219 0.107571 0.0927712
0.443486 0.214345 0.156396
0.443895 0.21289 0.155374
0.308186 0.109371 0.0937406
0.308145 0.113629 0.0955192
0.445635 0.208054 0.152302
0.446155 0.20677 0.151501
0.307506 0.115432 0.0961701
0.44767 0.203185 0.149205
0.307532 0.117252 0.0968135
0.309646 0.105873 0.0916096
0.448824 0.198348 0.145606
0.44931 0.196979 0.144495
0.449808 0.195534 0.143382
0.450387 0.194205 0.142475
0.451262 0.19249 0.141528
0.309621 0.107517 0.0927843
0.309566 0.109356 0.093783
0.43252 0.241416 0.173435
0.432945 0.23988 0.172576
0.434003 0.23846 0.171785
0.434329 0.236942 0.170976
0.309494 0.111143 0.0946368
0.309477 0.115406 0.0962195
0.309497 0.117178 0.0969076
0.435913 0.230151 0.166919
0.436504 0.228613 0.16599
0.437429 0.22653 0.164711
0.311689 0.107632 0.0926489
0.311625 0.109341 0.0936341
0.311452 0.115375 0.0962246
0.311461 0.117132 0.0969641
0.439886 0.219057 0.159334
0.440591 0.21699 0.158127
0.240032 0.235848 0.170542
0.441563 0.213925 0.156269
0.239966 0.242589 0.174061
0.442348 0.210931 0.154358
0.242645 0.232819 0.168089
0.242633 0.233863 0.168877
0.430258 0.244644 0.175556
0.430626 0.243248 0.174482
0.431102 0.241688 0.173619
0.431737 0.239602 0.172487
0.432109 0.238071 0.171654
0.432425 0.236545 0.170848
0.242189 0.235625 0.17008
0.241987 0.236983 0.170883
0.433912 0.231462 0.167784
0.241962 0.242543 0.173906
0.435297 0.227942 0.165482
0.435731 0.2265 0.164474
0.436167 0.225072 0.163444
0.436482 0.223669 0.162375
0.244014 0.230682 0.166404
0.437445 0.220302 0.159957
0.43793 0.218773 0.159018
0.438604 0.216651 0.157892
0.243967 0.232318 0.167528
0.24394 0.233938 0.16864
0.44013 0.211923 0.155268
0.440532 0.210411 0.154335
0.243914 0.237147 0.170661
0.243935 0.242529 0.173784
0.428296 0.244435 0.175195
0.428905 0.242436 0.173903
0.429377 0.24086 0.173063
0.429905 0.239231 0.172285
0.430324 0.237676 0.171457
0.245953 0.23233 0.167246
0.431058 0.234131 0.169509
0.245918 0.234004 0.168324
0.432218 0.230994 0.167501
0.245862 0.235681 0.169386
0.4333 0.227693 0.165173
0.245849 0.237319 0.170404
0.247997 0.226638 0.164328
0.43478 0.222993 0.161625
0.435334 0.221734 0.160729
0.436364 0.219624 0.159389
0.436825 0.218053 0.158502
0.436998 0.216168 0.157536
0.247959 0.232312 0.167044
0.247894 0.234092 0.168112
0.247843 0.23579 0.169149
0.250861 0.205052 0.151337
0.250192 0.208323 0.153234
0.425902 0.245641 0.175916
0.426285 0.244329 0.174679
0.426638 0.241993 0.173318
0.427005 0.240435 0.172622
0.427492 0.23881 0.171876
0.250162 0.210019 0.154113
0.250172 0.211693 0.154964
0.429267 0.2338 0.169212
0.250592 0.226173 0.163953
0.252126 0.204088 0.1505
0.252127 0.205172 0.151099
0.252123 0.210051 0.153937
0.432945 0.222781 0.161236
0.252122 0.211724 0.154813
0.436052 0.212619 0.155811
0.436648 0.210479 0.154776
0.437011 0.208959 0.153937
0.424643 0.245189 0.175107
0.425206 0.243682 0.174071
0.424835 0.242179 0.173122
0.425124 0.24018 0.172251
0.252127 0.213397 0.155687
0.426177 0.23696 0.170667
0.42658 0.235404 0.169845
0.427548 0.233492 0.168853
0.251909 0.225637 0.163562
0.254061 0.204254 0.15025
0.430128 0.225759 0.163497
0.430849 0.224107 0.162171
0.434359 0.214017 0.156352
0.434523 0.212101 0.155485
0.435471 0.210232 0.154618
0.42343 0.241168 0.172466
0.42324 0.239925 0.17186
0.423898 0.23826 0.171083
0.424545 0.236147 0.169985
0.424976 0.234571 0.169191
0.425276 0.233074 0.168373
0.425837 0.231032 0.167236
0.426356 0.229537 0.166332
0.254034 0.205341 0.150847
0.254078 0.211822 0.154734
0.427854 0.225494 0.163399
0.421993 0.238006 0.170712
0.422808 0.235833 0.169605
0.42316 0.234299 0.168814
0.42357 0.232735 0.16805
0.424109 0.230721 0.16693
0.424689 0.229192 0.166087
0.425152 0.227709 0.165176
0.425612 0.226294 0.164171
0.425822 0.22541 0.163431
0.42074 0.23782 0.170464
0.42104 0.235781 0.169409
0.421889 0.234092 0.168643
0.422352 0.232536 0.167822
0.422994 0.230499 0.166727
0.42292 0.228879 0.165795
0.423381 0.227416 0.16489
0.424367 0.226098 0.164016
0.414651 0.244738 0.174575
0.414996 0.243804 0.17389
0.413474 0.244452 0.17448
0.41382 0.243518 0.173807
0.412187 0.24418 0.174456
0.483073 0.129211 0.104908
0.483453 0.127576 0.104126
0.483929 0.125981 0.103269
0.484342 0.124967 0.102698
0.254083 0.223781 0.162232
0.253922 0.225597 0.163363
0.256036 0.20438 0.150034
0.255923 0.224043 0.162276
0.255949 0.22553 0.163271
0.482186 0.127325 0.10388
0.482623 0.12572 0.103051
0.255622 0.242771 0.173667
0.255626 0.244306 0.174737
0.258593 0.208997 0.152472
0.258595 0.21055 0.153513
0.258614 0.212121 0.154572
0.257956 0.223953 0.162185
0.257306 0.22495 0.162923
0.257642 0.237764 0.170721
0.25764 0.23943 0.171616
0.257638 0.241049 0.172592
0.257613 0.242665 0.173644
0.256968 0.243697 0.174367
0.260274 0.235959 0.16989
0.480247 0.12689 0.103604
0.480709 0.12529 0.102724
0.481241 0.123777 0.101772
0.260253 0.237661 0.170791
0.260252 0.239326 0.171679
0.260028 0.240815 0.172488
0.262231 0.237576 0.170772
0.263531 0.237014 0.170484
0.266134 0.235934 0.169833
0.268303 0.232344 0.167687
0.268055 0.23436 0.168917
0.27014 0.222425 0.161404
0.26998 0.232213 0.167617
0.26999 0.234319 0.168899
0.273128 0.1963 0.146163
0.469013 0.15836 0.122206
0.46948 0.156749 0.12142
0.273123 0.197987 0.147012
0.273048 0.202097 0.148984
0.477832 0.128577 0.104509
0.478344 0.126436 0.103335
0.273018 0.203847 0.149849
0.479332 0.123375 0.101463
0.27299 0.205615 0.150674
0.272925 0.20745 0.151542
0.272057 0.222476 0.161414
0.271248 0.233756 0.168647
0.27447 0.195127 0.145604
0.274466 0.196215 0.146183
0.274442 0.197865 0.147107
0.274341 0.203774 0.149866
0.274312 0.205545 0.150685
0.274247 0.207384 0.151544
0.466582 0.15965 0.122597
0.274031 0.214282 0.156306
0.274031 0.215187 0.157129
0.46815 0.154929 0.120071
0.468631 0.153037 0.118913
0.468875 0.151332 0.117765
0.273991 0.220586 0.160699
0.273969 0.222384 0.161507
0.273961 0.22418 0.16229
0.273936 0.225895 0.163186
0.273904 0.227515 0.164219
0.27731 0.181081 0.137467
0.478287 0.122631 0.100945
0.478606 0.1217 0.100179
0.27663 0.18289 0.138191
0.276672 0.194742 0.145368
0.276659 0.19649 0.146503
0.2762 0.197975 0.147322
0.276354 0.201884 0.149087
0.276313 0.203652 0.149957
0.276274 0.205445 0.150775
0.276203 0.207292 0.151653
0.459579 0.174019 0.13136
0.459703 0.172268 0.130249
0.460297 0.170809 0.129268
0.276124 0.209074 0.152601
0.461275 0.167878 0.12723
0.46225 0.165817 0.125832
0.276299 0.210556 0.153499
0.276674 0.212223 0.154773
0.276191 0.213856 0.156077
0.275948 0.215103 0.157224
0.275994 0.218586 0.159943
0.275342 0.220378 0.160768
0.465604 0.154582 0.119446
0.466358 0.152594 0.118178
0.466941 0.15111 0.117227
0.467508 0.149559 0.116327
0.468226 0.14741 0.115219
0.468657 0.145818 0.114358
0.469088 0.144216 0.113522
0.469549 0.142619 0.112704
0.469961 0.141079 0.111809
0.275323 0.222192 0.161567
0.47103 0.137364 0.10985
0.471511 0.135807 0.108984
0.275306 0.224011 0.162318
0.275283 0.22573 0.163206
0.275245 0.22733 0.164269
0.473179 0.12914 0.104936
0.473454 0.128126 0.104282
0.27864 0.181056 0.137414
0.278592 0.182899 0.138185
0.278352 0.200065 0.148352
0.27831 0.201831 0.149177
0.457868 0.173552 0.130969
0.458351 0.172049 0.130017
0.278259 0.203612 0.150045
0.278208 0.205387 0.150955
0.278156 0.207187 0.151771
0.460401 0.165678 0.125622
0.460733 0.164114 0.124664
0.278102 0.208914 0.152699
0.278032 0.210596 0.153726
0.277949 0.213583 0.155994
0.462596 0.157231 0.121025
0.463352 0.155271 0.119713
0.463858 0.153818 0.118675
0.464479 0.152383 0.117663
0.464959 0.150852 0.11671
0.465517 0.149273 0.115781
0.466234 0.14714 0.114664
0.466689 0.145506 0.113858
0.467124 0.143873 0.113098
0.467592 0.142294 0.112263
0.468037 0.140684 0.111465
0.468645 0.138538 0.110409
0.469187 0.13694 0.109609
0.469659 0.135371 0.108775
0.470208 0.133393 0.107509
0.470617 0.131841 0.106596
0.470958 0.130309 0.105622
0.471401 0.128816 0.104601
0.445484 0.205862 0.151131
0.277967 0.216878 0.158922
0.278008 0.21786 0.159679
0.446731 0.20187 0.148532
0.449618 0.193332 0.141963
0.450486 0.191645 0.141006
0.450993 0.190243 0.140367
0.4515 0.188596 0.139637
0.280558 0.182895 0.138109
0.452099 0.184697 0.137776
0.453048 0.182999 0.136975
0.453507 0.181299 0.136008
0.280501 0.184788 0.138798
0.28044 0.186697 0.139536
0.281065 0.187908 0.140038
0.279329 0.216825 0.158933
0.455833 0.173197 0.130672
0.282396 0.186734 0.139381
0.282358 0.187988 0.139934
0.281996 0.213977 0.156253
0.458039 0.166821 0.126306
0.458451 0.165307 0.125309
0.458853 0.163748 0.124364
0.459851 0.162255 0.123643
0.462087 0.155031 0.11951
0.462575 0.153593 0.11846
0.463097 0.152161 0.117385
0.463614 0.150681 0.116354
0.464146 0.149093 0.115457
0.464879 0.146983 0.114306
0.465341 0.145332 0.113495
0.465753 0.143705 0.11271
0.466166 0.142076 0.111928
0.466675 0.140451 0.111183
0.467014 0.138049 0.109955
0.46729 0.136625 0.109162
0.281992 0.215424 0.157473
0.288988 0.183212 0.137491
0.468765 0.131531 0.1062
0.469613 0.130614 0.10569
0.291972 0.157723 0.122314
0.293138 0.165985 0.127352
0.29311 0.167719 0.128249
0.292971 0.179568 0.136054
0.295086 0.16414 0.1267
0.29508 0.165894 0.127495
0.295078 0.167613 0.128332
0.294926 0.179545 0.13594
0.294885 0.181374 0.13667
0.448217 0.19305 0.14187
0.44858 0.191507 0.140915
0.294838 0.183269 0.13718
0.449669 0.187735 0.139042
0.450145 0.186093 0.138334
0.450719 0.18448 0.137561
0.451198 0.182885 0.136799
0.451785 0.180847 0.135609
0.452117 0.179348 0.134639
0.297074 0.162325 0.125956
0.297048 0.164007 0.126871
0.297047 0.165748 0.127691
0.45642 0.165426 0.125384
0.297034 0.168106 0.128667
0.297021 0.169812 0.129471
0.299076 0.162254 0.126004
0.299062 0.163911 0.126952
0.299026 0.165644 0.127806
0.298789 0.167757 0.128711
0.29833 0.169741 0.12951
0.298291 0.171485 0.130395
0.29825 0.17322 0.131328
0.301005 0.165649 0.12768
0.258202 0.225599 0.163342
0.44606 0.192568 0.141882
0.447144 0.191211 0.140889
0.257863 0.244315 0.174836
0.448284 0.187455 0.13897
0.448427 0.185551 0.138101
0.448662 0.184062 0.137434
0.449187 0.182458 0.13665
0.449806 0.180428 0.135444
0.450851 0.179104 0.134478
0.451073 0.178119 0.133784
0.434641 0.220999 0.160065
0.43512 0.219444 0.159137
0.435587 0.21784 0.158284
0.43589 0.216762 0.157765
0.260906 0.241488 0.172901
0.260489 0.242879 0.173797
0.262561 0.22575 0.163672
0.262234 0.239259 0.171587
0.262216 0.240925 0.172517
0.262207 0.243046 0.173894
0.264407 0.23775 0.170785
0.264175 0.239254 0.171548
0.266145 0.237567 0.170626
0.443599 0.194024 0.143248
0.447455 0.181468 0.136294
0.429741 0.231806 0.167987
0.430225 0.230312 0.166982
0.43334 0.221331 0.160145
0.433875 0.219275 0.158871
0.434336 0.217646 0.158045
0.434906 0.215962 0.157283
0.266157 0.239746 0.171685
0.268091 0.235908 0.169753
0.438112 0.203849 0.151087
0.268118 0.237513 0.170547
0.268152 0.239681 0.171571
0.423334 0.245091 0.174801
0.423816 0.243596 0.173775
0.428013 0.23148 0.167666
0.428493 0.229977 0.166712
0.430193 0.22338 0.16155
0.43104 0.222547 0.160874
0.43147 0.221101 0.159754
0.270048 0.235838 0.169751
0.432525 0.217347 0.157638
0.433103 0.215644 0.156922
0.270113 0.237403 0.17048
0.43343 0.212712 0.155669
0.270192 0.239513 0.171466
0.435159 0.208586 0.153728
0.435468 0.207046 0.152924
0.435887 0.205001 0.151776
0.436313 0.203482 0.150844
0.270169 0.241221 0.172319
0.272187 0.234303 0.169044
0.421429 0.244835 0.174436
0.421911 0.243327 0.17338
0.422286 0.241803 0.172637
0.427191 0.22476 0.162795
0.42817 0.223554 0.161673
0.428494 0.222203 0.160483
0.428928 0.220744 0.159342
0.272094 0.23613 0.169978
0.430009 0.216967 0.157136
0.271485 0.237778 0.170707
0.274022 0.233831 0.168914
0.274121 0.235297 0.169756
0.4322 0.209766 0.154089
0.43251 0.208204 0.153319
0.433482 0.20675 0.152626
0.433942 0.204697 0.151469
0.43431 0.203197 0.150513
0.276705 0.220161 0.160862
0.276673 0.221961 0.161697
0.41961 0.244473 0.174196
0.420122 0.242928 0.173165
0.420652 0.241308 0.172296
0.276652 0.223766 0.162458
0.425938 0.224529 0.16265
0.27578 0.232452 0.168189
0.27802 0.218941 0.160359
0.278039 0.220585 0.161248
0.27803 0.222345 0.162048
0.280697 0.2168 0.158791
0.280047 0.218243 0.160027
0.280082 0.220307 0.161313
0.283364 0.212427 0.154992
0.283339 0.213983 0.156121
0.432025 0.207124 0.152629
0.432218 0.206099 0.152051
0.283338 0.215442 0.157331
0.417902 0.244122 0.173915
0.418398 0.242511 0.172881
0.418887 0.240874 0.172097
0.282709 0.217307 0.15899
0.419449 0.237594 0.170323
0.42029 0.234949 0.168991
0.420623 0.233915 0.16845
0.421115 0.232394 0.167607
0.421763 0.230331 0.166505
0.423128 0.225887 0.163864
0.424022 0.224671 0.162806
0.424289 0.222961 0.161171
0.42484 0.22131 0.159693
0.425727 0.219728 0.158513
0.282729 0.218698 0.160119
0.41592 0.243321 0.173498
0.416066 0.241922 0.172682
0.416689 0.240557 0.171972
0.417791 0.23833 0.170862
0.418345 0.236804 0.169971
0.418838 0.235255 0.169152
0.419373 0.233715 0.168313
0.419841 0.232193 0.167451
0.42052 0.23017 0.166296
0.42098 0.228626 0.165498
0.421418 0.22712 0.164615
0.421888 0.225291 0.163262
0.422199 0.223999 0.162026
0.422421 0.222703 0.160788
0.413034 0.24538 0.175454
0.41406 0.242476 0.173094
0.414271 0.241486 0.172568
0.282512 0.220017 0.161117
0.282008 0.224126 0.163438
0.284654 0.215453 0.157179
0.416849 0.235003 0.168963
0.417171 0.233102 0.167892
0.418089 0.231833 0.16711
0.418422 0.229987 0.165956
0.418897 0.228444 0.165104
0.419317 0.226941 0.164234
0.419867 0.225104 0.162845
0.420217 0.223813 0.161622
0.42101 0.223004 0.160902
0.284665 0.217359 0.15876
0.411146 0.244623 0.174947
0.412035 0.242577 0.173372
0.412372 0.241098 0.172543
0.284677 0.218766 0.159886
0.413339 0.237551 0.170547
0.413766 0.236089 0.169667
0.414364 0.234858 0.168815
0.415389 0.232749 0.167512
0.28454 0.226397 0.16472
0.409626 0.243672 0.174485
0.410085 0.242222 0.173385
0.410626 0.240237 0.172171
0.410976 0.238779 0.171277
0.411215 0.237775 0.170669
0.284524 0.227549 0.165314
0.407638 0.243346 0.174472
0.408103 0.24195 0.173369
0.409257 0.2401 0.172078
0.286597 0.217483 0.158468
0.286481 0.226448 0.164676
0.286466 0.227586 0.165308
0.290835 0.202364 0.14868
0.290819 0.203891 0.149801
0.47695 0.124401 0.102224
0.477199 0.123062 0.101299
0.477354 0.121375 0.100081
0.290782 0.2055 0.150815
0.292756 0.199306 0.146407
0.292782 0.200795 0.147562
0.292789 0.201799 0.148359
0.292696 0.205378 0.150973
0.295402 0.188177 0.138804
0.295399 0.189312 0.139521
0.474265 0.127185 0.103771
0.294724 0.199315 0.146404
0.475148 0.124019 0.101991
0.475626 0.122523 0.101009
0.294727 0.200785 0.147629
0.294391 0.205527 0.151163
0.294541 0.207081 0.15203
0.294463 0.20892 0.152934
0.296897 0.178421 0.13513
0.296878 0.179552 0.135776
0.296838 0.181346 0.136545
0.296663 0.199285 0.146442
0.296505 0.205846 0.151491
0.296448 0.207035 0.152147
0.296386 0.208842 0.153042
0.472231 0.127169 0.103596
0.472966 0.125297 0.102535
0.473397 0.123701 0.101686
0.296276 0.216034 0.157218
0.29628 0.217092 0.157844
0.299653 0.168467 0.129068
0.299629 0.169653 0.129582
0.299593 0.171413 0.130431
0.299552 0.173202 0.131293
0.299518 0.174874 0.132305
0.299028 0.179967 0.135758
0.298574 0.181483 0.136501
0.29876 0.183708 0.137215
0.458596 0.161974 0.123492
0.298604 0.199179 0.146522
0.298375 0.207505 0.152528
0.460713 0.156826 0.120796
0.460826 0.154784 0.119343
0.461329 0.153386 0.118237
0.461826 0.151959 0.117123
0.462229 0.15045 0.116097
0.462743 0.148889 0.115133
0.463395 0.146764 0.113951
0.463882 0.145146 0.113133
0.464356 0.143509 0.112378
0.464816 0.141874 0.111627
0.465343 0.14025 0.110874
0.465852 0.138632 0.110079
0.468975 0.129804 0.105075
0.298119 0.208909 0.153207
0.298481 0.210885 0.154213
0.29821 0.215937 0.157297
0.297556 0.217044 0.157934
0.300956 0.16788 0.128774
0.300927 0.16961 0.129581
0.472201 0.118566 0.0984316
0.3009 0.171384 0.130392
0.300856 0.17315 0.131291
0.300818 0.1749 0.13227
0.300746 0.180236 0.135662
0.30072 0.181929 0.136544
0.300717 0.183683 0.137267
0.300537 0.198558 0.146246
0.300231 0.209137 0.153632
0.300195 0.210879 0.154506
0.456647 0.164431 0.124705
0.456975 0.16337 0.124089
0.457345 0.161719 0.123303
0.302903 0.166321 0.127653
0.458351 0.157947 0.121494
0.45883 0.156399 0.120605
0.302886 0.167971 0.128619
0.460047 0.15312 0.118085
0.460442 0.151693 0.11694
0.460939 0.15022 0.115876
0.461356 0.14867 0.114874
0.302862 0.169689 0.129525
0.462514 0.144939 0.112828
0.462993 0.143279 0.112094
0.463459 0.141666 0.111297
0.302835 0.171419 0.130414
0.464869 0.137864 0.10954
0.465382 0.136315 0.108701
0.302795 0.173216 0.131252
0.467312 0.129771 0.104757
0.467686 0.128201 0.103793
0.302685 0.180351 0.13552
0.302664 0.182015 0.136467
0.302659 0.183695 0.1373
0.304764 0.171531 0.130339
0.469941 0.119622 0.0992496
0.470326 0.118101 0.0982393
0.304727 0.173293 0.131232
0.471419 0.11497 0.0955689
0.47187 0.113631 0.0943743
0.305239 0.182114 0.136428
0.445785 0.190916 0.140853
0.305218 0.183743 0.137435
0.446922 0.187178 0.138916
0.447245 0.186096 0.138413
0.449488 0.178818 0.134351
0.450283 0.177299 0.133197
0.305186 0.187074 0.139319
0.305151 0.188746 0.140307
0.305128 0.190385 0.141294
0.307165 0.182134 0.136477
0.307145 0.183734 0.137481
0.307106 0.185346 0.138559
0.307072 0.186977 0.13957
0.30705 0.188633 0.14053
0.307047 0.190281 0.141444
0.455729 0.161202 0.122969
0.455999 0.159153 0.122029
0.456469 0.157554 0.121241
0.456945 0.156005 0.120356
0.309116 0.182105 0.136411
0.458044 0.152664 0.117856
0.458442 0.151267 0.116705
0.458901 0.149825 0.115588
0.459413 0.148311 0.114592
0.460099 0.146171 0.113336
0.460499 0.144561 0.112488
0.460976 0.142931 0.111712
0.309083 0.183663 0.13756
0.462193 0.139138 0.109891
0.462843 0.137564 0.109102
0.463446 0.135929 0.108337
0.309038 0.185257 0.138667
0.309007 0.186854 0.139711
0.308987 0.188489 0.140698
0.465456 0.129409 0.104422
0.465918 0.127911 0.103436
0.308991 0.190135 0.141588
0.308749 0.192227 0.142653
0.467426 0.122485 0.100532
0.467787 0.120842 0.099794
0.468089 0.119244 0.0989087
0.468518 0.117762 0.0979087
0.469414 0.115789 0.0963896
0.469629 0.114569 0.0953127
0.47023 0.113379 0.094337
0.308294 0.194109 0.143656
0.311085 0.180514 0.135237
0.311065 0.182104 0.136314
0.442852 0.193216 0.14267
