0.47768014371643114 0.23757413955938486 0.086555695853058459 0.087343443754281241 -0.1143891471295614 0.98958892771297435
0.46755183132954792 0.23744117673782245 0.087526088088540899 -0.089200575847613109 0.10983257701249478 -0.98993942354835451
0.48951892416778309 0.091265475176788527 0.075687219634543404 -0.06119748911997102 0.06112612680578107 -0.99625220900489586
0.49316949307486541 0.092091741440179925 0.075633537472743234 -0.064865694823447256 0.060821835239182859 -0.9960387271553296
0.46237027407957221 0.23752351789524598 0.088033504328857176 -0.084423838965465431 0.11161166160759638 -0.99015930658027174
0.50237509589467888 0.091248676922920463 0.075380538520046531 -0.08027962008221004 0.059488194257781714 -0.99499564689671105
0.5080450821045156 0.091364467098865518 0.075092174865772229 -0.087340448950552388 0.058960991928609305 -0.99443212307724171
0.51310463968635123 0.092166548995968461 0.074207738716783864 0.08779841432243618 -0.078446499180370013 0.9930446038365095
0.457422809832088 0.237607865459562 0.088506735100733036 -0.080055571825811911 0.11281870757713729 -0.99038530110269041
0.52313785954778891 0.092127434843846445 0.074206952567477807 -0.11237630899028543 0.057280955502688878 -0.99201333525029733
0.52820902696831085 0.092333123117780816 0.07378252778673812 -0.12103176165105957 0.056768394901240096 -0.99102404714112668
0.32756844858293582 0.23726849257304444 0.089749578133460101 -0.036751565529151375 -0.12723879466104568 0.99119100659981807
0.53791942300237516 0.09241827229388716 0.07197080695080002 0.10435231699714514 -0.077008498756175561 0.9915544791168297
0.54302237892506289 0.092165680968393379 0.071438728700984833 0.10889235834144817 -0.076755083336369379 0.99108582447579419
0.54844057859159201 0.092268627306168555 0.071426836785000003 -0.15159940178307721 0.055250295485567036 -0.98689666441212109
0.31741711927977906 0.23728817364682955 0.089121875979640566 -0.04294169594307707 -0.12634765473905296 0.99105614416715737
0.31245351508474611 0.23715439599640617 0.088471376561197065 0.050090018499992679 0.12367330006495818 -0.99105797252114025
0.4323718468444116 0.23200706141119828 0.089811470349956526 -0.048753795021345366 0.11668595201002574 -0.9919714996281549
0.35177541103419768 0.2319924467244015 0.090048268430438005 0.032157062050276075 0.12377501387966516 -0.99178912541899922
0.30349075352024268 0.23127917107000709 0.087263948876845784 -0.053164151478597189 -0.12490370695186173 0.99074347688351916
0.29988212214913229 0.22984680143138897 0.086766382781866588 -0.055918934951509396 -0.12455719220694247 0.99063544181672181
0.48686603799640599 0.22748483500542935 0.084417888261592744 0.09043633322203655 -0.1042121902950648 0.99043479796867906
0.48227056071690788 0.22790687319365519 0.084936196671474923 0.086456672523043426 -0.10729261339948726 0.99046127581352283
0.47729088995644914 0.22799607109617528 0.085393527938312341 0.083309104817717861 -0.10956893764824373 0.99048182262831341
0.46743074905686793 0.22760216560557472 0.08628746872823112 0.075095081895005786 -0.11400351592648113 0.99063814131678929
0.46239250947577781 0.22759425279793188 0.086774817271485186 0.070626570231791613 -0.11650097549227593 0.99067623888263412
0.45760474739340512 0.22737878087693367 0.087167370495768753 0.066062202585398466 -0.11831578819783942 0.99077603909899314
0.44751411318498779 0.22747695022002337 0.087970440542178147 0.057882342698218799 -0.12174658065771904 0.9908720424464097
0.44259894560342544 0.22768069505841251 0.088315656344703647 -0.060364370066503255 0.11240949830799273 -0.99182672252597615
0.42748501701408115 0.2273168533798805 0.089204659725090923 0.038624370155528581 -0.12634596861264175 0.99123400579551457
0.39773931984762195 0.22670107485533436 0.090097134979112259 0.010200384987332256 -0.12983099522833791 0.9914836684606203
0.3923565734910624 0.22678923318477689 0.090151812903297546 0.0054758637381778349 -0.13010759078921547 0.99148476021336152
0.38733096182218751 0.22693503809992016 0.090154629863571936 0.00094750507112654689 -0.13005458804988559 0.99150638241078148
0.38237874354744295 0.22705991587135149 0.090119030071272421 -0.0037151700848819659 -0.13003766817243401 0.99150209398039912
0.30249586734043854 0.097400754854349653 0.069691884392952597 -0.089829350165985228 -0.11544066793884794 0.98924422668751999
0.30742046158825675 0.097565778966523145 0.070181390253833617 -0.086426166990049957 -0.11416142193999501 0.98969575496717499
0.37229533306666635 0.22723783527460956 0.089989974844341916 -0.01111908283789523 -0.12958478486050712 0.99150600075314732
0.3167643374747654 0.097613030622410862 0.071005335608592082 0.079448549028320534 0.10844636319279806 -0.99092245628381548
0.32200613979026854 0.09657581054237778 0.071394495242060096 -0.077760704379237267 -0.1101924999383842 0.99086370698082094
0.36199581089941557 0.2259472446090883 0.089509191340641114 -0.019426668862584973 -0.12845299430321633 0.99152530617803258
0.33257520607401042 0.095577834395582775 0.072205483272081081 -0.072710614957317468 -0.10789919553373852 0.9914993343798576
0.33704985759191064 0.09570064979072683 0.07258622205319519 0.063230657227702103 0.09953443779797061 -0.99302305093023635
0.33777415802546951 0.22734245165267536 0.088788413547378334 -0.033834774523619528 -0.12679704790103449 0.99135145971371752
0.35394473927440812 0.095998383044505475 0.073851594491657138 0.051135250498987893 0.093164940253537498 -0.99433670356874615
0.35901365942953961 0.097125764025163541 0.074271827043268623 0.04750361491796589 0.09157303294610776 -0.99466466017787958
0.3326313363064542 0.22746107025894946 0.088349655952970521 0.043730248893149519 0.1233966348280109 -0.99139343141099423
0.49802676042512073 0.09558309184312791 0.075434097265148381 0.076280985607998383 -0.07902424299897455 0.99394988820016039
0.50068663103683797 0.096735351437838554 0.075683663881715921 -0.07669218529389453 0.059888200620357032 -0.99525459664414651
0.51035433516793316 0.098463573445141186 0.07537318285141073 -0.09119045910332596 0.058793535837957309 -0.99409638381406229
0.513031652922189 0.097419172063951606 0.074414023579648256 0.087798473210555145 -0.077482345205140038 0.99312029195027873
0.32761449264551162 0.2273835153332158 0.088250747409003585 -0.040376972269890531 -0.1259880572677933 0.99120972025914056
0.52267130246823978 0.097181292829597712 0.073622170493328767 0.093681891834524675 -0.077012754662430474 0.9926191307654757
0.52828399453768216 0.096854844562667311 0.074019769866472365 -0.12182665153692963 0.056729384986613431 -0.9909288793119011
0.31763768200830483 0.22739734597743422 0.087647483027356032 -0.046543754976353505 -0.12530304573838519 0.99102614778893972
0.53804569285341841 0.0972616118229013 0.07301727549031789 -0.13708818241738913 0.055912729578391274 -0.98897957355680022
0.54296251169202736 0.097370514904348879 0.071690104294142923 0.10822061794349308 -0.075410175616053662 0.99126263082267163
0.54812111748388603 0.097170752110844916 0.071707915587980037 -0.15115157241618216 0.055236582550209412 -0.98696612003872219
0.3123758715964452 0.22723421557595047 0.087280588185206981 -0.049533189781691536 -0.12494942733791507 0.99092588205071019
0.48637192273893071 0.22323675830161072 0.08409450982155027 -0.10304104397520528 0.097624489167605216 -0.98987474074817361
0.48214272565371102 0.22240720604124453 0.084324976201248236 -0.097974292679403135 0.09886815454153039 -0.99026568454709307
0.47744472653149184 0.22281206508945917 0.084803835865762955 0.081446564348980552 -0.10667335069362444 0.9909526998840773
0.46738392080428409 0.2232218148168405 0.08576689439553381 0.073123754903061888 -0.11152305187625654 0.99106787122229056
0.46239469630632962 0.2230162648437167 0.086011180007260338 -0.078867526306949612 0.10514151958037862 -0.99132495890830452
0.45746509106824979 0.22242999820530934 0.08654507618268735 0.063795195279844646 -0.11595004379879695 0.99120419712704189
0.44748536849623771 0.22271095909681718 0.087310710975154665 0.056124255549826668 -0.11955193465947375 0.99124033556860192
0.44253195640109622 0.22261796369146436 0.087635324095656567 0.051720988198339889 -0.1209634324455066 0.99130862368426342
0.43250426157341887 0.22224125247647059 0.08819584863561182 0.041843730760879966 -0.12350767599923511 0.99146102100147082
0.42765328332156283 0.22232499594766911 0.088603689488771703 -0.041857557778202201 0.11414353659639746 -0.99258208623272626
0.42263987730262653 0.22247359388292531 0.088911325333333138 -0.034840335203546381 0.11543277161503039 -0.99270409804743764
0.41267368668780735 0.22255251181397892 0.089122955964413372 0.023151925531790695 -0.12703728081079055 0.99162771120434645
0.40740991893122852 0.22254868309447623 0.089273273783916529 0.018315508571660276 -0.12745943478387484 0.99167466168614826
0.40244431442002004 0.22255956060552251 0.089383058589717138 0.013160883319506928 -0.12812631523670695 0.99167052920519638
0.39264235285372262 0.22227435167942824 0.089724024563254928 -0.00078438040987898752 0.12055039058854856 -0.99270689937983259
0.38754121017597359 0.22241570520879533 0.089734633852949081 0.005010171570013041 0.12125752599828973 -0.99260843768810125
0.35753222362908571 0.22268278901167188 0.088882481501264515 -0.022496241565946425 -0.12768117157368056 0.99156010283844054
0.35267933158789605 0.2226543701391166 0.088723218825164124 -0.025833834181150518 -0.12738025614407697 0.9915174649778844
0.33753594596089176 0.22243321244684955 0.087894141036613596 0.042189622111107758 0.12301742504931207 -0.99150731158189587
0.33245072997003872 0.22255715922834951 0.087796996708970482 -0.038849392882754137 -0.12569617273783135 0.99130782143171992
0.30718279634802304 0.10192926379386592 0.070626945493177176 -0.085246910556558059 -0.11486598908001472 0.98971650930619115
0.32757512159639224 0.22233038194535792 0.087503198700732657 -0.04197636501849733 -0.12538637238989236 0.99121957325243382
0.31708622945496062 0.10247035403757382 0.071580392596612002 -0.079469067131255039 -0.11226977310162592 0.99049490933421636
0.31764586256712879 0.22253113829508278 0.086925891021003163 -0.048336111024768293 -0.12475095468656286 0.99100999978597204
0.31257758855247986 0.22262279938752758 0.086633677847620438 -0.050805689493635772 -0.12457816893817877 0.99090820046010664
0.30728730807502963 0.22263635841107277 0.08600920929382648 0.058142034446264944 0.12330982198984661 -0.9906635108003532
0.46573839407222001 0.21732578916489614 0.085050238108717299 -0.078533006233803326 0.10112706384531737 -0.99176906782269958
0.46224485695269113 0.21790312814206497 0.085346466562446419 -0.075160666463810075 0.10247106275057069 -0.99189241126015504
0.45722059429618456 0.21754569182306588 0.085964816728103396 0.062262678211289745 -0.11438978133327578 0.99148289790015176
0.44757893771543089 0.21754328069318768 0.086636386967638604 0.054428585944030383 -0.11760227997981555 0.99156806764623195
0.44241255522629624 0.21768987144609131 0.086883338336683338 -0.055594008412308708 0.10785358882318997 -0.9926111573051204
0.4373352005015857 0.21741767324669659 0.087249575829183787 0.044622972729260017 -0.12052488236651634 0.99170688362809156
0.42752607781275598 0.21743229815369916 0.087869192641819444 -0.03970164647932721 0.11204315339832292 -0.99290992091095065
0.42254234784571987 0.21741530520124464 0.088176161113008286 -0.034281218617642474 0.11380124190894586 -0.9929119172364036
0.49350599035498594 0.60218994744403698 0.1330250590930746 0.13927989658556827 -0.048724557861799619 0.98905360212087878
0.49843330469307218 0.60244171820729331 0.13261935951372314 -0.18660198535166375 0.035236837020132236 -0.98180347543672619
0.50815236031840916 0.60216458708255249 0.13095336422651946 0.14411382702759709 -0.049771581821129104 0.98830865345927355
0.3923840219749099 0.21724614769721576 0.088989731465694569 -0.000127304033514067 0.11958434238022479 -0.99282403720456536
0.3874534870730193 0.21737421524252876 0.088998260772614204 0.0050783016114665227 0.1203655963956861 -0.99271664338674903
0.38257926783698148 0.21737696531400352 0.088965682128618329 0.010425017986125313 0.12079589538133728 -0.99262262247996846
0.3723950119825184 0.2174933094111354 0.088497476788904433 -0.01336293391864481 -0.1273805459954597 0.99176389755777283
0.36745935787664297 0.21751172228119531 0.088407770447024872 -0.016960101353304894 -0.12730443221624818 0.99171867810391889
0.35753968758684473 0.21760897158567205 0.088174837392410471 0.033461734130315487 0.12223434072498991 -0.99193703343333206
0.34757941312741047 0.21763699320825455 0.087723655823950433 0.038019368332620262 0.12236692431266551 -0.99175645370516596
0.33731569680618961 0.21754241909290653 0.087176267876539468 0.044545096852597096 0.1227341414369371 -0.99143939041785634
0.33244714344405885 0.21750481990189982 0.086884437776418424 0.04750136063872952 0.12275945790780525 -0.9912990145418541
0.32742664530696952 0.2174672345612701 0.086607675374856558 0.049723477882871146 0.12288063485632057 -0.99117502254876222
0.31796581594290296 0.2174604042471466 0.085993431178653712 0.054756224865369442 0.12292403419672807 -0.9909043534344244
0.31261817232151784 0.21739851448540681 0.085907667062812484 -0.052559930354664754 -0.12423734110935283 0.99085949397237505
0.30312902267527175 0.21797999850514829 0.085306053474014945 -0.058572046079693865 -0.1239309253459121 0.99056067010604865
0.39740779519695735 0.21217428933394031 0.0881956515823209 -0.0044064687609972255 0.11756092479395334 -0.99305589570509512
0.46273735599195953 0.6070090134286813 0.13833603620497747 -0.14810017000764555 0.036236050238389675 -0.98830829618435734
0.46671743448954339 0.20717955313560873 0.084068614247275325 0.069011086376722292 -0.10587296726799954 0.99198204860721828
0.46205825965643271 0.20762292309704344 0.084120172754538758 -0.06917169485647387 0.097026058588369365 -0.99287522911264592
0.45772203076645046 0.20801128883050174 0.084462153871805487 -0.065909309112074654 0.098306135309341694 -0.99297123157365963
0.30220876513659906 0.10694043620668497 0.070729193146934405 -0.08691501467865817 -0.11678791356581553 0.98934643248376464
0.44547699442217398 0.20949344989139179 0.085503932539300678 -0.056952586472769233 0.1016598843392129 -0.99318763122090858
0.3124582624811959 0.10707907129517892 0.071634189468925746 0.082695510998564661 0.11137804469839042 -0.99033145139385004
0.44237326384586428 0.20764312502482096 0.085706843193734936 0.045810647141154855 -0.11641520302121683 0.99214358089645338
0.43744702117850925 0.20739134486764588 0.085944675796326211 0.041296732601554212 -0.11735559927305662 0.99223094247039956
0.52428453681133913 0.10688345538204501 0.073895498610045476 0.094508407616316584 -0.075126169792961536 0.99268535775545075
0.52786456482232746 0.1071221631284469 0.073586881569259993 0.097442515544397437 -0.074581789513473454 0.99244270002723478
0.53570598452434426 0.10549768366939986 0.073682365677582712 -0.13418940417369887 0.056052806059617884 -0.98936913573263974
0.4273101299269737 0.20763145144188347 0.086480037814695945 -0.037424946355844264 0.1077094019009472 -0.99347775925402704
0.54347586380860746 0.10709181160158933 0.072812614905472708 -0.14582227366691053 0.055415068442570985 -0.98775757890897398
0.54809411048232981 0.10734389704760383 0.072208081462421983 -0.15143583228778135 0.055120863513671188 -0.98692901421774715
0.42255939421454952 0.20746202553764073 0.086695835658675544 -0.033425478007285389 0.10899206585357386 -0.99348048143934597
0.41259040349148574 0.20730225075050496 0.086879237284084629 0.01808720280098455 -0.1215961534822833 0.99241484700358507
0.39246873726759096 0.20752840965686517 0.087551389229626936 0.0010049902375856221 0.11676635960149814 -0.99315890332818135
0.38757276828879433 0.20750249337280338 0.087174164794960249 -0.0032243299303193504 -0.12387060314329637 0.99229314084771159
0.38268864386448975 0.20755493438985256 0.087160166421872354 -0.0069873228066066129 -0.12436887716644655 0.99221144909356573
0.37249248017781311 0.2074291086396875 0.087260994838187278 0.023980904955105926 0.11967474971526992 -0.99252348610908026
0.36753190995340751 0.20753582883028773 0.086940566083301349 -0.019251046457784957 -0.12488243261530754 0.99198476562614779
0.35739822846254909 0.20750539873001331 0.086672791297041876 -0.026499196661465725 -0.12470147993295597 0.99184037701579153
0.3524174822642317 0.20760684264276105 0.086536987999802376 0.038225361583726962 0.12123139502622327 -0.99188798288505797
0.34762550375996104 0.20753519429550418 0.086312385685191978 0.039945319486135715 0.12129275321397562 -0.99181270382513453
0.33752127525496284 0.207552491140922 0.085928807297343535 -0.039338316415390803 -0.12417461227139528 0.99148028852259662
0.33257874846813368 0.20757934028364516 0.085502791619358615 0.050669809727875215 0.12202283093580796 -0.99123307002568872
0.32762675367622651 0.20757557991452499 0.085409626537515645 -0.046977457402050532 -0.12368009156636355 0.99120954063516487
0.31802710756024022 0.20795883913578869 0.084671229448352092 0.058104347510104133 0.12255953220372809 -0.99075882325943909
0.3128458584773513 0.20791296812068177 0.084322101659421542 0.060092834233202927 0.12264570661555475 -0.99062953818397315
0.4660022740712455 0.20282945414875911 0.083695204841632898 0.067623013259411377 -0.10405896437114122 0.99226955007786222
0.46243417369885986 0.20248717617400788 0.083534524361343745 -0.066264756083997928 0.094818532093798744 -0.99328667970163853
0.4575045254815589 0.2025085789515895 0.084223340335161045 0.059187591552390798 -0.1085498343362573 0.9923274472026854
0.27752224141618687 0.11221576122682454 0.068627386071738378 0.10320945554335344 0.12390141962552258 -0.98691248168276025
0.44534564869641263 0.20324671912780642 0.084759240241089204 -0.055420418885936081 0.098807234358941912 -0.99356213072401489
0.28751641659448657 0.11241957185540806 0.069948361285882193 -0.095755314733549493 -0.12223222663326187 0.98787155160605467
0.29217490874051416 0.11225355098725333 0.070191058003286622 0.095121873656796058 0.11901993367566521 -0.98832488815159392
0.2967205557700664 0.11186324485811182 0.070803513549050623 -0.089566136934707052 -0.11919582243328028 0.98882266510686689
0.30184097174252661 0.11104007328101458 0.071168270474724904 -0.086088126828655423 -0.11736049559342954 0.98935097336243516
0.44192554339309076 0.20274442007076945 0.084964209419742032 -0.051604698893952201 0.10011019656651661 -0.99363720924464072
0.31176047974199822 0.11155163548122582 0.072069776368480359 0.082620970871351757 0.11206892218254572 -0.99025972949177221
0.31669218611170846 0.11125794495596469 0.072467712748744278 0.078826717937206789 0.11000771905638372 -0.99080000519139066
0.43746545946891685 0.20231304956420651 0.085309912291225309 0.039742940187031596 -0.1160360883308898 0.99244955786687528
0.52445504874478954 0.11280180054347469 0.075179854757050094 -0.11824079055402265 0.057186458097139965 -0.9913368874703814
0.52839526193750674 0.11300300622461802 0.073842008961872346 0.098374951435694302 -0.073529707552977996 0.99242921714205812
0.42757527914995153 0.202720504849247 0.085781185040535946 0.030762352660397715 -0.1178126225118394 0.99255924943334239
0.5381361390130901 0.11236966086682164 0.072882016563762364 0.10477383912763898 -0.072518935351082378 0.99184849984763357
0.54334712946692254 0.11195542011347259 0.073059779938872679 -0.14668975819894434 0.055354762263435026 -0.9876325051021223
0.54831250320150604 0.11234049457432085 0.072405441199849097 -0.15159070934347299 0.055095514240487378 -0.98690665270395206
0.42260732132786161 0.20315090601165775 0.086019396103150833 0.025368136943312435 -0.11874300116906425 0.99260090534987366
0.55809252560440759 0.11233815880774517 0.070943496789972221 -0.16470499670678651 0.054358503324721155 -0.98484385421045995
0.56279956738538617 0.11199739525893937 0.069944043894040533 0.12229631852166427 -0.06963116480362494 0.99004803487716608
0.41245807987216582 0.20267747426691127 0.086242226613866851 0.015897054923099792 -0.11980175623872152 0.99267055101221258
0.40769934915147393 0.20239512539831261 0.086306323947571123 0.011565167200338927 -0.12036700317823176 0.99266209328931254
0.57744268243299712 0.11262818207129276 0.067945685411763795 0.1305938907699406 -0.068308717940760877 0.98907995366747703
0.58235158391176134 0.11218691413812489 0.067220466961943906 0.13246616019804677 -0.068163635243179879 0.98884095547910034
0.40267641664859344 0.20233250772754502 0.086375856632784867 0.0077000312089897755 -0.12070532339761184 0.99265851853638898
0.39269598664924682 0.20272813830815212 0.086477608228986952 -2.9290906078030838e-05 -0.12172315502045733 0.99256408995787693
0.38738702417794135 0.20254978830779666 0.086456572480375679 -0.0039200015711734516 -0.12211509393522821 0.99250820521589256
0.3824660025678252 0.20256374738377561 0.086431685749622664 -0.0080020086395286225 -0.12253960346720144 0.99243136459900028
0.37247037913894293 0.20253314979482478 0.086302022327441538 -0.015600597608484498 -0.1230292301129212 0.99228041898048158
0.36743197548811424 0.20245917044347309 0.086194877561943745 -0.020239505544790502 -0.12313091279182758 0.9921840256375597
0.3573671143592943 0.20250448163341156 0.085968883259798859 -0.02716852921072296 -0.12366293338857913 0.99195229216240932
0.35258673887165454 0.20245458912686137 0.085810536431713075 -0.030592404171409394 -0.12356804798969202 0.99186442739067437
0.34779676535654425 0.20270298099531861 0.085650326032908355 0.041415162658506907 0.12074010225517648 -0.99181984856594751
0.33738224030755182 0.20280017312213794 0.085248739176638402 -0.040996063587502074 -0.12343341320701595 0.9915056809087861
0.26734897568804228 0.11735886028972574 0.068388838546907194 -0.10755267920872835 -0.12842631364326687 0.98586971916122146
0.33294666902127035 0.20315241437764414 0.084900452160177955 0.051655676011577244 0.12153394064003648 -0.99124224708609499
0.2774062556805908 0.11741220187193446 0.069291439906957492 0.10234477415523864 0.12411589526551929 -0.98697557808972747
0.28243183969024849 0.1173850473664981 0.069817942922513421 0.099921560434586637 0.12257923747609784 -0.98741582542518302
0.28724605348895543 0.11715206131098645 0.070528463850983228 -0.094513266258701892 -0.1225722856944518 0.98794902564897014
0.32294183993543091 0.2034742784403307 0.084586976204192407 -0.050492780708379828 -0.12319366469111548 0.99109727074405185
0.31821679473225734 0.20409054549246242 0.084387506568935525 -0.053070517046177601 -0.12308768753568236 0.99097575217437561
0.31346584443618369 0.20469361407335171 0.084156686748150827 -0.056766861048946904 -0.12307902456103294 0.99077196024098002
0.52379842860803127 0.11713126764079805 0.075443863348942375 -0.11938598825324478 0.057265483682886205 -0.99119506162377602
0.5277732105719013 0.11694581794437851 0.074089065993332967 0.097276584462773291 -0.073082334841665833 0.99257052064291518
0.46156676959107018 0.19778080801076955 0.083096485586539065 -0.063594527669315046 0.092998309041925603 -0.99363325757839815
0.53776874940280639 0.11703950169660936 0.073133622754572872 0.10441892016629924 -0.071766964046445031 0.99194061918184406
0.54305163273974866 0.11725729262712514 0.073323982222823741 -0.1458248347290316 0.0554267864738512 -0.98775654334326379
0.54789184020207193 0.11728786419371164 0.072673015394802698 -0.15098363160061062 0.055140189882363862 -0.98699721501553794
0.45769778875578965 0.1977974159699056 0.083364870423687065 -0.061407920172465949 0.093582734988365793 -0.9937159247250642
0.55781354034005004 0.11739842002944796 0.070814971686416234 0.11943923210410323 -0.068809348988450564 0.99045421061559824
0.43246478006443639 0.19794360967294461 0.085000911909834803 0.033285611597403779 -0.11545609336191966 0.99275473233129963
0.56796777823217715 0.11733376873414705 0.069534777463465536 -0.1734053948281894 0.053797247388933857 -0.98338010210592208
0.42791081379367135 0.19792517115779304 0.085158892638603531 0.029063760167428159 -0.11617590004015022 0.99280333303972712
0.57721407995363871 0.11749196066691459 0.067816738165077883 -0.18255171565217915 0.053341938816257664 -0.98174819005474545
0.42248064246337824 0.19773874157267832 0.085321963379151183 0.023637977741644368 -0.11734713717093746 0.99280959675361247
0.41235206001820446 0.19756163576340774 0.085718623191949575 -0.020469842263032823 0.10667494166775093 -0.99408321702858893
0.40741565498133142 0.19768854214836085 0.08588230188065428 -0.013552634862540741 0.10890985471962607 -0.99395923942243858
0.40266436746281703 0.19754601096936045 0.085728745082443533 0.0064968354697107532 -0.11936224525306519 0.99282951483979698
0.37220008169385227 0.19767111788831071 0.085623273346358483 -0.017120253545378605 -0.12174419446363099 0.99241384917429654
0.36719113146826304 0.19787618217790831 0.085555079026186587 -0.020264503435561722 -0.12193946058817504 0.99233064945711269
0.35241652417515268 0.19762718049840181 0.085155909091721632 0.040173987798981424 0.11968878568417815 -0.99199830911437248
0.34758777293502346 0.19714543869249296 0.084865124870955974 0.043702414510164378 0.11986331360773873 -0.99182805214258518
0.3580145219612707 0.19337296269804491 0.084742581151204602 -0.027634874815472471 -0.12161482890283891 0.99219259576196517
0.42588272649846259 0.18827296305183502 0.084066359888357353 -0.032123874428539034 0.098133237109897145 -0.99465467598862278
0.42232668825671177 0.18752793924368269 0.084062219076493597 0.020450917477069203 -0.11357620580330445 0.99331878339718893
0.41283920724404249 0.18860682003648974 0.084589153077026455 -0.018919947517175371 0.10291730208590501 -0.99450996200003239
0.40729133687537888 0.18933723355360324 0.084788914839399085 -0.012564783521601407 0.10550516163742012 -0.99433937218784474
0.40221804835693065 0.18992061863638754 0.084749214354447169 0.0045729782025222447 -0.11710000467188211 0.99310959957912226
0.27249075126134031 0.12261658263972852 0.069682590045874987 -0.10294983442608455 -0.12682599653683552 0.98656804032670764
0.27740548961121614 0.122406674751939 0.069951417630277513 0.10152801458970595 0.12435793739777286 -0.98702946544652059
0.372081175351828 0.18746458797903945 0.084483520399573672 0.026989968128060357 0.1142401956927514 -0.99308646114451093
0.36737966994105953 0.18755325378221863 0.084358709918039093 0.031769649829951889 0.11538992475193932 -0.99281209431363393
0.41872022430581401 0.18439883290982037 0.083785988528232408 0.016968235473794731 -0.11312750457003339 0.99343557752612366
0.37229031823895892 0.18273757954872399 0.083685944962072434 -0.017980800040562277 -0.11847331605687068 0.99279442192852296
0.368031150328823 0.18377209014227464 0.083735417961229741 -0.02155836990732567 -0.11904010940899537 0.99265537274465676
0.58972523364684715 0.45677855469654116 0.089438377021479831 -0.30037483790270475 0.1040570953947815 -0.94812819684519722
0.59382898472311796 0.44659237487975156 0.086619291727223643 -0.29955964302079868 0.10504063775608674 -0.94827764114369273
0.59804448587368753 0.4420198851426107 0.08459046349933308 -0.29877447945703589 0.10530626136355041 -0.9484958627968858
0.59405322938043204 0.44227322342177772 0.085950393477347078 -0.29882454851971318 0.10536240761994704 -0.94847385428514464
0.59048568001417223 0.44364923465563694 0.087342415633199388 -0.29882967227104024 0.10534417325389536 -0.94847426540303981
0.59506920588937096 0.43283208505103088 0.084370751745282996 -0.2964012814704437 0.10599614385696803 -0.94916336730308548
0.5827789162822935 0.42645373943657816 0.087585074328123388 -0.2935254846477422 0.10714736084816022 -0.94992748824611983
0.59341142014381054 0.42143841734899712 0.083464883889243335 -0.29279856462999687 0.10643755016667338 -0.9502315762303053
0.58833348860139079 0.42109777399551779 0.085064561627174573 -0.2920357955948889 0.10680056689124034 -0.95042555363530179
0.5839540145793124 0.4219800465849961 0.08659876255737109 -0.29195174491022358 0.10717937693241238 -0.95040873302188034
0.59155471752985067 0.4136347065385772 0.083118642978279061 -0.28953496046560789 0.10659555854562353 -0.95121337961917107
0.58818181215962206 0.41223618573960041 0.084015345235252309 -0.28872943530515743 0.10678835109345979 -0.95143657763358291
0.5834185395221928 0.41205722603879141 0.085549423617855891 -0.28809607974467422 0.10736469482984883 -0.95156369788881912
0.59106067195691492 0.40885968106205878 0.082717030758363355 -0.28774428272907054 0.106482136986154 -0.9517692904583519
0.58784460129851257 0.40718274008504851 0.08354083513675048 -0.28674997178846456 0.10671110124163714 -0.95204369361448526
0.58436142408135672 0.40724462435460113 0.087961859982372465 0.24575033762230894 -0.12720773873167271 0.96095003135714374
0.58713864728085596 0.4021378057225381 0.083159597664737434 -0.28458472097736071 0.10647409413793291 -0.95271968797949402
0.58661770276807512 0.39253588189475996 0.082240844623102716 -0.28009548036205623 0.10586648153459684 -0.95411676956661529
0.58287501150216969 0.38741762033282839 0.082806946900337824 -0.27713616761119525 0.10574853953266246 -0.95499360782598353
0.58585936625326518 0.37241602170110061 0.080358479509570299 -0.26850209617998821 0.10344457209786671 -0.95770864298618574
0.58536643006845457 0.36875225575866227 0.080132787582080686 -0.26663710382794398 0.1029654617715763 -0.95828115318230711
0.58182063549970009 0.35784435432887313 0.081832401262060595 0.20849607382750143 -0.11486184076939211 0.97125493292625498
0.57701079413746248 0.35762523588055201 0.081414482750262987 -0.2596250523472815 0.10228919079636532 -0.96027691508225699
0.58531597335569807 0.35269663130503565 0.080421259162133468 0.20653400931577423 -0.11275050979421064 0.97192130624711448
0.57705346270369184 0.35267459737305601 0.080915355326651353 -0.25655337355948021 0.10108775300322696 -0.9612292300528571
0.58577268506459801 0.34688167584982627 0.07968622532862292 0.20344361568905142 -0.11072190535777945 0.97280591841811315
0.27714258920835494 0.1270572614115206 0.070784826206149773 -0.098313037662713251 -0.12538503919954089 0.98722496857122666
0.28201869653583145 0.12704584228411422 0.071033889429770319 0.09813536796664328 0.12310849006595255 -0.98752911310387848
0.57688602360786501 0.34773710428256804 0.080495363303443354 -0.25337719496512989 0.099888797751793532 -0.96219656263951792
0.30745344193924429 0.12889581461143421 0.073691946712294981 0.082988922655366851 0.1155470219157838 -0.98982913901485792
0.52882095212805635 0.12760821224886507 0.075453494417676001 -0.1271582564755229 0.057057950460440265 -0.99023995480861049
0.53460508255952699 0.12864806530272715 0.073953437002650432 0.10360234833720521 -0.070456495180355058 0.99212017200836966
0.57232905366389553 0.3476199410698772 0.081746688974147635 -0.25193067277523468 0.10067942061740372 -0.96249394303505187
0.54292197391071717 0.12721616417155721 0.073778089297830543 -0.14551746051455869 0.055569423437208672 -0.98779385899298344
0.54773419779837063 0.1274557109922643 0.072511101136993897 0.11352480778475287 -0.06845847641732139 0.9911738268457525
0.56748724973915599 0.34726293699001737 0.083059396356187892 -0.25006139592138305 0.10200674443658343 -0.96284158736486802
0.55822139053585718 0.12722015104566953 0.071623854296062953 -0.16299414908188711 0.054362086642770049 -0.98512825099116685
0.5629440568986831 0.12733089946169721 0.070874408411239639 -0.16821749986028053 0.053985730403088926 -0.98427049821357626
0.58169131205752467 0.33827352935530625 0.079699837656964159 0.19802462925043066 -0.10820064584660828 0.97420678834044594
0.57679334462293419 0.33799304690002219 0.080727440125383271 0.19757968251595648 -0.10885022648142785 0.97422476731595964
0.57771343540243292 0.12777691184772144 0.068233209187642377 -0.18234977823493764 0.053096037599932804 -0.98179904724381117
0.57202797999736466 0.3374630298762098 0.080864538504289069 -0.24638725998912228 0.09853776449937772 -0.96414917262969113
0.56752511718694287 0.33737894067199686 0.08268315040934901 0.196659682162241 -0.11054020662726013 0.97422062805642173
0.57688848382967772 0.33291094368023366 0.080155408574458534 0.19512812353999895 -0.10674029087154907 0.97495206328742956
0.57244773710252628 0.33257385845834059 0.081076223556484001 0.19457294707790179 -0.10750155282468858 0.97497937640018872
0.56281850042597326 0.33257219832016061 0.083158303568194453 0.19334856122830105 -0.10952247786670063 0.97499803113282435
0.57596843340633286 0.32792459148941611 0.078939610737978713 -0.24324229832132876 0.09475609326230916 -0.96532609365800448
0.57156720970965669 0.32777592430496616 0.080080149865829814 -0.24195360039108396 0.095750903126987461 -0.96555176961577671
0.56717626476806327 0.32768584901433279 0.081229971219704614 -0.24001555823986359 0.096937007551390883 -0.9659170504602288
0.57532558478033546 0.31725554118095906 0.078204069063575618 -0.23850267818886564 0.091419598020100204 -0.96682931771568748
0.57227922702334699 0.31771079712454303 0.079014146495414009 -0.23792768553077528 0.092385473262049669 -0.96687917589951
0.56708294424234451 0.31750010518723332 0.080338826146207437 -0.23531250841396659 0.09409126771610471 -0.96735456618734328
0.57503944991534273 0.31315171281100307 0.077948120791421271 -0.23661310568290306 0.090029943302564572 -0.96742382001273275
0.57188518302746671 0.31266020837673386 0.078704048456347916 -0.23531641992636557 0.090704903823244976 -0.96767701374759052
0.25738298517464414 0.13221186961394507 0.069335526194785127 -0.10865299891919063 -0.13086724697888441 0.98542797275804694
0.26235352057130801 0.13232631319851804 0.069731116703643431 0.10554229275835074 0.12813008321465932 -0.98612550226363938
0.26713091205885037 0.13164004629277096 0.070137605276633069 0.10358793656641578 0.12683287774135854 -0.98650036012246733
0.56687300765435578 0.31269960769173388 0.080186897633402518 0.18565719296997679 -0.10088226094405184 0.97742220975652339
0.27740991674443827 0.13146161707634529 0.071405664180938286 -0.096812092681626938 -0.12519074628303262 0.98739794194423014
0.28190398403928546 0.13114261745257855 0.071562451450730327 0.097207099511034567 0.12333501873115565 -0.98759265537935093
0.30346939927106853 0.13169537324526426 0.073806881114563849 -0.081834893059287636 -0.1189063270058348 0.9895273294234761
0.55756549086606855 0.31256534341314623 0.082062703999678271 0.18415262304041066 -0.10281856525799023 0.9775050660050949
0.31215403646750517 0.1302967371868731 0.074332126676372401 -0.077264156000903639 -0.11694522950164556 0.99012830658166495
0.53209822688100938 0.13119546674526877 0.074292110658119401 0.10228870289469028 -0.070456373895066718 0.99225647926213123
0.53837022864404271 0.13026727657921497 0.074497248337957428 -0.14104707220400606 0.055934056011207135 -0.98842152182194665
0.54324077612495258 0.1320803915702434 0.073977754394346326 -0.14706628894607918 0.05550826773757439 -0.98756789076417539
0.54781411594243101 0.13238853896655886 0.072684674588925011 0.11444538550420733 -0.067619860023240441 0.99112552598913062
0.56689344144337173 0.30752056358289875 0.079673482967340142 0.18376364166717229 -0.098827535248597345 0.97798979661237073
0.55841508911622983 0.13211239323108787 0.071322050302849507 0.12256330978648579 -0.065811398589305542 0.990276272011958
0.56304596528698936 0.13244681754818458 0.071102413131826955 -0.16753667553521603 0.053979950918108754 -0.98438692964173702
0.55242461582870839 0.3073804067803893 0.083015240829855438 -0.22145375435437414 0.096712301424016323 -0.97036331620461758
0.57485917370119932 0.30429168969681997 0.077308713758859518 -0.2332197632684303 0.086175478634462024 -0.96859812559344693
0.57786818324407729 0.1324822571364061 0.068601521673682581 0.13260291529351673 -0.063723490318715964 0.98911869036898747
0.58224276301082623 0.1327393353545559 0.067955869062614555 0.13443852467021278 -0.063256088867375354 0.98890087991956976
0.57171276144580829 0.30309873865005876 0.077979087038376887 -0.23232993470583946 0.08660972271620708 -0.96877322288067091
0.5572941537606495 0.30259063573053452 0.081145366112376646 0.17904820031514418 -0.098779593354604719 0.97886890537017623
0.55268130558674744 0.3025468897341369 0.082516121009999693 -0.2180905353115084 0.095252086784817599 -0.97126904530653979
0.57066892878600284 0.2996968810554414 0.078265272817154841 0.18059996506317327 -0.095738244439415698 0.9788860205206934
0.56633815915202812 0.29861808935931966 0.079018700540717399 0.17943893349662476 -0.096113320459997681 0.97906276549348337
0.55699760541330079 0.29775011203744367 0.080747895554865057 0.17735872063353517 -0.097426427336518601 0.97931199087506215
0.55221485068930609 0.29774644504566028 0.081698838811554403 0.17589280872507979 -0.098785129479628669 0.97944025751063324
0.56161177509093796 0.29246029698319875 0.079387514049368016 0.17631206717302597 -0.094937065757616956 0.97974537943003748
0.55698165165178759 0.29255768990010039 0.080706339129225577 -0.21633674943542611 0.089219011792915914 -0.97223370584361513
0.5519627159983419 0.29283238966147224 0.081831262272042585 -0.21114341137496576 0.092127200758260946 -0.97310381702744797
0.54723235993884667 0.29259617898279633 0.082200995741374377 0.17203143152985481 -0.099028642577847686 0.98010127768255551
0.54262264524209392 0.29228364338370882 0.083731693871733168 -0.20123732829044791 0.096986520038972221 -0.97472927145605537
0.247345169514052 0.13723753330520808 0.068839129108542424 -0.11360952772741485 -0.13355270837695751 0.98450827792087814
0.25228854856746674 0.13730770680319956 0.069445204321547244 -0.1109650532823581 -0.13229638503291377 0.98497940255482819
0.25737049533594497 0.1372075984642607 0.07003056033144163 -0.10789706176393871 -0.13085086574115756 0.98551320386765917
0.26195082473760967 0.13665401174338107 0.070468540854916314 -0.10533924388171866 -0.12953146266529561 0.98596411896083569
0.26731346802403644 0.13707237122120469 0.07091570356791474 0.10234031830498247 0.1269005427682999 -0.98662186854658052
0.57056134590697449 0.28627994415243796 0.077135205501992377 -0.22352684690777852 0.079640189065040293 -0.97143872117450158
0.27713822877673805 0.13692120558383394 0.071884098532011415 0.098001710591563165 0.12475000105960606 -0.98733636718028162
0.5666312821739925 0.2831121319802159 0.077654538537010723 0.17402944705930992 -0.091492447491712231 0.98048094505105354
0.30311497923297936 0.13711771996869196 0.074308689926516541 0.084286040387486105 0.11812971553255121 -0.98941459141453814
0.55727922403374275 0.28290646208555092 0.079920200930884408 -0.21025343424183587 0.084778557164381915 -0.9739641110608952
0.54010468631645914 0.13781399773378447 0.074646366899445579 -0.14504153614848755 0.055931954678004166 -0.98784339307280111
0.54360198465161713 0.13694913193226144 0.074144006643913199 -0.14776319110643124 0.055602738455117179 -0.98745854334768712
0.54828719900756906 0.13736527121689465 0.073520637879642137 -0.15173333620598833 0.055253978121698057 -0.9868758749637806
0.552341290948553 0.28254754761347167 0.080264211242881953 0.17102176273726527 -0.0944295905419614 0.98073167028515806
0.55775601282179321 0.13716418550861856 0.071592823021895485 0.12351950988500322 -0.065154337061998441 0.99020091044180525
0.56339897068801204 0.13714239128280925 0.071261344747053382 -0.16837129145440127 0.053893480141181282 -0.98424925756245762
0.5676769164113834 0.13730607844218307 0.070547848094048057 -0.17268204681975208 0.053552180460381058 -0.98352075457210342
0.54255226072989726 0.28266654895599225 0.082848539592713336 -0.19324329392831899 0.093173795025698336 -0.97671678252820171
0.53764629292109756 0.28227488636482467 0.083725666380249281 -0.18812593644168554 0.095567847777984744 -0.97748422928915979
0.56645529979936671 0.27885439347394364 0.077368584275887234 0.17203457426461966 -0.090127120427684199 0.98095933015645698
0.55685597609968263 0.27773200303080503 0.079028045392191937 0.16999343704962372 -0.091592060309373308 0.98117945649526306
0.55206779964636277 0.27792921370837442 0.080623092449772712 -0.20179834456416093 0.086063168665332049 -0.97563853917854571
0.54249634071629993 0.27760161780508363 0.081677946977078753 0.16503485158106812 -0.096593225804037397 0.98154635473439822
0.53768143138836044 0.27724348425184853 0.083239359983073871 -0.18431031668238229 0.093713497311162505 -0.97839025321501993
0.55688844788325265 0.27312137605729825 0.078625142827203856 0.16846876304710787 -0.090019212414029839 0.98158790603477553
0.55222863348146312 0.27272445636334047 0.07944542331941766 0.166866002178016 -0.091198737957924492 0.98175278329730664
0.5420916724623851 0.27285731381887429 0.081292883988480669 0.16335003733788767 -0.095014944763645276 0.98198214116819471
0.53750922269671986 0.27261989396208364 0.082842095931178528 -0.1816954471276204 0.092235180606190612 -0.97901963001343217
0.55505335693964475 0.26486962131227404 0.078262764423886452 0.16536087355674234 -0.087994200387152569 0.98229975170249151
0.55188733139574875 0.26243440777039195 0.078643442305716488 0.1628654649421091 -0.088093839854201939 0.98270764508521702
0.54228488742012304 0.26243142807062569 0.080300788335292805 0.15933953465801604 -0.09105272099156532 0.9830159279965911
0.53739060872966793 0.26251642727966129 0.081193751217334326 0.1554910261777312 -0.093136181682994063 0.98343692855195775
0.55120553895811342 0.25751035304706171 0.078375805558467709 0.16072203226791912 -0.086395429333260457 0.98321119711585447
0.5422481529064006 0.25753360446321488 0.079921293973281418 0.15611273081377022 -0.089586315263835592 0.98366818968355185
0.53719616088129829 0.25743121897704407 0.080780644682520969 0.1526821906845415 -0.091950237508721042 0.98398846663457351
0.53262069309076931 0.25761053758051722 0.08230835895232809 -0.166803625766201 0.089549287565919164 -0.98191520791139875
0.52271717356197667 0.25754552916979384 0.083164189950936426 0.14324167297369517 -0.098504363123562519 0.98477343260737815
0.5472297187248184 0.25263263440984118 0.078678915523278894 0.15687888167537545 -0.085758021601233886 0.98388748249752922
0.5425303676455604 0.25270440531669103 0.080425528958265879 -0.17600954230432656 0.08272058699528452 -0.98090669561634503
0.28198375932411202 0.14215066595112988 0.073044938370487755 0.094422031334749704 0.12364009579703389 -0.98782468419751479
0.29339221762661016 0.14423185295617955 0.074363243304398099 0.089369663530855153 0.1217624864853863 -0.98852767291830423
0.29825314671782199 0.14068590912530551 0.074313547273069949 0.087853997394137615 0.12031581667757428 -0.98884062386164095
0.53736103024412141 0.25254871685955199 0.08121059973161035 -0.17116584010818786 0.085023273845871772 -0.98156675681513794
0.53246341145034726 0.25264239805619815 0.081146987294196712 0.14658066681942622 -0.092537301261859745 0.98486088154111606
0.52259815012043198 0.25250771497319624 0.083113217624374625 -0.15181275690510246 0.094438286115152634 -0.98388733956510732
0.51769193712224115 0.25241040238381568 0.083721323802559533 -0.14591835809983544 0.09708039445999532 -0.98452182798602283
0.51312173328873589 0.25236462669918375 0.084262851270035785 -0.14047239709313847 0.099572904077191007 -0.98506484173811726
0.51271257263200298 0.24732406406360435 0.083777498086341162 -0.13751800024660141 0.097954346034001299 -0.98564382294073494
0.54207260210141106 0.24285936702227895 0.079779402850776671 -0.17313901744080185 0.079973679903242764 -0.98164509429954738
0.53748263443770661 0.24271330868243485 0.08041537292127203 -0.16748039481045923 0.082295105665723359 -0.98243464563175908
0.53236417880061737 0.24240096691515595 0.081073111880114693 -0.16090709205947562 0.084983517132119699 -0.98330397616445053
0.52261299176901799 0.24260161254464277 0.082252409682764177 -0.14858193158422878 0.090309900677122357 -0.98476775508055092
0.51761753017547241 0.24238794130245223 0.082769546506291244 -0.14163019959764375 0.093211456524121647 -0.98552144113387175
0.51256436468886446 0.2423780821907838 0.083324193554948731 -0.1362855423763569 0.096192267477888754 -0.98598848807511164
0.50267037423393102 0.24237963243514268 0.084495335716667924 -0.12844186480350345 0.099905517464121768 -0.98667196927146184
0.54540051296611058 0.23689845628501938 0.078895446054097249 -0.17482392016203893 0.07607699268459879 -0.98165619649816527
0.53734351318113149 0.23736156310371065 0.080051775895279259 -0.16544386461037072 0.080478946531655299 -0.9829300416753679
0.53231641223385084 0.23759480770515695 0.080706635050514022 -0.15879986999528403 0.083378922467015421 -0.98378379564705198
0.52264404720434021 0.23750228847074459 0.081799446024413608 -0.14667812570017974 0.088905268039697935 -0.98518088732773923
0.51746758348714006 0.23746785689685265 0.082340864949275311 -0.14058936362192379 0.091685690835529729 -0.98581355485324607
0.51255047526876418 0.23749870488228436 0.082865030628759759 -0.13467124504285119 0.094563982845252526 -0.98636773513079345
0.23243338021473292 0.14717290762616519 0.068487016693103378 -0.11698235764698654 -0.13576699446936935 0.983810170313413
0.50276544274769908 0.2374028492218612 0.083816069527411871 0.1096244033662407 -0.10048411221453361 0.98888089949146685
0.24270642793346037 0.14645973378850194 0.069655466623883153 -0.11322436693683027 -0.1339559953770543 0.98449785882666929
0.24731415471843854 0.14665772332036331 0.070246283646520094 -0.11101086589590166 -0.13298149050840308 0.98488197812489464
0.49770271552674306 0.23749203067198693 0.084530701418996629 -0.12192894639325447 0.099751163660151021 -0.98751356313717376
0.25711648089859723 0.14525028160064898 0.071150851993046646 -0.10638307086955728 -0.13064564993385155 0.98570500474823819
0.26228443561266207 0.14614971912325531 0.071678704992663461 0.10192159783923993 0.12786561161895671 -0.98654060902692009
0.26743463933419237 0.14657736719812436 0.072457141837071762 -0.099266067694096821 -0.12768860161029547 0.98683426613761149
0.49755823672166849 0.23235236489982491 0.083833223731154261 0.1010072306270004 -0.10131666273417038 0.98971332880459595
0.27764837086041222 0.14681614001133012 0.073486246516616019 -0.094020059516819812 -0.1254242203277951 0.98763808825076127
0.28189958914971075 0.14696602069454104 0.073687177544405194 0.093596597910854756 0.12392441009740696 -0.98786761129289158
0.53122382006776669 0.22719003638087623 0.080026539104212049 -0.15379502873794448 0.081031822188697977 -0.9847745594440761
0.52247696100707652 0.22762998059990788 0.081019816452964688 -0.14427043428063643 0.085598737410935738 -0.98582904093262047
0.29520586868330456 0.14453091758530753 0.074572001955053618 0.087477798948673469 0.12120700923727187 -0.98876513672502198
0.53861348578806989 0.14698911510123552 0.075258923361212107 -0.14455867760987801 0.056550870592419832 -0.98787893375804048
0.54299144295436674 0.14728755972724364 0.074708330847803858 -0.14845274843077824 0.056032273721650927 -0.98733082894485269
0.54817523799008472 0.14703610490675514 0.074020639077432018 -0.15367400311325416 0.055383333968951586 -0.98656828810054054
0.51764867267587777 0.22724062049377972 0.081424640104277829 -0.13750361258153843 0.088351765664900495 -0.98655294943095717
0.55837459485735064 0.14735446622949713 0.071887407027604461 0.12534931707547642 -0.063995798177077387 0.9900465072532656
0.56332764544194502 0.1473666543126288 0.071224975387112741 0.12869811015509042 -0.063255106897073254 0.9896643814414805
0.56830840434763863 0.14760024590817106 0.070918990624826095 -0.17462218823603282 0.053404861998538937 -0.9831861533252878
0.51252833087158334 0.22749963037180335 0.081783112595916835 0.11257417319019952 -0.088897067005227121 0.98965871238948389
0.50241876977837641 0.2274844418887563 0.082847211142056329 0.10372679409006275 -0.094956057331532118 0.99006267446250529
0.49758054177457262 0.22740392484694491 0.083507225531794835 -0.11670819805897234 0.096270632745183216 -0.98848933316281651
0.49260055497129729 0.22728734008210855 0.083808444804276572 0.094240840253372524 -0.10100022865487829 0.99041285221871012
0.53188455872807283 0.22270502999804279 0.079061257266146642 0.12651843191836804 -0.078994089511760943 0.98881394620379681
0.52229380270238224 0.22277961680977126 0.080267238971314978 0.11889008812054634 -0.083148209767229808 0.98941979066480856
