0.49738599999999999 0.207562 0.080637299999999995 0.033272102832342658 -0.054553485473476444 0.99795635395332238
0.487344 0.207565 0.080720200000000006 0.032259515399835771 -0.079929513284720297 0.99627837303247535
0.482458 0.207679 0.080938899999999994 0.050925341956943267 -0.091765431762534905 0.99447760913959438
0.56272100000000003 0.157365 0.070697700000000002 0.14659055262817391 -0.090398045538436805 0.98505807100038401
0.56784000000000001 0.15729299999999999 0.069809800000000005 0.15710840162191186 -0.088650963673884212 0.98359440664305298
0.47741 0.20757300000000001 0.081219200000000005 0.071533152853689608 -0.094570015383605335 0.99294487270601051
0.57761200000000001 0.15747700000000001 0.067983600000000005 -0.18418655487028746 0.068124822896181617 -0.98052757304951843
0.307334 0.20724200000000001 0.0834144 0.060783466866217814 0.085316240149877667 -0.99449811931567345
0.29747000000000001 0.20762800000000001 0.082519499999999996 -0.095843292916971162 -0.073595840091420506 0.99267200802887046
0.50782000000000005 0.61247300000000005 0.12670999999999999 0.33234034399654649 -0.022821386379181359 0.94288338625515578
0.28758899999999998 0.207507 0.081375699999999995 -0.11850501614638571 -0.071025661179056829 0.99040997400178821
0.28289700000000001 0.20757500000000001 0.0808223 -0.13118404857671628 -0.075666015158055988 0.98846618533418873
0.27797500000000003 0.20761599999999999 0.080137399999999998 -0.14428009662728916 -0.078381505598672227 0.98642769288848797
0.52166100000000004 0.20249600000000001 0.078837500000000005 0.11466557637804427 -0.065602736654621935 0.9912356362325333
0.51697099999999996 0.203123 0.079317299999999993 0.099320496405881017 -0.065385804782276569 0.99290489752375755
0.51230200000000004 0.202572 0.079786300000000004 0.077866839789264466 -0.06967146946606588 0.99452634032672671
0.50242200000000004 0.202656 0.080307500000000004 0.040052243226512331 -0.067020517019351883 0.99694737479517104
0.22201199999999999 0.16225000000000001 0.068654900000000005 0.12697527412263485 0.097095865365835032 -0.98714217450696595
0.49740000000000001 0.202565 0.080387600000000003 0.023399339376430173 -0.069377653483632534 0.99731600414003763
0.48737200000000003 0.202546 0.080435499999999993 -0.019649249015617716 0.075598769491204282 -0.99694469910047578
0.24090200000000001 0.15971099999999999 0.070955599999999994 0.15514759376867734 0.1300975125340158 -0.9792874253150865
0.54921500000000001 0.16167699999999999 0.072754100000000002 0.12456643218167927 -0.067411958058199772 0.98991859861520259
0.55381000000000002 0.16079599999999999 0.072048699999999993 0.1291995061400219 -0.080376465899589328 0.98835576152651949
0.48232599999999998 0.202543 0.080426800000000007 0.045023333916440374 -0.083735523301796372 0.99547037200532673
0.47726499999999999 0.202739 0.080708799999999997 0.065478449540176259 -0.089393671884871545 0.99384170976708097
0.28761500000000001 0.202519 0.080968300000000007 -0.12319399599179892 -0.066002082384585631 0.99018531824728195
0.28263199999999999 0.20247299999999999 0.080338900000000005 0.13817161861967958 0.078448581313552299 -0.98729652278224345
0.27751199999999998 0.20271900000000001 0.0796322 -0.15040169850234697 -0.07960433514339367 0.98541487654387827
0.27291199999999999 0.20327300000000001 0.078946299999999997 -0.15757098499607872 -0.07293118793180467 0.98481085824346071
0.52176 0.19767899999999999 0.078393699999999997 -0.10827900351202546 0.099501610751845881 -0.98912844810784362
0.507359 0.197653 0.079653199999999993 0.063345017010921795 -0.10109192237586062 0.99285841490629423
0.50251100000000004 0.19752500000000001 0.079863699999999996 -0.04867879115224745 0.092392303375147464 -0.9945320696533575
0.19297800000000001 0.16783999999999999 0.065152799999999997 -0.13617212373832288 -0.034327325893003129 0.99009029255600245
0.49732999999999999 0.19753200000000001 0.079962599999999995 -0.026179151601954977 0.08285858154773848 -0.99621739971017287
0.20284099999999999 0.16762099999999999 0.066407599999999997 -0.13230039677405464 -0.061545318709178731 0.98929711348937699
0.48754399999999998 0.197715 0.080043199999999995 0.02098285742808069 -0.077688456833114358 0.996756852682259
0.21254300000000001 0.167652 0.067840700000000004 0.13722606896631967 0.074595538378748549 -0.98772694184680199
0.21723300000000001 0.16755999999999999 0.068441000000000002 0.13152377456930847 0.073776526066596598 -0.98856386790363049
0.22178700000000001 0.16714200000000001 0.068992600000000001 0.13003747843586597 0.075902237584673418 -0.98859956733334731
0.22778499999999999 0.164797 0.069622500000000004 -0.1340138742709911 -0.085806874593632634 0.98725754581839065
0.48244599999999999 0.19749 0.0800149 -0.038410319459223616 0.074634684531474454 -0.99647092843892215
0.239567 0.169186 0.071693699999999999 -0.16438642395324277 -0.09016432924680691 0.98226651034805124
0.56442099999999995 0.16617899999999999 0.071275000000000005 0.15499444253671976 -0.06606671665532278 0.98570376469460486
0.47734500000000002 0.19770199999999999 0.080224100000000007 0.065227614803052641 -0.076675280169959475 0.99492022779616018
0.578372 0.16795099999999999 0.0686393 -0.19909460122561606 0.058562609817362402 -0.97822888962358523
0.46746300000000002 0.197654 0.081301200000000004 0.104862766437762 -0.084891059053547491 0.99085685560921788
0.46258500000000002 0.19738 0.081849699999999997 -0.10441588403846279 0.085756873593458932 -0.99082949178551472
0.44752900000000001 0.19741800000000001 0.083335000000000006 0.067786107108316368 -0.1051387567369582 0.99214458901659419
0.442689 0.19742799999999999 0.083586999999999995 0.063619302422657856 -0.10486369872316965 0.99244959018045376
0.39247799999999999 0.197269 0.083823999999999996 0.071469270934841303 0.08585203253742385 -0.99374119961951624
0.38753399999999999 0.197518 0.083454 -0.040182752796288135 -0.084539979971965412 0.99560953097288696
0.203018 0.172517 0.066747100000000004 -0.13524022940824587 -0.047160167383813428 0.98968984988325304
0.38262200000000002 0.197072 0.083337800000000004 0.012320143913004001 0.084037596934424919 -0.99638641919460658
0.212365 0.172455 0.068051600000000004 -0.13546231808685719 -0.061717753694128658 0.98885837168802193
0.33746799999999999 0.196933 0.082996100000000003 0.061914670622692056 0.15665781938423518 -0.98571035359656223
0.22245100000000001 0.17236199999999999 0.069399699999999995 0.13329231616646925 0.06207498150483777 -0.98913085844197179
0.227718 0.17225599999999999 0.070084199999999999 -0.14083164128227649 -0.066219443862296515 0.98781649817580397
0.23247200000000001 0.17233399999999999 0.070825700000000005 0.15195535276251176 0.070184163534337707 -0.9858923642851718
0.33244200000000002 0.19744900000000001 0.082857600000000003 0.046936278657182688 0.16147038596904006 -0.98576077229763226
0.242038 0.17266500000000001 0.072379399999999997 0.17326947142872351 0.079411822720308362 -0.98166768953808847
0.246642 0.17432500000000001 0.073515700000000003 0.17019299654172035 0.075278945960657775 -0.982531131426991
0.57712699999999995 0.172565 0.069010000000000002 -0.19729521847850132 0.051154990571771551 -0.97900856160971472
0.32755899999999999 0.19750799999999999 0.082634700000000005 0.03074558020541222 0.16026181658842964 -0.98659559062546442
0.31769799999999998 0.19766600000000001 0.082536100000000001 0.014310984336577143 0.14020233379555053 -0.990019444922977
0.31260500000000002 0.19758200000000001 0.0824984 0.025219312781213192 0.12978990474375932 -0.99122074579250463
0.292684 0.197629 0.081398200000000004 0.11720417919953965 0.069465584964948493 -0.99067538219319862
0.282858 0.19752600000000001 0.080075499999999994 0.14303278043025328 0.078824842557606592 -0.98657400529213179
0.278285 0.19773199999999999 0.079438800000000004 0.1473134288440352 0.084515064421970654 -0.98547245398740768
0.51681999999999995 0.19017500000000001 0.077687500000000007 -0.095765191993523235 0.12660038219990399 -0.98732029819571809
0.45749299999999998 0.19256799999999999 0.081933099999999995 -0.081085320666996072 0.10622398387126163 -0.99103059287937623
0.33260699999999999 0.19267599999999999 0.081951499999999997 0.044623810501782282 0.15225620158544201 -0.9873331578626714
0.32763799999999998 0.192771 0.081802299999999994 0.025928032003399226 0.15633514557638967 -0.98736369156154413
0.31761699999999998 0.19272300000000001 0.081737099999999993 -0.0011148371846918543 0.1410653460534409 -0.98999965923270627
0.31268899999999999 0.19258500000000001 0.081844200000000006 0.0086876217727891013 0.12756179050141483 -0.99179257651587927
0.51229199999999997 0.18759500000000001 0.077664700000000003 0.09460687133450954 -0.11101897617295833 0.98930497159662734
0.50223899999999999 0.18774199999999999 0.0785579 0.070086212257722755 -0.083513475187232941 0.99403894406281523
0.49702099999999999 0.18776899999999999 0.0789049 0.053891257116612613 -0.068365207070156211 0.99620375971416919
0.55298400000000003 0.179032 0.073260800000000001 0.1141299707479501 -0.054147259380199896 0.99198912498005021
0.487346 0.187634 0.0793132 -0.033555722753060631 0.045912263500835888 -0.99838172936545144
0.48216300000000001 0.18773799999999999 0.079339400000000004 -0.048342761035673677 0.043322725785844424 -0.99789083515479371
0.47737000000000002 0.187663 0.079625100000000004 -0.054982739910529987 0.04573450852615845 -0.99743934805170076
0.46746500000000002 0.18752199999999999 0.080600599999999994 -0.085839834176286586 0.066486386861872179 -0.99408806613430445
0.46223399999999998 0.18761900000000001 0.081032599999999996 -0.075702520852655025 0.079537959121016258 -0.99395313843028665
0.45721899999999999 0.187667 0.081402600000000006 -0.062275338049672023 0.099631198407899857 -0.99307371658633958
0.44744 0.18770100000000001 0.081840899999999994 0.049678771127999094 -0.12733468400076736 0.99061490900835769
0.44251699999999999 0.187531 0.082162100000000002 -0.048780742297556773 0.13924588107610653 -0.98905562218928744
0.43246099999999998 0.18770700000000001 0.082836599999999996 0.068678699743443081 -0.16331655140434337 0.98418033928693283
0.21315500000000001 0.18116199999999999 0.068687200000000004 -0.13318078188119525 -0.052004478522121825 0.98972643369324831
0.39243400000000001 0.18753500000000001 0.083137799999999998 0.048625692782322059 0.095495881095603669 -0.99424145895009508
0.221998 0.18174399999999999 0.069758899999999999 -0.13586383038236169 -0.057564032598497294 0.98905379112808223
0.22672999999999999 0.18254899999999999 0.070447300000000004 -0.1466244970255273 -0.057053367282564438 0.98754552814223806
0.38738699999999998 0.18751499999999999 0.082911899999999997 0.030544102760916902 0.087676749819296462 -0.99568059402986009
0.235898 0.18098800000000001 0.071851399999999996 -0.16609275655647185 -0.059666331053726686 0.98430337049004346
0.38247300000000001 0.18751399999999999 0.082803699999999994 0.015848255280172814 0.072309969697305451 -0.99725628656175891
0.55755299999999997 0.18215200000000001 0.072987200000000002 -0.13075707274989645 0.063859176911243862 -0.98935564558458777
0.56264199999999998 0.18324099999999999 0.072369000000000003 0.15460150051270499 -0.062150484839401263 0.9860201282293618
0.57857700000000001 0.18246499999999999 0.069195900000000005 -0.1959744903178601 0.049698488100619762 -0.97934879354863547
0.58276300000000003 0.18233099999999999 0.068376800000000001 -0.18460140246429513 0.052630387625299022 -0.98140326293864855
0.35752099999999998 0.187615 0.083065799999999995 -0.029703267295525648 -0.12016459185010916 0.99230952166018604
0.352738 0.18763299999999999 0.082882800000000006 -0.052319592705265157 -0.13212912126659077 0.989850774375852
0.34768900000000003 0.18768499999999999 0.082451399999999994 0.073075150045631004 0.13454098344025905 -0.98820986952202428
0.34261399999999997 0.187801 0.081914100000000004 -0.072883942881485475 -0.13718111229722249 0.98786095848502142
0.33762799999999998 0.18762000000000001 0.0814246 -0.062146663800394589 -0.13683357162084059 0.98864268866763239
0.22265299999999999 0.185558 0.0702102 -0.13753163943514873 -0.060562992263765998 0.98864410791868829
0.227352 0.186001 0.070810300000000007 -0.15110279067379453 -0.049105133581632154 0.98729764129492437
0.55517300000000003 0.18496699999999999 0.0735122 0.12090831975934702 -0.07039223224835546 0.99016468925732992
0.33260699999999999 0.18771699999999999 0.0811891 -0.044546622889590035 -0.13391384788470242 0.98999125235218388
0.56337400000000004 0.18740399999999999 0.072404700000000002 -0.16020890064144494 0.068034600465488843 -0.98473570123904874
0.567469 0.188723 0.071818599999999996 0.17928955340792857 -0.064922403582824237 0.98165184131229266
0.57968799999999998 0.18665899999999999 0.069212999999999997 -0.18770961750090456 0.057754403821777316 -0.98052512886557608
0.32755800000000002 0.18759100000000001 0.080972500000000003 -0.020080158595406322 -0.1303695338724552 0.9912621105785604
0.58733999999999997 0.187532 0.067833199999999996 -0.180533657280286 0.062776598558359625 -0.98156339441854012
0.317492 0.187693 0.080995499999999998 0.005108305708115329 -0.13687759971624236 0.9905747967259777
0.59709000000000001 0.18760599999999999 0.066164000000000001 -0.18736143396734509 0.085126513522463046 -0.97859550875589563
0.31250699999999998 0.18762300000000001 0.081149399999999997 0.0099264767057473183 -0.1408435022042856 0.98998210738732118
0.50265499999999996 0.61746699999999999 0.12853100000000001 0.30182102006849032 -0.0047966094526643334 0.95335253940112574
0.55945999999999996 0.19352 0.073527099999999998 -0.15011695633329084 0.077319126700961902 -0.98564022445689048
0.56276300000000001 0.19217999999999999 0.072908700000000007 -0.1645130526173656 0.07281567500493194 -0.9836835532792505
0.56761099999999998 0.19195400000000001 0.072024299999999999 -0.18365949381182023 0.068598285707232629 -0.98059342519252835
0.29738999999999999 0.187445 0.081340399999999993 -0.066979824955195805 -0.12306191806235647 0.99013608527908181
0.583009 0.19208700000000001 0.068781499999999995 -0.18279095291743699 0.057788101566394898 -0.98145198703191161
0.58729600000000004 0.192495 0.068156999999999995 -0.1676773225040982 0.054997429342376662 -0.98430665866059597
0.59238000000000002 0.192608 0.0674762 -0.17237689856663982 0.061877748198542616 -0.98308562654451659
0.292433 0.18745200000000001 0.080820100000000006 0.10094870882815443 0.11594781774350346 -0.98811206942656438
0.28264600000000001 0.187387 0.079173499999999994 0.14234087631187578 0.097106074512230106 -0.98504288496673698
0.27958300000000003 0.18589 0.078490900000000002 0.14093750992692158 0.098995904354127501 -0.98505656143020925
0.51149500000000003 0.18380199999999999 0.077277600000000002 0.099991370500189386 -0.083385265334531347 0.99148808532961386
0.50156500000000004 0.18254100000000001 0.0781916 0.084209070017191037 -0.045092930248349067 0.99542727517808027
0.49731300000000001 0.18268799999999999 0.078587299999999999 0.069293809628741168 -0.035682521580581238 0.99695793572286029
0.48740600000000001 0.182533 0.079212299999999999 0.038694898797357373 -0.029971144827585824 0.9988014994405976
0.48226000000000002 0.182755 0.079286800000000004 -0.051642831522493972 0.028473400226750406 -0.99825962726730866
0.47716700000000001 0.183064 0.079439300000000004 0.051542647618925609 -0.035375531123135198 0.99804405076839531
0.46750900000000001 0.18244099999999999 0.080260799999999993 -0.072162073686986364 0.052408615971061681 -0.99601504611787461
0.462538 0.18259400000000001 0.080688800000000005 -0.061615085676449854 0.063014830739434854 -0.99610878538639758
0.45758900000000002 0.18271100000000001 0.080910999999999997 -0.0477990646681564 0.077930714927516992 -0.9958122579521379
0.44732100000000002 0.18265500000000001 0.081034900000000007 0.031779305867145689 -0.11194122917731868 0.99320654293498978
0.56826500000000002 0.20216899999999999 0.072794200000000003 -0.19724725818859831 0.0661283599328224 -0.97812093278371037
0.44240099999999999 0.18255199999999999 0.081243099999999999 0.040379866215379145 -0.13015935984071084 0.99067048378877443
0.57595799999999997 0.20224600000000001 0.071019299999999994 -0.20952185765244943 0.062233077961814161 -0.97582151809296847
0.58784700000000001 0.202371 0.068582199999999996 0.18071012629640601 -0.039935978032564878 0.98272527591006809
0.59227399999999997 0.20263 0.067965800000000007 -0.17441469619796379 0.021204914199832378 -0.98444393713606138
0.59713499999999997 0.202318 0.067136600000000005 0.20496891017280766 -0.01163295197902015 0.97869935132849939
0.602047 0.20277700000000001 0.066006899999999993 0.24689981264663588 0.00058604115897204628 0.9690408345734538
0.43243900000000002 0.18274399999999999 0.081831600000000004 0.061349061910114418 -0.15685119863754221 0.98571496594538688
0.42748799999999998 0.182562 0.082190700000000005 0.068141049735216397 -0.16616059235712585 0.98374155899225479
0.56829099999999999 0.20619599999999999 0.072997900000000004 0.19203186868404543 -0.057087779695094265 0.97972687358222321
0.41253899999999999 0.18262600000000001 0.083355600000000002 -0.026278052795640792 0.17944065761419931 -0.98341777202583303
0.58507100000000001 0.20888499999999999 0.069367600000000001 -0.20773674995700056 0.039713416989973251 -0.97737827233281749
0.58821900000000005 0.20743 0.068699800000000005 0.19865351609401882 -0.027390843349117965 0.97968695114516424
0.40757399999999999 0.18244099999999999 0.083367399999999994 -0.00028736814223221763 0.16718391784733247 -0.98592568433567429
0.50759399999999999 0.61741299999999999 0.126856 -0.3308582064503936 0.0015182668791072869 -0.94367925805864405
0.60239299999999996 0.20752899999999999 0.065785800000000005 -0.26236743494596948 -0.01661061755287065 -0.9648250703958644
0.45237899999999998 0.62242200000000003 0.128382 0.24050246661358091 0.093051241402995422 -0.96617805296236403
0.579623 0.21455399999999999 0.070916999999999994 -0.2138128045250057 0.046077066435561864 -0.97578736852341175
0.583202 0.21235200000000001 0.070013199999999998 -0.21310308295956187 0.042668397543858372 -0.97609757907914585
0.38762999999999997 0.18263399999999999 0.082577600000000001 0.026820696732906858 0.089516632794664069 -0.99562413725254106
0.59251299999999996 0.21276200000000001 0.067932800000000002 -0.22062797217958718 0.0093338682491832387 -0.97531337363712478
0.38256000000000001 0.18244199999999999 0.082460199999999997 -0.001930129401707335 -0.082691699541831296 0.99657330760329743
0.357655 0.18262 0.082357700000000006 -0.040463655943354347 -0.11471060132881773 0.99257451634145788
0.35256199999999999 0.18257300000000001 0.082088499999999995 -0.060447201833105778 -0.12147507740952236 0.99075220986828894
0.347659 0.182589 0.081678500000000001 -0.071133590977489836 -0.1161630437093715 0.99067964524906915
0.33734900000000001 0.182672 0.080699300000000002 0.058194470706908807 0.10633230619581711 -0.99262623592076271
0.58818099999999995 0.21723300000000001 0.069020399999999996 -0.22616951077621736 0.033330649926746156 -0.9735175500065254
0.33246500000000001 0.18267700000000001 0.080534400000000006 0.041230247069377925 0.10380153336402037 -0.9937430796729485
0.32742900000000003 0.18257499999999999 0.080427700000000005 0.024163926511712265 0.10571926729500002 -0.99410237962603487
0.31758999999999998 0.18273700000000001 0.080413999999999999 0.0019016026719295034 -0.12627837892097174 0.99199302161072156
0.31250699999999998 0.18279999999999999 0.080507700000000001 0.0029598259684030233 -0.14675397017476696 0.9891685961797313
0.57519500000000001 0.22330700000000001 0.0723858 -0.19357680280583259 0.043477817337537125 -0.98012126842296188
0.29750500000000002 0.18243000000000001 0.080608399999999997 0.058268909592908938 0.15379273059911416 -0.98638356139471528
0.58295399999999997 0.222245 0.070542099999999996 0.22897726651946271 -0.036379835982722708 0.97275172523678666
0.58787699999999998 0.22222500000000001 0.069309499999999996 -0.2421440417827587 0.036281621668136151 -0.96956170869018954
0.59276099999999998 0.22249099999999999 0.067981 -0.25820352018179782 0.025456081633047266 -0.96575510874839288
0.29280299999999998 0.18285299999999999 0.080134300000000006 0.096034742378687504 0.14600515867022307 -0.98461150810760989
0.28271800000000002 0.18277299999999999 0.078606099999999998 -0.1357062145568238 -0.12284972033770447 0.9831031327096893
0.27870299999999998 0.18229200000000001 0.077971600000000002 0.12819950649494311 0.10894694916426204 -0.98574613811176182
0.49735699999999999 0.17763000000000001 0.078565700000000002 0.069614434297049707 -0.0067694268429164001 0.99755100390793072
0.48717700000000003 0.17764199999999999 0.079177800000000007 -0.035146805844839736 0.010406949858261435 -0.99932797290656905
0.58884599999999998 0.22670100000000001 0.069232699999999994 -0.25151767128111507 0.041550964103912701 -0.96696038099570569
0.59276099999999998 0.22758900000000001 0.068146300000000007 -0.26247941582121997 0.037672290277642503 -0.96420192636988078
0.48256399999999999 0.17737700000000001 0.079290100000000002 -0.042909278785474798 0.015007019553302456 -0.99896625726709964
0.46255299999999999 0.177458 0.080326599999999998 -0.046789842613503746 0.052288056980779082 -0.99753529748344183
0.45746300000000001 0.17758499999999999 0.080538899999999997 -0.03540230268023585 0.059464780680906333 -0.99760243425099382
0.44250600000000001 0.177672 0.080487900000000001 0.019912286914594186 -0.10759943920359191 0.99399490014431346
0.59341299999999997 0.23239799999999999 0.068220000000000003 -0.26642131796394597 0.044880861936144767 -0.96281119102668444
0.432529 0.177588 0.080779799999999999 0.042939893504753926 -0.14238461313607362 0.98887956166961577
0.42748399999999998 0.17771600000000001 0.081212599999999996 0.051562621246198398 -0.16190743358402776 0.98545790323100801
0.42255999999999999 0.17785300000000001 0.081594200000000006 -0.05559723381729248 0.1772424594007381 -0.98259557203227965
0.41741600000000001 0.177643 0.081840499999999997 0.047177846625157178 -0.19166598909222282 0.98032565987691722
0.574793 0.238125 0.073092000000000004 -0.18284291780325876 0.046646133904000062 -0.98203493094746919
0.407607 0.17755599999999999 0.082305199999999995 -0.014904229509642403 0.18260413270439435 -0.98307354488969922
0.58177299999999998 0.239533 0.071723800000000004 0.22670517415282149 -0.04649804240100143 0.97285286455106557
0.58862899999999996 0.23849200000000001 0.069901599999999994 0.25469124341899207 -0.046785329527201817 0.96589000588406504
0.50251299999999999 0.62265400000000004 0.12857199999999999 -0.31122849975540245 -0.017245563707799203 -0.95017862082473836
0.38244299999999998 0.177676 0.081917299999999998 0.00031319958286936097 -0.092689463249020387 0.99569501621160572
0.372643 0.17758099999999999 0.082078300000000007 0.0012323286382564316 0.088705068023439276 -0.9960571731949347
0.36755500000000002 0.17761199999999999 0.082019900000000007 -0.011010460845938829 -0.096070732249166929 0.99531361095740523
0.50778000000000001 0.62221400000000004 0.126772 -0.32721865578905707 -0.017390624241608969 -0.94478860995044278
0.57883600000000002 0.24210899999999999 0.072549100000000005 -0.20772713716034524 0.047209089036689036 -0.97704694789937963
0.347387 0.17755199999999999 0.081041600000000005 0.058715241582850991 0.095484311080641537 -0.99369777434757445
0.58799699999999999 0.24244399999999999 0.070164699999999997 0.25233192337730481 -0.046937649288304982 0.96650165934880727
0.337474 0.17766399999999999 0.080329700000000004 0.053608091462631451 0.079770981450467238 -0.99537066615817205
0.33243299999999998 0.17760400000000001 0.080195299999999997 0.044651360369569335 0.078673110132242305 -0.99589999385443662
0.32756000000000002 0.17763499999999999 0.0800371 0.039291288267693819 0.090425898980288771 -0.99512780659565125
0.30762699999999998 0.177621 0.079750199999999993 -0.018133650364958443 -0.17302411051063879 0.98475064250115818
0.47759000000000001 0.17241300000000001 0.079381300000000002 -0.037297166568599958 0.023573539260202763 -0.99902613059554246
0.46712500000000001 0.17289199999999999 0.079799499999999995 -0.060945578933985244 0.030578540518684694 -0.99767258620659105
0.58342700000000003 0.24718999999999999 0.071684300000000006 -0.23062082537557554 0.051406649071724667 -0.97168482098585085
0.58802299999999996 0.247221 0.070417199999999999 -0.25460700197456199 0.048870054451992918 -0.96580898335197962
0.447546 0.17263500000000001 0.0801061 0.00059541677533550552 -0.04799109003768165 0.99884758634931825
0.42751 0.17274600000000001 0.080415299999999995 0.031496053943784394 -0.11949159947607702 0.99233550588529251
0.41245100000000001 0.172823 0.080989400000000003 0.032338967706277637 -0.17669717083220246 0.98373385678626901
0.40757500000000002 0.172684 0.081191899999999997 0.028771887839731749 -0.17447801298962168 0.98424062172485605
0.61005900000000002 0.24780099999999999 0.063559199999999996 -0.36201908548941897 0.033532632631091901 -0.93156735896564824
0.37262899999999999 0.17269300000000001 0.081567299999999995 -0.00058687579401632398 0.082172171491711757 -0.99661797586093093
0.49802600000000002 0.627521 0.12984000000000001 -0.27041566517237736 -0.043291703578068955 -0.96176982507806374
0.31801400000000002 0.172875 0.079230499999999995 -0.050199288403393182 -0.13733863038260155 0.98925129873476725
0.29786499999999999 0.17447099999999999 0.078875000000000001 0.045091092916082993 0.20478335797754274 -0.97776815740495215
0.29325000000000001 0.17329 0.078338699999999997 0.066416747421197728 0.19619487353192314 -0.97831303132575187
0.28360299999999999 0.17455999999999999 0.077594700000000003 -0.096187363834663225 -0.15065494728571113 0.98389586740512225
0.58532899999999999 0.25910100000000003 0.071866100000000002 0.23958467483020365 -0.064455774637210514 0.96873352202885121
0.49745 0.16758400000000001 0.078880800000000001 -0.067634833153174007 0.016702181250942 -0.99757033159863129
0.59289700000000001 0.25720300000000001 0.069639999999999994 -0.28045573935830687 0.059861663939607089 -0.95799851745781284
0.487126 0.16769800000000001 0.079053899999999996 -0.021129795994584366 0.026294439688509526 -0.99943090514687127
0.48215400000000003 0.168046 0.079105099999999998 -0.024656562457899201 0.031082450655402688 -0.99921265764051159
0.47716799999999998 0.16758600000000001 0.079256300000000002 -0.033525588166489678 0.030258866137656482 -0.99897969747045134
0.60999099999999995 0.25573400000000002 0.063851400000000003 -0.35673621387561033 0.035029002726444027 -0.93354820051119247
0.58347599999999999 0.26248500000000002 0.072578900000000002 0.22697746555890119 -0.064940947505126606 0.97173242380070568
0.58865900000000004 0.26245800000000002 0.071298100000000003 0.25624102034499863 -0.071419295950248429 0.96397086245307473
0.46734799999999999 0.16759199999999999 0.079663899999999996 -0.057606774697012558 0.03881587299429886 -0.9975844763791677
0.59818800000000005 0.26251099999999999 0.068360400000000002 0.31132269335229712 -0.07408933262005539 0.94741171166277349
0.46217200000000003 0.167824 0.080035899999999993 -0.039773299621838572 0.034805410121831158 -0.99860235732920366
0.45738800000000002 0.16761999999999999 0.080337099999999995 -0.027335404388503067 0.026427897521666573 -0.99927690951982939
0.58048999999999995 0.26844200000000001 0.073644399999999999 -0.21144513050968777 0.068074867744748233 -0.97501629174351578
0.44766499999999998 0.167517 0.080177600000000002 0.0083001319517065301 0.030529701705366973 -0.99949939726013104
0.44254199999999999 0.167654 0.079942399999999997 0.0088535364242581516 0.031958470186814629 -0.9994499842794049
0.59376499999999999 0.26677400000000001 0.070170200000000002 0.28040378663024246 -0.079951853775508105 0.95654661021890686
0.59781300000000004 0.26759500000000003 0.068944099999999994 -0.31022342338126796 0.084768851716479035 -0.94687679735236763
0.43736999999999998 0.167653 0.079884200000000002 0.0033642121997788151 0.044796251939908917 -0.99899047937826257
0.42758499999999999 0.16761599999999999 0.079924200000000001 0.009054985010776442 -0.077990209258230331 0.99691300247630044
0.60987899999999995 0.26990199999999998 0.064629900000000004 -0.39105290344307142 0.059474680039514172 -0.91844454875781201
0.42259999999999998 0.16771800000000001 0.080072000000000004 0.01390223440904138 -0.084784083770861191 0.99630235722775029
0.41234599999999999 0.16775699999999999 0.080132700000000001 -0.016061984491964089 0.12731508389893972 -0.99173226329790531
0.40725699999999998 0.16764999999999999 0.080206799999999995 0.026616884892418403 -0.13828330725399418 0.99003498340893048
0.40242299999999998 0.16762299999999999 0.080419599999999994 0.034939245293810373 -0.14079577588745804 0.98942195176302183
0.39256000000000002 0.167549 0.081067899999999998 0.026294975651163219 -0.099532320149150949 0.99468683086750032
0.38740599999999997 0.16762199999999999 0.081071400000000002 0.0215706311201849 -0.088590647752653129 0.99583452691892649
0.58072000000000001 0.27735300000000002 0.074148599999999995 -0.2071580656867259 0.065551499746323308 -0.97610887543446834
0.58153999999999995 0.27759699999999998 0.074045700000000006 -0.20979490026678715 0.062087088976939965 -0.97577215230012526
0.59431299999999998 0.27648299999999998 0.070943699999999998 0.27841553452799483 -0.072249687982321772 0.95773940752166387
0.59859899999999999 0.277227 0.069861999999999994 -0.3145731194287677 0.066389205528812584 -0.94690877381198002
0.37747700000000001 0.167654 0.081066200000000005 0.0054844779278377274 -0.073771295727857525 0.99726010470112159
0.37251200000000001 0.167602 0.081150399999999998 0.0066730165659863163 0.073004733853129541 -0.99730926982804269
0.60975699999999999 0.27526099999999998 0.065062800000000004 -0.42860244241789436 0.032428968066585823 -0.90291101908413518
0.58466200000000002 0.28109099999999998 0.073542700000000003 0.22200528799782179 -0.056997161211963944 0.97337812576345784
0.36739100000000002 0.16751199999999999 0.081171699999999999 0.016163926824847547 0.077629384736427817 -0.99685124572076678
0.60307100000000002 0.28192099999999998 0.0684501 -0.36549933086993125 0.04255097026037679 -0.92983850966903547
0.352688 0.16752300000000001 0.080565499999999998 0.038603629913453535 0.089113300673361609 -0.99527311799355078
0.58870299999999998 0.28741899999999998 0.073008900000000002 0.25069468442914344 -0.042442342102718349 0.96713536942653922
0.34765299999999999 0.167514 0.080435199999999998 0.04517153659565469 0.079574007011205553 -0.99580495564631943
0.337476 0.167601 0.0800902 -0.055010467299186121 -0.067691692257293629 0.99618857817527162
0.33256400000000003 0.167793 0.079797599999999996 -0.069691779663657041 -0.09129435298358056 0.99338230151368279
0.32753599999999999 0.16791900000000001 0.079514100000000004 0.082059284028990417 0.10311711178415561 -0.99127853561042256
0.59415499999999999 0.297375 0.071714600000000003 -0.30750693947295415 0.023723351773661944 -0.95125006426102288
0.598414 0.29725800000000002 0.070249599999999995 -0.33177128641914588 0.015825555651073239 -0.94322710165480272
0.31864799999999999 0.1694 0.078822699999999996 0.070964808688407696 0.14464325915596446 -0.98693582542562397
0.58979899999999996 0.30366300000000002 0.073276599999999997 0.30187591403701963 -0.045637112006692647 0.95225426569378124
0.59546699999999997 0.302929 0.071455500000000005 -0.32816707580224347 0.030203231540000382 -0.94413671423366752
0.50061199999999995 0.16262599999999999 0.078609100000000001 0.080352322396125539 -0.039562959295260706 0.99598106233871253
0.60173500000000002 0.30254399999999998 0.068848599999999996 -0.37318545569140571 0.011250975845080446 -0.92768854213196528
0.497367 0.16264000000000001 0.078776399999999996 0.062964554098276809 -0.040536983613538649 0.99719216698022695
0.48769800000000002 0.16250300000000001 0.078891600000000006 -0.018603730265108448 0.051250902129200068 -0.99851251682248132
0.60282999999999998 0.30757400000000001 0.068652699999999997 -0.37822306889185014 0.021377298463064541 -0.92546762302549079
0.48251500000000003 0.16275700000000001 0.078889799999999996 0.02769561342074613 -0.048375772536828329 0.99844516005072281
0.594665 0.31191000000000002 0.071983900000000003 -0.33888468160034391 0.03902755068328799 -0.94001809709403816
0.47751700000000002 0.16291 0.079030799999999998 -0.033988417494883794 0.04318466526594561 -0.99848879420956027
0.46774500000000002 0.162554 0.079537300000000005 -0.059923305091348064 0.035269371771945827 -0.99757970554825415
0.59835400000000005 0.31678899999999999 0.070870100000000005 -0.35986778486670662 0.042620552707034604 -0.93202932673928052
0.60157700000000003 0.31579800000000002 0.069604299999999994 -0.38088198644731219 0.035289987302126048 -0.92394996033127541
0.59852799999999995 0.32134699999999999 0.070993500000000001 -0.35143810943342019 0.054904764300589839 -0.93459976572592807
0.46239599999999997 0.162471 0.079973100000000005 -0.044441093612996349 0.034605346437148861 -0.99841246947163376
0.45748899999999998 0.16253699999999999 0.080276500000000001 -0.035584119383728435 0.028697419631813926 -0.99895456781285097
0.44767899999999999 0.16253300000000001 0.080243800000000004 -0.0049210086137536999 -0.016927615698661809 0.99984460767710381
0.44263799999999998 0.162436 0.080064399999999994 0.007922073549991384 0.0081377697264614687 -0.99993550664757735
0.43728899999999998 0.16272600000000001 0.0798899 0.0039625997669293766 0.013166006633944072 -0.99990547256848328
0.42740299999999998 0.162464 0.079803700000000005 0.004102224798379398 0.023551511862903642 -0.99971420818185586
0.42246299999999998 0.16263 0.079722699999999994 0.004083346535688529 0.038864789655036314 -0.99923613545855094
0.41247299999999998 0.16258800000000001 0.079651399999999997 0.00016030303007089595 0.07300425511519297 -0.99733161638344447
0.407364 0.162767 0.079650399999999996 -0.011242452498741989 0.095308095435568591 -0.9953843349210687
0.40231 0.16275200000000001 0.079811800000000002 0.026727011587799759 -0.095087155505448107 0.99511009426568886
0.39251799999999998 0.162629 0.080503699999999997 0.04024946257526113 -0.092223261369760515 0.99492454529211793
0.38756400000000002 0.162575 0.080757700000000002 -0.033663013734376288 0.083898337722464425 -0.99590555296861683
0.45241799999999999 0.63250899999999999 0.12934200000000001 0.22883304392890211 0.1111170722613118 -0.9671031145944613
0.37746299999999999 0.162466 0.080805799999999997 -0.0080828942627429907 0.06748152165094376 -0.99768778235278122
0.37232799999999999 0.162658 0.080852300000000002 0.011777192778878223 0.068363140849760112 -0.99759098768152721
0.367423 0.16248499999999999 0.080842800000000006 0.022223134750107235 0.073567792127007481 -0.99704258296395532
0.357518 0.16251399999999999 0.080424499999999996 -0.039798946264878891 -0.086129883004439939 0.99548866750448073
0.35249200000000003 0.16268199999999999 0.080287600000000001 -0.043711098388163949 -0.092710113501564426 0.99473321786910673
0.347858 0.16303300000000001 0.080272300000000005 -0.042932216819038999 -0.087367867923503553 0.99525056162430992
0.33767799999999998 0.163243 0.079757900000000007 -0.065954201146214683 -0.10517648808361897 0.99226405241022486
0.33281699999999997 0.163352 0.079440200000000002 -0.07573131892020396 -0.11109891040382848 0.99091967355668564
0.47179500000000002 0.15213099999999999 0.078723500000000002 0.060867804977529749 -0.062151449762684427 0.9962089678423971
0.46686 0.15273400000000001 0.079133499999999996 -0.061660433961887418 0.059927295516929477 -0.99629649710096757
0.46237 0.15262700000000001 0.079502500000000004 -0.060665977960704554 0.061156138445376124 -0.99628287441294583
0.457843 0.152612 0.079804299999999995 0.045191368369555299 -0.064217294512258688 0.99691217231530127
0.447322 0.152777 0.080093300000000006 -0.019828826225065221 0.044014851038302896 -0.99883407557942849
0.44241399999999997 0.15249099999999999 0.080088500000000007 -0.020189504148117203 0.040578846905018624 -0.99897234251310107
0.437384 0.152642 0.080198199999999997 -0.019856394903318791 0.016231280956521307 -0.99967108045594388
0.41751700000000003 0.152476 0.079816100000000001 -0.042025776830474662 -0.0043741537179825896 0.99910695166285712
0.41253699999999999 0.15249599999999999 0.079550800000000005 0.043102909907238578 0.020209684131202849 -0.99886621117387153
0.40760000000000002 0.15265300000000001 0.079242199999999999 0.02587597099428415 0.041281297544665654 -0.99881243914867812
0.402586 0.15279000000000001 0.079161599999999999 0.0025714170018812255 -0.059291377181019587 0.99823740683595918
0.39245099999999999 0.15282100000000001 0.079613500000000004 0.050759194050398582 -0.084337374744769156 0.99514356323121245
0.38735900000000001 0.15276500000000001 0.079937900000000006 0.037468571714465833 -0.087660953960450164 0.9954454597236464
0.38246000000000002 0.152361 0.080150700000000005 0.033956916643179409 -0.081798749966736944 0.99607022459059957
0.37277700000000003 0.152724 0.080426600000000001 -0.012802558072080484 -0.07636667184763879 0.99699760578334684
0.36765799999999998 0.15307299999999999 0.080176399999999995 -0.038903839235231864 -0.085575988164184338 0.9955718163660936
0.35773199999999999 0.15293699999999999 0.079485100000000003 -0.064884674861569402 -0.11628758216847884 0.99109392955537667
0.353798 0.15309900000000001 0.079297999999999993 0.064126343858831508 0.1230905973349536 -0.99032142098968212
0.47212599999999999 0.14746400000000001 0.078391199999999994 0.062398311555338627 -0.056911717356539299 0.9964273717349259
0.46737600000000001 0.14771000000000001 0.078803700000000004 0.060510797794081597 -0.063260714065565202 0.99616089333311941
0.46247199999999999 0.147814 0.079123399999999997 0.053700032099474881 -0.070929428816215057 0.99603479993438027
0.45725100000000002 0.147478 0.079381800000000002 0.046350861354210696 -0.08191563528760093 0.99556086019246037
0.447459 0.14748900000000001 0.079742300000000002 0.035871251642852951 -0.084221466090017225 0.99580118394949857
0.44237300000000002 0.147616 0.079891100000000007 -0.036325670252656282 0.07225328179928385 -0.99672459032068061
0.43261500000000003 0.14776300000000001 0.080392199999999997 0.017543612081057799 -0.038196614592360338 0.99911622962938207
0.42731799999999998 0.147615 0.080444500000000002 -0.0098444239764472821 -0.030109661394441642 0.99949812186280973
0.42238900000000001 0.147539 0.080327399999999993 -0.036615554128530618 -0.024158418317288401 0.99903737268445936
0.41261900000000001 0.14757999999999999 0.0795709 0.063322818458744629 0.047402038704004272 -0.99686672498842333
0.407586 0.14758499999999999 0.079218200000000003 0.042298642839958558 0.059526499610231404 -0.99733014626955441
0.40282299999999999 0.147817 0.0789184 -0.016637950360799601 -0.073976810958752137 0.99712116116757088
0.39220899999999997 0.14840300000000001 0.079210600000000006 0.0445788192079596 -0.097365863404356351 0.99424977622403732
0.387015 0.14794099999999999 0.079542000000000002 0.040298281815490986 -0.10521721579738927 0.99363241995345797
0.38236100000000001 0.14766799999999999 0.079848000000000002 0.038150774784268489 -0.10506593859905919 0.99373319705525542
0.373645 0.148143 0.080094700000000005 -0.012355160384767199 -0.10309325071453174 0.99459495859821134
0.36774899999999999 0.14860499999999999 0.079843300000000006 -0.047781337350112502 -0.10846771675345489 0.99295100494602784
0.35782700000000001 0.14847299999999999 0.078932600000000006 0.07414602615543632 0.12944413797713331 -0.98881069065252047
0.48988100000000001 0.14038600000000001 0.076645000000000005 0.074295216836577985 -0.1008614177869781 0.99212257063187859
0.48244199999999998 0.14175199999999999 0.077303999999999998 -0.080007201937366934 0.075537444635670525 -0.99392803667874585
0.47108100000000003 0.143147 0.078360100000000002 0.060572283407132485 -0.065946952654310234 0.99598293053568732
0.46243400000000001 0.14283499999999999 0.078720999999999999 -0.038473059755752062 0.082326202343500299 -0.99586255079741159
0.45786300000000002 0.14239299999999999 0.0787992 0.029012098711725727 -0.096364724520299816 0.9949231819575155
0.44740099999999999 0.14254900000000001 0.079145400000000005 0.033881521861009622 -0.10997579360941 0.99335661637518802
0.44243500000000002 0.14263700000000001 0.079447799999999999 -0.046389595822620637 0.10666238749732511 -0.99321253540860233
0.43741000000000002 0.14247199999999999 0.079743800000000004 0.048611033398086798 -0.096342528618900872 0.99416049238102711
0.39757199999999998 0.052509100000000003 0.072179499999999994 -0.054702769680379536 -0.13956454819384118 0.98870083638922046
0.42753600000000003 0.14236699999999999 0.080289399999999997 0.0046083184165873533 -0.071069776005524804 0.99746070115062468
0.422321 0.142567 0.080128199999999997 -0.037368490783182509 -0.05683862684415239 0.99768380080818098
0.41290399999999999 0.14279 0.079336000000000004 -0.071130151033998099 -0.067031949135181484 0.99521214794083934
0.40741500000000003 0.14325399999999999 0.078869099999999998 -0.051865042236908951 -0.07260279095674653 0.99601147189129036
0.40250799999999998 0.143286 0.078636899999999996 -0.026123995678854806 -0.085389356532744806 0.99600511777836498
0.39243899999999998 0.142785 0.078594200000000003 -0.032320581277473587 0.10850796049334061 -0.99357002900422775
0.387069 0.14268400000000001 0.078939400000000007 -0.036182608939466565 0.12113481907672653 -0.99197639811518801
0.38233499999999998 0.143209 0.079322799999999999 -0.034506814216577267 0.12273375657456388 -0.99183955596140549
0.374473 0.14347199999999999 0.079549599999999998 -0.013625987550452424 -0.12742037187192301 0.99175520230311687
0.48593199999999998 0.1341 0.076357400000000006 -0.098118531384537119 0.079105004275828353 -0.99202578197215374
0.48210799999999998 0.13264899999999999 0.076776999999999998 -0.095064120444782532 0.073294783420563017 -0.9927692016412436
0.47725899999999999 0.13270599999999999 0.077443100000000001 0.080021991249985727 -0.072386546044655359 0.99416128916193103
0.46249299999999999 0.13456199999999999 0.078020699999999998 -0.0073205034632464671 0.092463056102199612 -0.99568920526702831
0.44081100000000001 0.135162 0.078276899999999996 -0.049843550947842145 0.13434551858530352 -0.98968020191623307
0.43723699999999999 0.13404199999999999 0.078508599999999998 0.059684437340465857 -0.13552157916422181 0.988975060110308
0.42543799999999998 0.134688 0.079439300000000004 -0.0012641793836056184 -0.12504384624531903 0.99215041116086
0.421514 0.13422999999999999 0.079267099999999993 0.035130896242210406 0.12161420880794238 -0.99195554554891108
0.41265299999999999 0.13267399999999999 0.078163099999999999 0.078587428478313875 0.12499965478667788 -0.98903948474688208
0.408416 0.13324900000000001 0.0778861 0.066525994750930628 0.12063708086844768 -0.99046503559789434
0.41636699999999999 0.12965699999999999 0.078229099999999996 -0.061376033466232327 -0.13971608870270513 0.98828760847921693
0.46676800000000002 0.121921 0.076927099999999998 -0.003358508911443488 0.090202073187975018 -0.99591782111300897
0.46420299999999998 0.12127 0.076779899999999998 0.015777169825185518 0.088288060250436728 -0.99597002933297285
0.49333300000000002 0.63255899999999998 0.13086300000000001 -0.22081135068928726 -0.04913601643905377 -0.97407802526043741
0.49780400000000002 0.63236899999999996 0.12961500000000001 0.26371964132424491 0.056000554116132382 0.96297242365422775
0.45180100000000001 0.63610999999999995 0.12967100000000001 0.22201422157342704 0.11862086590181808 -0.9678009999952718
0.49320399999999998 0.63736400000000004 0.130581 -0.24259221949273774 -0.06360116427036841 -0.96804127336856949
0.49744500000000003 0.637212 0.129302 -0.27084124350094418 -0.070761216324938286 -0.96001972431980653
0.59750199999999998 0.41240599999999999 0.077476900000000001 -0.28826481995213904 0.086126955188678217 -0.95366951359886121
0.44206600000000001 0.64764600000000005 0.12871099999999999 0.28621833447688383 0.14582869909299578 -0.94700214124896409
0.59735199999999999 0.402337 0.076164999999999997 -0.29386939152204067 0.10024029996071396 -0.95057491182455034
0.59215499999999999 0.40243400000000001 0.077708100000000002 -0.32519308161143207 0.088717392118485838 -0.94147686323549939
0.592364 0.39253399999999999 0.076960600000000004 -0.32296200052718932 0.030466365438268299 -0.94592142738837359
0.58080699999999996 0.38835799999999998 0.081655099999999994 -0.36162600606059792 0.021586209371329053 -0.93207331648622871
0.44230999999999998 0.652555 0.12952900000000001 0.27951415044292066 0.14248830551259387 -0.94950983275283796
0.49323299999999998 0.65258799999999995 0.12915599999999999 -0.30149997970802572 -0.067476059622851761 -0.95107557197829085
0.59215899999999999 0.36601499999999998 0.076353000000000004 -0.41547648969693829 0.046696696868739881 -0.90840448315200373
0.59527099999999999 0.36317899999999997 0.074896799999999999 -0.42583745100472542 0.035688814825575704 -0.90409555568985267
0.59504699999999999 0.35789300000000002 0.074584999999999999 -0.39647308974178924 0.048578289931380608 -0.91676018612172605
0.59240300000000001 0.35778199999999999 0.075709399999999996 -0.3912724933182693 0.060823698831115096 -0.91826266048065275
0.59490799999999999 0.35254099999999999 0.074331300000000003 -0.38576197291570408 0.053323371182932712 -0.92105608859497312
0.39757999999999999 0.057235399999999999 0.072939699999999996 -0.045463329241916151 -0.11550323959240694 0.99226613735323055
0.592275 0.35263099999999997 0.075389100000000001 -0.37317540706468372 0.06623431041137913 -0.9253935009964338
0.59479000000000004 0.34717199999999998 0.074080900000000005 -0.36802338899708725 0.054114990029813195 -0.92824046076712896
0.59186000000000005 0.34764800000000001 0.075254000000000001 -0.3549212400268581 0.067976241679102073 -0.93242165566066793
0.59179899999999996 0.34253 0.074875499999999998 -0.33748419374308475 0.067166640289653107 -0.93893187261152278
0.59154899999999999 0.33732800000000002 0.074561799999999998 -0.3184487070333078 0.063850640328804373 -0.94578724706903083
0.59060800000000002 0.33244299999999999 0.074514399999999995 -0.31652544822896594 0.063214316909142351 -0.94647535137538696
0.587256 0.332561 0.075557700000000005 -0.29496846356447426 0.063981671233709819 -0.95336244484904853
0.58694199999999996 0.32784999999999997 0.075430300000000006 -0.29680984575420966 0.056206437035018132 -0.95328104559945537
0.58916299999999999 0.32102900000000001 0.074323700000000006 -0.30989921551806293 0.048552967320087626 -0.94952887559341959
0.586727 0.31742300000000001 0.074961299999999995 -0.29874034785615394 0.050119729658199302 -0.95301742757505403
0.58221599999999996 0.31750699999999998 0.076334100000000002 0.27288924155003175 -0.050274729185100758 0.96073092666553284
0.591499 0.31287599999999999 0.073152800000000004 -0.32211957748427811 0.043353370814326518 -0.94570580152623884
0.58661600000000003 0.31245400000000001 0.074796500000000002 0.2923434547157519 -0.050645410786367598 0.95497138535724702
0.46748699999999999 0.057490699999999999 0.073649900000000004 -0.025792659114360843 -0.1127536419903334 0.99328815303200213
0.47247699999999998 0.057494099999999999 0.073838600000000004 -0.0019378514316091486 -0.10991870196566014 0.99393869211838859
0.581785 0.31234899999999999 0.076200100000000007 0.26722154598862197 -0.053756428408204951 0.96213454971965573
0.58222600000000002 0.30754999999999999 0.075752600000000003 0.2663616700873363 -0.057836049817403194 0.96213639991936895
0.48758600000000002 0.057077099999999999 0.072549000000000002 0.11682723309724583 -0.10658667821637426 0.98741616233158802
0.58697100000000002 0.302786 0.074071200000000004 -0.28104870270464449 0.048436771378203458 -0.95847039906639375
0.58648500000000003 0.29762100000000002 0.073920899999999998 -0.26811322162566392 0.047826790467348203 -0.96219951075808574
0.58149700000000004 0.297653 0.075348999999999999 0.24327162816352785 -0.063431804242734924 0.96788187354716859
0.57730899999999996 0.29747400000000002 0.076354400000000003 -0.22185715263042946 0.069894168730970901 -0.97257092749275886
0.58693099999999998 0.29277999999999998 0.073527499999999996 0.25770845254036595 -0.046168980070391594 0.96511904901338963
