0.51163536342682647 0.16943922951820478 0.023287210245936572 -0.028700598826086773 -0.99271542934399004 0.11701432377876417
0.32785331795747857 0.36232549578591311 0.017552210142898619 -0.99480966123308723 -0.026406836652631101 0.098267069231311704
0.57893841261523804 0.30210957675732503 0.15024643314674241 -0.13651461740510956 0.014172917062545224 -0.9905366664877554
0.32475835697502903 0.35237813248132238 0.017725147553944099 0.98006422188994269 -0.0058012372299925665 -0.19859624019065081
0.55244548236490243 0.39130715627782475 0.12254410859602144 -0.036048675455999976 -0.99733404747517074 -0.063445179049804581
0.53680024665786663 0.16752677086863782 0.022906448249335201 -0.026032967440148064 -0.9933027147722403 0.11256998459783843
0.54170241411680831 0.16714004561195739 0.022451565945274969 -0.024005656666512266 -0.99329069541338533 0.1131252529420496
0.54742881590817272 0.39187023561289436 0.12273187761364511 -0.033862378177442358 -0.99785387445347717 -0.056044487528675038
0.42492055395836409 0.27249740812520146 0.27182085398626116 0.75441526176449658 0.11631031961190397 -0.64601046614476976
0.54255144567847546 0.39223745947981958 0.12256403915036398 -0.031594789884934214 -0.99831664813903476 -0.048637838156825382
0.46179690446490135 0.27171437325890996 0.26991369868816184 0.80067083172574294 -0.2495065824104338 0.54467667891830318
0.46009785377235946 0.26923037567478542 0.27127699232243208 0.80020657331763656 -0.25067907208333701 0.54482056022022796
0.55499610880254591 0.30883238653717904 0.16968377534553056 0.51283780965634373 0.84401029605776123 -0.15698407924173066
0.33125647310094841 0.29250546257505261 0.07611182026841419 -0.99512707354425911 0.044878724583515092 0.087795259433500042
0.58646956323526989 0.30752622749069197 0.091327050376396143 0.002501567343247621 0.0354076424032682 -0.9993698219479461
0.41272989522311287 0.40133922775059094 0.017554189316995296 -0.048140548909698516 -0.97919724889522619 -0.1971173135640133
0.43351426097730156 0.26466736899807619 0.28072413672431296 0.75770677355176308 0.11986758714578097 -0.64149217210003873
0.58737465847021775 0.3281010437923233 0.09225308688492688 0.00047939876850017839 0.030330292788790614 -0.99953981587336838
0.3250661896651183 0.34752492046415029 0.017681480979556994 0.98052474873769269 -0.0082545406064597621 -0.19622201627814601
0.32645566479934113 0.29265569458956769 0.022512548212059506 0.98341486417207158 -0.032306766222406032 -0.17846982316816662
0.33057939950635173 0.30782074300728535 0.057349680109493012 -0.99442354141620504 0.036469407166018999 0.098953537674062522
0.32623868513520404 0.28752528328699561 0.022371859322397679 0.98356283242847131 -0.034550216701221194 -0.1772298992585094
0.44727947887102537 0.40054944990086783 0.012435271037057655 -0.040806016861237575 -0.98056150497171957 -0.19192186940397549
0.44226237277686131 0.40086498066401993 0.011935766843749609 -0.042125468048230745 -0.98023704365564568 -0.19328937680834204
0.39698933638143186 0.16758559116230859 0.0016982138601044458 0.015155874341751295 -0.98577300082330255 0.16739740237159653
0.57746639740805006 0.18052394919442799 0.12181266115071306 -0.065795824958448781 0.99548700333446727 -0.068385200227824225
0.32938076117631632 0.39278498331241646 0.052378830823220431 -0.99353907673692921 -0.057549534509970968 0.09781694165335518
0.32602872129219035 0.28245134710575093 0.022476740792119667 0.98370071643511847 -0.036741801953266061 -0.17601971615208811
0.32575543470679791 0.27735331034264826 0.022571412709404094 0.98383571853807372 -0.038900135576098935 -0.17479719214230341
0.32531017754580294 0.34245459510043702 0.017866399473703123 0.9808113322336276 -0.01043706786077472 -0.19467973232097424
0.47648098610870709 0.1708580008595865 0.024409406358391748 0.015698990039291486 0.99119121996059312 -0.13150478008337718
0.48960184633262072 0.17050760500069675 0.024713809813675193 0.019372686684661463 0.99136382780957044 -0.1297014260575971
0.32540608160289086 0.27243767816300546 0.022400937803946169 0.98395102061965511 -0.040764760521002821 -0.17371995660028308
0.50612435998169447 0.16997539858507626 0.025013449652794253 -0.027689919229937108 -0.99243963542664437 0.11956938741696774
0.32518591553775267 0.26756972700766329 0.023379071361662253 0.98409381806559926 -0.042600674292654246 -0.17246605403638837
0.32549250722375045 0.33758434918883284 0.017763501266092392 0.98114684214563741 -0.012692695947500497 -0.19284649236433646
0.39221963128709725 0.17007740974078295 0.032332665924152085 -0.040046533676397406 0.9911211475027587 -0.12678779954443531
0.42180889944003785 0.26738822681995716 0.27031710350979093 -0.96307036666448786 -0.26497872208777562 -0.047767621810785067
0.45904429627978399 0.26526510508069673 0.2709945451072881 0.79974017871298597 -0.25184978329579066 0.54496544221260901
0.45662031688275934 0.26304792272511796 0.27137409759076164 -0.63365762404652493 0.70808541484514187 -0.3115975942963875
0.32474359287977295 0.26713191894736776 0.020895993235000545 0.98403023886192964 -0.042647377151546526 -0.17281692691234693
0.32471221937939948 0.34196172807721614 0.013967889961882281 0.98111187031928826 -0.01138113958879839 -0.19310610446137688
0.44556926018334297 0.25630766053032383 0.28007696696400558 -0.63288397607877944 0.71054626282079514 -0.30754167394698967
0.32563218775272834 0.33246355805757183 0.017533627273036784 0.98150518747397042 -0.015136619162532122 -0.1908361855676606
0.41176044059934835 0.17914203126409461 0.1228884250460537 0.054761228141254878 0.99492333445393466 -0.084432022666317455
0.42331453316218964 0.26174241522837188 0.27069605863651763 -0.96166449103360296 -0.26946538849493462 -0.050890186562394711
0.40760520193110261 0.17858101201183971 0.12245458915857604 -0.019708474739833982 -0.99116120698868748 0.13119084489459437
0.45672252114124007 0.25975705546173916 0.27181865792153226 0.79869948751875597 -0.25439548067366335 0.54530914906142214
0.45192536517564091 0.25858633351792143 0.27145300661228544 -0.62831965207616558 0.71846200208281963 -0.29837353498263341
0.45068419652359104 0.25154039460362798 0.19344251199598975 -0.064742073233855363 -0.99742952113428074 0.030705281682822171
0.44491733961942298 0.25381856581777229 0.27540618175853698 -0.62808975836651826 0.72052899766689449 -0.29383876353576849
0.33169034091906341 0.2922275450542946 0.057271919384215747 0.98423722989791318 -0.031029993112873654 -0.17410977804332911
0.42948354251864185 0.25675605141127705 0.27515625938801924 0.76772806396280191 0.12408863519495396 -0.62864587043850173
0.42676352506658111 0.25885731060184447 0.27225574374559336 0.76763837466117479 0.12330814214748446 -0.62890891854678421
0.45052355463748733 0.25642523075593626 0.26931567729636563 -0.62500833113596599 0.72372875895820687 -0.292542765194165
0.44803570390908948 0.25239922942927423 0.27271383965654389 0.091868553819683285 -0.67470797914754288 0.73234507692324857
0.44277518810699035 0.25204586682745078 0.27304907511932203 0.091839565281858201 -0.67476776719982134 0.73229362594317793
0.43781173789519606 0.2515713848464165 0.27323376913800201 0.091871626443597795 -0.67498519692603953 0.73208919414598894
0.43303644983207068 0.25144626189682506 0.27371787022241423 0.091836371237283235 -0.67499995758012243 0.73208000804884776
0.32362030429226107 0.35732780221636767 0.011940829780305674 0.98018756075154212 -0.0052673787412681836 -0.19800151633040103
0.44703700502870103 0.25290245979384568 0.26792361508773072 -0.62062832615799601 0.73052244244672926 -0.28488145227794193
0.44319455819638509 0.25029046059017984 0.2697985175493039 -0.62165986218219349 0.72992893202779585 -0.28415272291564886
0.43777866987003483 0.24952910991032026 0.27134501560180563 0.092051850106743702 -0.67577794955266968 0.73133482057831423
0.43447411532673902 0.24921351016814222 0.27146809003035516 0.09205854051395275 -0.67590538900426977 0.73121619937842441
0.42696906302039123 0.25100306149131124 0.27095288891845176 0.77284271630785895 0.12942935892099394 -0.62125854271727365
0.43774105897285798 0.24739139515547179 0.26935963171567634 0.092243781624604573 -0.67662534592174228 0.73052667713634856
0.44242063920326707 0.30656396161090288 0.26837207374172745 -0.62601762067171052 0.76106089460199888 0.1699654474183957
0.44312903737343384 0.3008454288479559 0.26677335426007664 0.15493293546445111 -0.92280759929624023 -0.35273491489995423
0.44089761110145981 0.3000176608586092 0.2680264034975946 0.15756220454885375 -0.92295420551669316 -0.35118326585524368
0.46925327690392876 0.29301629886579272 0.2710644252923286 -0.67730802850642602 0.61739341566152794 -0.40009899377345376
0.3195247243062328 0.17257365226070071 0.032370214230984531 0.9856739326292796 -0.042936964931383062 -0.16310522854161136
0.43754134817192003 0.30308139975681925 0.26717536545554088 -0.63008274023027488 0.7591727537930083 0.16325584327137652
0.43473941826236545 0.30100513722854916 0.26661682269512049 -0.63228284058544426 0.75806403425529423 0.15986659898111866
0.4323767661650067 0.29894772502290345 0.2668315528084873 -0.63242989304473707 0.75760589112266796 0.16144889011588351
0.46601979852074382 0.29896478954189276 0.26408095188794528 -0.48270286421751507 -0.71952728918467468 -0.49927790357150853
0.47164718140491091 0.29475938301652344 0.26895723037519859 -0.66936014058951054 0.65758107740347305 -0.34575154205133818
0.46236535541096163 0.30234482908165045 0.26790953505379439 0.10952534363132109 -0.91885126530912742 -0.37909965885273011
0.43486330743820029 0.30054926006106747 0.2684093691449092 -0.63071503175079358 0.75824454195479007 0.1651174228219604
0.32135087092854542 0.1824288704617528 0.067438873647883937 0.98697128301851678 -0.034388946639976957 -0.15717851903417265
0.34284512357603225 0.40067704215395389 0.072026330680798306 -0.017380490698927331 0.98352900411007327 0.17991280281656402
0.42661337074673916 0.29440133474463415 0.26597282541510553 -0.63425928284724009 0.75665510210902642 0.15870796632331843
0.32406656158407687 0.2822366039199759 0.086551396127525396 -0.049817236372901218 0.02153359767461184 -0.99852618750404065
0.47010819481981259 0.29356181706301337 0.26738137495536435 0.80192583941278683 -0.24769706084461188 0.54365532659124916
0.32904565082475079 0.28236877187702442 0.057361467129695178 -0.99544381930019565 0.047302301596886767 0.082789461169140197
0.34759246080309875 0.39922712977075531 0.076444642058269896 0.016426409436507323 -0.95975596036471567 -0.28035454270874
0.31884332444988955 0.2176293011887368 0.0076027441243415716 0.98461621435208424 -0.047134634199950357 -0.1682534893956355
0.425934132448262 0.29322237864911854 0.26829682126526178 -0.63336588885634282 0.75660079410888814 0.1624896587079141
0.42471900691099562 0.29285156820427366 0.26593428172261402 -0.63506039827366745 0.75623044154903418 0.15752399759733046
0.4245615184622924 0.29293256182767258 0.26508162916253353 -0.63548402525124636 0.75614313627778507 0.15622935418949976
0.46980201370278385 0.28980747830584358 0.26618101061757216 0.80186628417925221 -0.2473760393544395 0.54388928786092994
0.46802872080666047 0.28799259339651201 0.26800657099589836 0.80156225540237314 -0.24814114094122741 0.54398890143701173
0.4667851892779904 0.2868168108491817 0.2693325416155789 0.80160825884192899 -0.24771954806848442 0.5441132463570032
0.4247155761118222 0.28895260287935487 0.27236547260764049 0.72740759916993913 0.12107591414884912 -0.67543971432160088
0.42220973514713545 0.28771831372416679 0.27030840606696632 0.73899645317447571 0.11377959822054316 -0.66403196099609296
0.32380702681328855 0.25261046442606255 0.022487882680525446 0.98426764562987978 -0.046162633326944973 -0.17054680604026393
0.46950279393161592 0.28448480938071002 0.26487710841005518 -0.67383002612007203 0.57328078785805614 -0.4661568772118132
0.46704275100216869 0.28249934803478072 0.26700669653898296 0.80149625735706431 -0.24791407714041358 0.54418963587910751
0.32339769818664615 0.24742092551087105 0.022661661857626948 0.98431245696969283 -0.046796819110525731 -0.17011479881369315
0.42364959867667185 0.28383230146960559 0.2715700106593254 0.74333901687774084 0.11323174807517483 -0.65926146346883785
0.42235270344190123 0.28235005169420846 0.27026221769082831 0.74877590706785735 0.11140725363118034 -0.65339349922773571
0.41842638996627468 0.28045206912776949 0.26714983090423694 -0.9648891001301646 -0.25800557039758354 -0.049215344089207039
0.46777937963548061 0.2794944078118044 0.26458434317946672 0.80147155010880244 -0.24772487986755887 0.54431216986284336
0.46591108348263005 0.27777442519669887 0.26659750241577601 0.80139790852117554 -0.24762895470175167 0.54446422564866792
0.46436051189349231 0.27703795116072477 0.26852674273876598 0.80096857395417786 -0.24902057340523709 0.54446129114817488
0.42261410304409985 0.27710732008221489 0.2698584763408588 0.75267302704612449 0.11466051778334733 -0.64833346359637989
0.42132311064448974 0.27690350584397644 0.26834074707651551 0.75318937788239082 0.11479718973157804 -0.64770932236217593
0.46779150332826652 0.2753742442768774 0.26498462065951139 -0.65740580915829283 0.65196019007049266 -0.3778432381930068
0.46544528000204149 0.27420215682586224 0.2656665988911841 0.80120119874789641 -0.24813184765207505 0.54452477014888956
0.40202920336004166 0.40416023445709998 0.0068748418382158557 -0.049557623763835844 -0.97837133788103681 -0.2008321865133979
0.46174380541982807 0.26982892827851668 0.26912883001358223 0.80061491433953835 -0.24964222873174149 0.54469671980923717
0.42305552552025777 0.27231900096578959 0.26965634881022243 0.75594113206141345 0.11796335776865634 -0.6439236376168006
0.5878802796764051 0.16732094286386356 0.033464429189740928 -0.040047653824435515 0.99453099325235461 -0.096458741872590806
0.46310785947640809 0.26865738817924872 0.2672599441666102 -0.64491176507456482 0.68307955017925126 -0.34276981109094362
0.58249084407502294 0.16657176754413339 0.0078502277325447588 0.017871239669157435 -0.99230431189192658 0.12252661504088758
0.46014646801971221 0.26568064311357142 0.26957050175320868 0.79998968260084247 -0.25121656399285258 0.54489149902327216
0.31982370368106317 0.17768483717532998 0.032715289072665424 0.98562063947464151 -0.043171699694872258 -0.16336511067867174
0.42221070590179582 0.26613158349095295 0.26768616269642992 -0.96199693477958892 -0.26790902556574947 -0.052788744018832101
0.42193924435747421 0.26721188326518081 0.26681159890077077 -0.96172474881247716 -0.26863624734216335 -0.05403771030953939
0.460923125317938 0.26436020191945081 0.26782067202162241 0.79992405696836877 -0.25137052833786233 0.5449168382114925
0.45747531712356426 0.2620969164782922 0.267480034659062 -0.6291148873137884 0.71477350420116059 -0.30547225119829241
0.52249789280770687 0.39280166931188165 0.13770130047251231 0.027261400857764222 0.99905373576752865 -0.03388877501795199
0.40742079226104783 0.40395806045531313 0.0062330893384171344 -0.049125289476291703 -0.97846241073688833 -0.20049443061797861
0.32566125187947559 0.24219633403542684 0.022423737493952704 -0.99766976091085857 0.062464759846478889 0.02744452479807347
0.42371903632235486 0.26206057998141624 0.26905983600629574 0.76557933696348146 0.12187010730717314 -0.63169292837540481
0.42346457235170748 0.26396448902241487 0.26899312147316762 0.76339927397789464 0.12112291765087327 -0.63446890176726789
0.45550586270407017 0.25988661244643746 0.26667423315066852 -0.62519097852469185 0.72194409150096828 -0.29653493743264042
0.45619068216190051 0.25561535147836439 0.27063118001389591 0.79808243593928729 -0.25587122223001185 0.54552208303581395
0.32592914170775672 0.31743026693922399 0.017695947001005317 0.98240550372305568 -0.021684451797172075 -0.18549719891390654
0.64019954683636493 0.39116246120560372 0.092196581857955262 -0.015341904482230818 0.074661602912967737 0.99709090408915302
0.58746969387274661 0.26750157483372083 0.089219476021926147 0.0097444035360250286 0.037103476790752758 -0.99926391839681927
0.32597682976702719 0.23242056318902998 0.057521997284886654 -0.9977009645649676 0.062974194624561455 0.025040689238139215
0.4242788978255394 0.25758186104369751 0.26896585081836916 0.76853706498301944 0.12422295692082666 -0.62763001579045952
0.58744141069431932 0.3627995611180781 0.093303511970548134 0.00023516096290399557 0.020432905219537258 -0.99979119874282296
0.45050409858673207 0.25522545596055396 0.26610299294335343 -0.6210905080941479 0.72902010615606061 -0.2877086470295242
0.42742094519630403 0.4015553626156344 0.01203663981493228 -0.045933148673789337 -0.97936501934069686 -0.1968103268243514
0.44376889895913202 0.25043773213256049 0.26881582959555539 -0.62082948871580357 0.73088681252259335 -0.28350522609193213
0.42254070296813123 0.40176320795669024 0.012353304226803717 -0.046960772960240191 -0.97916884418027139 -0.1975425533642011
0.42755129901195965 0.25049315640587272 0.27156821571325013 0.77280513097377923 0.12949887394106471 -0.62129081048136903
0.42495874987899318 0.25330972690446618 0.26895212452884298 0.77131963187621955 0.12698944843451135 -0.62365030703803215
0.44964883820899743 0.25352703445722702 0.26328876294638681 -0.61595631905779591 0.73570803915727145 -0.2816584707267531
0.3259351467157226 0.31260824600976472 0.017567474588330616 0.98268211593241572 -0.0237908630138354 -0.1837657581369479
0.44281992726958963 0.24896004418313472 0.26688720210746297 -0.61909460765955759 0.73311989940649913 -0.28152633955113865
0.41727168925602903 0.40204842324302786 0.012514440624290678 -0.047808750023894217 -0.97903198735588937 -0.1980168961354829
0.41217232713609397 0.40243039532133174 0.0122632914968113 -0.048420081501306049 -0.97888492954920536 -0.1985945377115248
0.42545803012503303 0.24977073778962725 0.26880035895832888 0.77394976571636587 0.13066489713593282 -0.61961959685280965
0.44217736005045138 0.24518270236397757 0.26673178824371918 0.092463383780635983 -0.67750304374786463 0.72968496515428749
0.43720223943151232 0.24472190580064521 0.26693132481961507 0.092456266314575361 -0.67765051758552242 0.72954891188681914
0.43502863772234374 0.24489783728893671 0.26737219000189044 0.092421404256268214 -0.6775631612518116 0.72963446091159301
0.32009811878653022 0.1826157734605143 0.032697938374339826 0.98555371117137613 -0.043472699616360515 -0.16368874971846289
0.43711054074792849 0.24350194998587024 0.26579775226844693 0.092551094178929219 -0.67811707558691336 0.7291032346408397
0.44186565653708282 0.30152068821036226 0.26448471712097388 0.15567243513426846 -0.92284138734567978 -0.35232068735921251
0.46594612547044895 0.29609097468497519 0.25938635127193238 0.098592713035346308 0.7342774111800765 0.67165181483192227
0.32586278815189035 0.30767160466772542 0.01734133068663915 0.98287963096410047 -0.025826741259625811 -0.1824297411931016
0.43706939141298928 0.30388235093403054 0.26300781595881378 -0.63185061797528774 0.75981666902421308 0.15311246205713075
0.43355128487304123 0.30117390197433358 0.26241167105571966 -0.6345699649182196 0.75808056216189634 0.15044873178592311
0.4310081987840283 0.30067247748177495 0.26166836854268566 0.17344976676008439 -0.92362449952823067 -0.34180837070220776
0.42656004682544013 0.29977438340949325 0.26138610078329044 0.18606522095936368 -0.92354465017654974 -0.33532821634872523
0.56233626735082065 0.39157123295327828 0.13754744803176452 0.094596804740369814 0.99475302340506311 -0.038959812106815143
0.4686514470099305 0.29912684701146702 0.26234311313604292 -0.43634778852547895 -0.74977272904013237 -0.49743488240837719
0.62256913720108242 0.17531619784999114 0.033502111729792138 0.056974324402833995 -0.98830196878147625 0.14146782270713923
0.46335985652452172 0.30418561029951013 0.26407653461522473 0.11503873368182733 -0.91901158591889065 -0.37707266501263009
0.58742963695490769 0.36786157708974487 0.093405332007564665 0.00024782547622099647 0.01932440875078047 -0.99981323546398715
0.4310211859514273 0.29897080080227234 0.26296084393213609 -0.63518102022427358 0.75765796980760114 0.14999824110260487
0.42874772407330874 0.29720867890572178 0.26222863654238709 -0.63579960978998196 0.75714297047319612 0.14997792655564876
0.42442175046159447 0.29859263006252157 0.26327393342265892 0.19026432180563654 -0.92336112125542358 -0.33347222913125502
0.47301681381574989 0.29551684176060772 0.26392336367581032 0.80246803870793693 -0.24601678556322112 0.54361823743632554
0.4718732894929405 0.29325064624100855 0.26461895387698636 0.8022926411685174 -0.24640691038100984 0.54370042527418472
0.4714055657303915 0.29332600723459351 0.26534487399606904 0.80227135867789134 -0.2464785624334685 0.54369935194541208
0.47054650306105278 0.29331200641257721 0.2666227579407352 0.80204600052590591 -0.24719337306163017 0.54370731957075258
0.42750045369551593 0.29578605002862135 0.26380205837709658 -0.63569591098916634 0.75679333496906853 0.15216621470631722
0.42469297170771103 0.29347830371907779 0.26339295403750901 -0.63615778212150198 0.75622840266372227 0.15304208326773
0.42399148885556959 0.29330138076351908 0.26185633658314039 -0.63729687671472424 0.75609173765649862 0.14892271545078062
0.32584918488284137 0.30262411039407583 0.0176484195454529 0.98306955220309844 -0.02800787741993142 -0.1810795801122522
0.47262846495956201 0.28830107223558493 0.26130808159586044 0.80237031591649444 -0.24568279942632187 0.54391344734443803
0.63799064924743198 0.17764714693946698 0.033079822119155791 0.065011443924132911 -0.98800167330680377 0.14009356052957933
0.47000366852363323 0.28684187695907909 0.26455663480375591 0.80204851426908308 -0.24653162719789901 0.54400398670406147
0.46905638561339114 0.28746479148235776 0.26624577293825763 0.8019353021180825 -0.24685055412218188 0.54402626328730819
0.45003277104120137 0.30837501345575008 0.2699445622919206 0.99648862221257395 -0.07078394019350652 0.044722026022619883
0.41763867051525677 0.288834340389791 0.26360168094867514 0.99006215041735357 0.020863944659720562 0.13907420366193612
0.41788505545905036 0.28769688433299806 0.26078187849232226 0.98917328284051553 0.020841313490196099 0.14526477951148681
0.47350727682555882 0.28344141298773823 0.25994680416386401 -0.66965758466408243 0.59548612779377974 -0.44379611411890185
0.47154890777996528 0.282198270189428 0.26175865581264446 -0.66968846924442726 0.59938368434897638 -0.43847069810570294
0.46902836172862206 0.28196239764535636 0.2638413339607546 0.8017498850559488 -0.2470318497271928 0.54421722412391049
0.49925557033195589 0.1703223681989961 0.02619164144041922 0.021742894912016201 0.99162212571991704 -0.12732951858684646
0.50260823845663971 0.17023457736722891 0.026540338859624257 0.022314862297817484 0.9917225673337412 -0.12644523067954158
0.58770003152730443 0.26242458693920789 0.088966579634147239 0.010579712883084262 0.036648010413088024 -0.99927223168067358
0.5129171830020991 0.1696316482630465 0.026490930330207087 -0.029435680164710664 -0.99278672284142722 0.11622419577273856
0.51750514585993246 0.16943951438913621 0.027761302548727877 0.022876628204114489 0.99247614477567192 -0.12028201001492339
0.52066541199628336 0.16918433837152666 0.027376817321755995 0.022753697860939753 0.99261270083750897 -0.11917338364634508
0.53480011908997693 0.16799058692740507 0.026936981288806665 -0.027752146950546692 -0.99315189285192318 0.11348628139241067
0.53796086818795597 0.16746364861853169 0.027464223350123589 0.011417099430504611 0.99380286259087913 -0.11056907409745323
0.46770121864975506 0.28143096625557423 0.26556797652609221 0.80160037111412641 -0.2474215302877385 0.54426044443792576
0.41772143046691856 0.28330081945427571 0.26410777505330751 0.99081528626687765 0.025457693614628615 0.13280427077360435
0.47160484190956498 0.27819331665254549 0.26088860258886731 -0.66145378251702136 0.63215030029388253 -0.4035652257470646
0.46905327602545949 0.27639405738393136 0.26350742310052433 -0.65864440192206775 0.64730166388878696 -0.38365102338392054
0.5919809480651248 0.16795869062840357 0.0074009332872464768 0.030905159960554044 -0.991608129176202 0.12553162645120575
0.57605446719220332 0.16708301273431023 0.027654401396095485 0.0046904599175472336 -0.99148534826860268 0.13013379174699224
0.46796117123039899 0.27542035088406103 0.26250760024050473 0.80141555642376483 -0.24757030591080814 0.54446492040646333
0.46677334552438915 0.27331145228750503 0.26330489250831163 0.80123128000402322 -0.24804826809667258 0.54451858796312524
0.49749258570683086 0.39199979499095405 0.052456761949792444 -0.028482498935163584 -0.99125879096497072 -0.12882063727940946
0.58770890692411359 0.37295793633368579 0.093495072466876938 0.00033064285420021715 0.018133358705245049 -0.99983552246225471
0.46603686323175975 0.26733753800775029 0.26072335964941901 -0.63398127324483999 0.70082875691131319 -0.32696605123620243
0.4638040233664909 0.26637286066092286 0.26323017637538437 -0.63342654882228067 0.70299724784885342 -0.32336616515033356
0.46130053506551288 0.26451262191888181 0.26467411287610615 -0.63125679464722784 0.70925033100996537 -0.31381336360002621
0.45817577365299761 0.26185889144514118 0.26543004234474976 -0.62704331925589119 0.7177668123211165 -0.30270031203640618
0.40674438505795718 0.17051548050697563 0.026703257827224946 -0.040338563996278845 0.99140920990987302 -0.12442097395776786
0.41189236391362843 0.1708288429626143 0.026948781187654113 -0.038510474932398418 0.99145795908203216 -0.12461163145297707
0.41768811002832851 0.17113557284667391 0.02693721413285638 -0.035754868799844408 0.99152266100770226 -0.12491758108973734
0.42210041892402073 0.17207877640197308 0.027641868796577328 0.012452240804472813 -0.98739123366521409 0.15780840719059927
0.42822862989952348 0.1722372622712719 0.027068620247472381 0.010743842189110838 -0.98765701972700015 0.15626317940895557
0.43267960729917643 0.1723092943965224 0.026835871470433353 0.0090701015777240254 -0.98793623994604596 0.15459533970543318
0.4373964759946839 0.17195352797179028 0.027521725392917005 -0.0142634316045349 0.99162605701717021 -0.12835231810700828
0.44252428040614811 0.17249477961506629 0.027262977304962473 0.0043073214114293604 -0.98867971811682498 0.14997953849340337
0.44775429788133664 0.17179162950552665 0.026622580370863007 -0.00023036266286348539 0.99141933031548002 -0.13071977053930547
0.45308676042912782 0.17238050443554284 0.026916619167737795 -0.00099566310551467657 -0.98906256156086292 0.14749324721370977
0.45758667374401762 0.1716561230376924 0.026759398915533236 0.0064305059125768331 0.99128644626528761 -0.13156682729489785
0.46257196725326694 0.17158074789574981 0.02734393923461341 0.0096032368274933094 0.99122059645644622 -0.13186927998196582
0.46743315235510241 0.17134083155276011 0.026376743378507268 0.011892977930810822 0.9911883699758004 -0.13192487369959149
0.47265596954822264 0.17119269286269345 0.026648937512578248 0.014878322796442816 0.99116283476249267 -0.13181377202836003
0.58770702456455504 0.3781403457424426 0.093577026093853127 0.00037649754085085477 0.017009368195863232 -0.99985525934666131
0.48278073712603686 0.17145110353980791 0.026995615663821068 -0.018541919888211127 -0.99080347071960184 0.134032382717202
0.48705643008570437 0.17121054227891927 0.026493546544739913 -0.020819302177566543 -0.99109871505700708 0.13149104026202221
0.49293496851396468 0.17062141798823452 0.026721052926239133 0.020384467087099505 0.99146749275630242 -0.12875047304420398
0.50239333973010558 0.39230739590763808 0.05234429096382965 0.032848584402217572 0.99801946540757813 0.053648086362350605
0.51154156210211543 0.16994551920200601 0.028535210145817006 0.023027782573587976 0.99216505480514638 -0.12279342512221217
0.422307279933614 0.2663641182064268 0.26321841609135477 -0.96001457554130254 -0.27338458140622757 -0.060273421983445576
0.46399155574848028 0.26473492340747196 0.2595792761604494 -0.62609966450320753 0.71516065181218735 -0.31071603146367932
0.46192212919388254 0.26340897255279361 0.26094717580820043 -0.62608535223315798 0.71649952775825076 -0.30764518270450147
0.45893050528188301 0.26151367851167562 0.26291490394261047 -0.624458511516924 0.72051140433365402 -0.3015209505477412
0.45540322572105585 0.25907650186444786 0.26485951066290309 -0.62359681332800898 0.72412809825266478 -0.29455986102680592
0.40775686957032486 0.17068591987129828 0.027995385747527548 -0.039974803632318118 0.99140233240925502 -0.12459305906849989
0.52239219468384013 0.17342268729581686 0.068465956411006473 0.019916074989036102 0.99167374867597602 -0.12722627929782515
0.43334824449636944 0.17240505884347646 0.027568317823077407 0.0087172245248108588 -0.98804983464845075 0.15388805752154092
0.43673140825410151 0.17239314046168253 0.026790622739046793 0.0068766214344961425 -0.98830851735811742 0.1523121354162115
0.44911381327039146 0.17244271271208744 0.027506924026647606 0.0011436368646796566 -0.98911395909226474 0.14714709655153729
0.45277968778656907 0.17186889179571557 0.027892688911586389 0.0035017494163698355 0.99133689303927786 -0.13129700015711065
0.45758377320950178 0.17174561829753529 0.027521296754929495 0.0063144932944126366 0.99128555870700397 -0.13157913312291478
0.46219065431687745 0.17154558979842385 0.026915097968730175 0.0095250963628928167 0.99122701220937703 -0.13182671506849175
0.46668448240134819 0.17129181434729729 0.025640242155898382 0.011316411855692559 0.99119903405492604 -0.1318954650899489
0.47901502132848695 0.17165389545946899 0.027540121848572713 -0.016139167860778014 -0.99064449037327951 0.13551022453611028
0.48246366509014321 0.17152642906593168 0.027769837822542495 -0.01854928692750658 -0.99090961121840215 0.13324438580846876
0.48751511895935479 0.17088608057525645 0.027555038699405916 0.018728535873960065 0.99130467207737982 -0.13024703091270934
0.38020947113903802 0.40471864111127592 0.014216445877716061 0.05697985243747785 0.990718295511687 0.1234121361723432
0.49783242000551547 0.17061313959959898 0.028211445433532295 0.021442702396981254 0.99159415486849611 -0.12759797233713219
0.50241414713004162 0.17040322461051774 0.027929568429977177 0.022349154627064199 0.99172650787573691 -0.12640826264153621
0.50712999640337908 0.17016765605586628 0.027517187850760856 -0.028279045804900472 -0.99250143853323725 0.11891673590297956
0.35722953711808975 0.173263548116218 0.071480071041283774 -0.024332591584386033 -0.95621391139156453 0.29165541422718794
0.32331154449828958 0.22739310189915027 0.032507019770028185 0.98467265819358152 -0.047641945407799521 -0.16777962106211317
0.52162594565711595 0.16908923521806549 0.027418265280780563 0.02235968045984529 0.99269547444917339 -0.11855690489323799
0.65583951729358969 0.39193506734850092 0.093668940236707299 0.0034857220570295956 0.017235921841316313 -0.99984537441547483
0.54167093045356007 0.16715266105740548 0.027266610632661028 0.0077488244810461522 0.99399906402493998 -0.10911377748343862
0.42372035015963799 0.26149772118590314 0.26272232584217453 -0.95814232615110673 -0.27902316671713073 -0.064104253157574176
0.42299472100412361 0.26418859504697467 0.26167572406009743 -0.95851009666637965 -0.27762274983656005 -0.064683872501530543
0.45914759189520848 0.26080139546839337 0.26070910220192783 -0.62149429041450388 0.72440367547616669 -0.29830213197158473
0.32575465636559203 0.29754405898156666 0.017707194194208273 0.98325611294831794 -0.030398204830948614 -0.17967572315930821
0.45316893712410816 0.25652606069672396 0.26325375130642586 -0.61867336701739473 0.73102131890529498 -0.28783866357618315
0.33061448580998615 0.32265686866843318 0.047728708689356324 0.9792638960001262 -0.013501131163436746 -0.20213842150358682
0.42602906354964204 0.25313786675773414 0.26546721333198364 -0.9566444256645884 -0.2839998512887898 -0.064618320256835851
0.45090113311164404 0.25402809753450767 0.26169680929647604 -0.61486129830176306 0.73667622303413427 -0.28152038339493785
0.44774198273514648 0.25174568838910266 0.2629161350607504 -0.61666605865315971 0.73524548405883716 -0.28131308230557661
0.44453172554028691 0.24622263014804271 0.26740737312682505 0.092400402653562419 -0.67711276403323328 0.73005511461309169
0.41305654910425943 0.17104055705871649 0.028344098112395084 -0.037975956088198815 0.99146031831543924 -0.12475681931275462
0.41753766002639547 0.1718917298673529 0.028191352495032729 0.013601480812929232 -0.98715676970008948 0.15917446954515016
0.54321385973416136 0.32618395964741598 0.19865312172371685 0.40995066875826175 0.9114879999946448 0.033616588917026055
0.42720020769736 0.17224664690845201 0.027365506024149784 0.010989343193847079 -0.98763259113178414 0.15640044523749286
0.5822812057346195 0.38989245080804008 0.072469011198092292 0.077795905551831759 0.99359804327450929 0.081919017819042553
0.45192641619007229 0.33230573761005266 0.27009186788758216 0.99559220882907618 -0.077928655628057397 0.052185039530931801
0.44742428577185278 0.39602089183438505 0.037321207762144953 0.045270218745430024 0.99512491548054804 0.087618547605932032
0.32570504763561353 0.25764015267723545 0.032705027499278033 0.98454533333552607 -0.04580158185413321 -0.16903461688925403
0.32609039661639916 0.26235530610929947 0.032344960785371732 0.98449108334420732 -0.044721977069326728 -0.16963859107750134
0.45230383020506865 0.3369314337715007 0.27008248917721278 0.99553172878224816 -0.078381595090879483 0.052658356780644747
0.46273523347435286 0.17176711100334641 0.029238570218902575 0.0096979568707789912 0.99119729736376938 -0.13203737096478416
0.46765903293631961 0.17151156143708413 0.028136037430148378 0.012042301028255873 0.99116777931097877 -0.13206595413537878
0.47209878719300258 0.1713675476625218 0.028233463093654071 0.014397798407192929 0.99113988676997922 -0.1320394950559062
0.47654820436932882 0.17182200714728049 0.028109046861141244 -0.01439897002149319 -0.99050855274428462 0.13669483019757167
0.41773780325755738 0.40100741243464499 0.017581697509580784 -0.047608749475578235 -0.97935734863786483 -0.19644996982026586
0.44237644359936673 0.39598685730202909 0.037117149711020467 -0.040026996648587269 -0.98353830774179929 -0.17621077363115967
0.49144675982387298 0.17093585586492574 0.029017883388619086 0.019774635396914025 0.99140119911455926 -0.12935465275409758
0.49559458147621788 0.17110797368359665 0.030238855631655175 -0.025642148270010521 -0.99208059214363786 0.12295763060513057
0.52071921653408959 0.33572552734114902 0.19763111141246306 0.35812250570771975 0.93365457273568131 0.0061163482059727568
0.512243490525641 0.16988194044708788 0.02815173739918031 0.023147677549733105 0.99220138447496398 -0.12247692709248682
0.52533996842054898 0.33731830292306414 0.19635739998302942 -0.20620835287284864 -0.96921739323216394 0.13452048119790391
0.32433088029093615 0.20726547665412359 0.057542481481847672 -0.99768678361602059 0.062522170401258279 0.026684452518942605
0.42227343874922824 0.40092809335819141 0.016592779082694221 -0.046929606711037894 -0.97941429940219948 -0.19632942250321542
0.3200930810077145 0.20254270286929549 0.022495431741949377 0.98501048196733154 -0.046022706273284204 -0.16624157398727979
0.53517286562605348 0.16792606586888761 0.030068267789942874 0.013415157515880479 0.99367224699115686 -0.11151456904086361
0.42216427018794611 0.25227481447312466 0.26523892066311372 0.77406592010906139 0.12981594026636481 -0.61965294559008732
0.44928790885389919 0.25242817591243688 0.26101983185518401 -0.61416752312936707 0.73768602494631885 -0.28038827031820995
0.44621762416492738 0.24994884453904292 0.26129775470542893 -0.61423260506574795 0.73807768784794059 -0.27921252402996338
0.44293866194517723 0.24754037915247473 0.26226153260421903 -0.61449281772414432 0.73826101434885083 -0.27815328805902595
0.31976994322890573 0.19764691567479942 0.022649885360664281 0.98511002755322885 -0.045557529232030838 -0.16577920600711474
0.42523082618571634 0.24489662654759578 0.26732435971373869 0.77618359986829655 0.13482457302353645 -0.61592317199835345
0.42341969958200559 0.24792117861934987 0.26577690646642749 0.77536105552322743 0.13294394725805544 -0.6173662935934825
0.44454878511754703 0.24789258719213272 0.25917238824247646 -0.61154067065201023 0.74147880290595247 -0.27609272532909174
0.32515635840805018 0.29165405154051532 0.015295239383503773 0.98344318161249356 -0.033117973152266639 -0.17816483489786053
0.43718555964707229 0.2422843937262506 0.26464116191066961 0.092656589860973179 -0.67862212827198132 0.72861976597875922
0.42514585719509318 0.24290949472564272 0.26669831097391733 0.77720968950682778 0.13673823091147752 -0.61420497779153505
0.32831859934708435 0.30744469436859018 0.03264027636052496 -0.99503507461884033 0.036783849499407294 0.092477828122657632
0.32844311048376151 0.31264365923028103 0.032458952931791372 0.98215566044380731 -0.022160602477792814 -0.18675964862895211
0.32841866921285839 0.31747773298185383 0.03245280313255465 0.98182034233791948 -0.019969183503366909 -0.18875923045419377
0.32836664757319112 0.32232885610402084 0.032535640409514045 0.98143589006215914 -0.017684824189317938 -0.19097340309920216
0.43793416164444299 0.30625551611657692 0.25680610254160585 -0.63312258802958488 0.76235048697012608 0.13408028767545327
0.53167920959450854 0.30027271789540205 0.25582886451637565 -0.22864131380120786 -0.052234568453674211 -0.97210837846493015
0.52750491604996264 0.30039805544826087 0.2560919014309157 -0.16370996339104313 -0.051561111485187605 -0.98516013909867228
0.52258996804396007 0.30107083808619783 0.25579121107587222 -0.094104367606020811 -0.05043000192315647 -0.99428425659038833
0.46654735050390012 0.29901578618201602 0.25373104186520928 0.027360788158657445 0.61655828562336001 0.78683369761374622
0.43631557419086547 0.30452794081864965 0.25847485235181411 -0.63395910037994507 0.76089779080470599 0.13831272896580563
0.43342754919345927 0.30234637995942076 0.25768140162657466 -0.63563972587190254 0.759949663590062 0.13578898225866534
0.43039118413734079 0.29983588309325065 0.2575023346729377 -0.63802285336449438 0.75788225775658524 0.13616652291370904
0.4276409471413814 0.29737829179674302 0.25800096621676566 -0.63868067905075654 0.75695084241825583 0.13824764869449815
0.42644936591886234 0.29630988067016312 0.25831716351766504 -0.63880164215155433 0.75680947377912056 0.13846256671984722
0.5318336853777792 0.29735234744589717 0.25601466213025686 -0.23516663512544295 -0.050591989657671504 -0.97063747316197047
0.52749573876359834 0.29738534655406373 0.25630803499864668 -0.16810910048124422 -0.049719541836835142 -0.98451373656994867
0.52370730260594034 0.29774661303806865 0.25666763741421217 0.091236716810315796 0.3140529726338378 0.94501142420900086
0.51799629200862629 0.29619682737393793 0.2555421165268249 -0.049270977411229641 -0.044122778408922238 -0.9978103783837986
0.47756379404331911 0.29572564815302083 0.25718965678412253 0.80353581431733045 -0.24249346828762225 0.5436240547908312
0.4709392377872153 0.301444219769197 0.26035320720439897 -0.28630635242257318 -0.8281927226729916 -0.48179402930503251
0.46570065057525933 0.29759875028388283 0.25667509861665083 0.074546605559217854 0.69809280604996127 0.7121160282853416
0.43374507018050579 0.30211348315180503 0.25952687433198218 -0.63525319314835893 0.75909614090723265 0.14221965213907917
0.3773239690917804 0.40056693238538155 0.042869580226939111 -0.036008548230601838 -0.98008969071684571 -0.19526285515909617
0.3191149732077822 0.22243849686739045 0.0072971114087552243 0.98453394699109165 -0.047248311338794841 -0.16870241343198011
0.42582660976924508 0.29607667467117882 0.2569347219169536 -0.63946056931526396 0.75661900542311711 0.13644728258023914
0.53512063570031543 0.29165099389778848 0.25743793430154144 0.10329056768187161 0.28306669072690199 0.95352205387650946
0.53261133668142413 0.29240809730183309 0.25620093636765889 -0.25270045619194237 -0.047874770332821642 -0.96635939784635183
0.5275300868355417 0.29278647748540759 0.25791838040099074 0.096396378175466937 0.29776952897085057 0.94975841448819509
0.52213814802898162 0.29221831009647908 0.25608030643110147 -0.083901961303426933 -0.044152958218210761 -0.99549534261593564
0.51881215786058021 0.29409724588099367 0.25816168773605075 0.082335571473762956 0.31953585177903404 0.94399030349783575
0.50938488404940874 0.29515630194034026 0.25794148164035047 0.05507572088326864 0.37648912723290406 0.92478246201179359
0.47677585506767073 0.2926552075054471 0.25705811219435681 0.80311598130051964 -0.24353980835079381 0.5437766842447016
0.47385668606147341 0.29342706541807828 0.26176478085979271 0.80238970725562409 -0.24604859946158164 0.54371945375646458
0.46905512683641037 0.29818593514742159 0.26231189159963963 -0.48075741549108331 -0.72084081050676685 -0.49926028618174839
0.57742768872765893 0.39261153135107485 0.052508788193366872 0.068192032355366791 0.99257085478716278 0.100761822881116
0.63777402386610615 0.17434345926965861 0.0080655824753738496 0.060820500874615047 -0.98914941208170137 0.13373222218966402
0.4223616255354577 0.29292177765606797 0.25775892859969607 -0.64124061044109892 0.75460104250965776 0.13923988711739357
0.58754597242915063 0.39205861679538262 0.052590813037426888 -0.057640755927000714 -0.98828913503217319 -0.1412873979996899
0.53607086073266164 0.28738870605735634 0.25569087482900704 -0.31826614736394948 -0.043432814505859459 -0.94700593982625492
0.53286649939910646 0.28813025176492757 0.25645430891820864 -0.27182568438946997 -0.045443384141247094 -0.9612729561076746
0.52768761727073388 0.28836797036263778 0.25907822692683813 0.097446937645225815 0.27887450044455564 0.955370664896807
0.5223643383007236 0.2877750809620806 0.25618439583208563 -0.079725950660082034 -0.042290903622308966 -0.99591930007513907
0.51850247439657471 0.28772085927255431 0.2558273330161161 -0.048151579554018435 -0.040074991401021665 -0.99803578114748026
0.47328010883367605 0.28673876182094094 0.25964589898288687 0.80256218600070639 -0.24496092324589952 0.5439559574857914
0.47252942043810087 0.28679744707834592 0.2607905068980983 0.80246923754164801 -0.24520929213733011 0.54398118152086439
0.42058673868002666 0.29121702062534982 0.25845724702059003 -0.64036032730495296 0.75473650542837833 0.14251827457436084
0.35981696264706692 0.12608919297600896 0.0056881302212396451 0.37745225761741119 -0.057504802978112161 0.92424184651744046
0.52609644342712025 0.28300917427084704 0.26026007472101992 0.099749514385825369 0.2383442340074427 0.96604454374278081
0.52218044008973619 0.28330015241091566 0.25628412688653407 -0.075336664766779582 -0.039536943381354474 -0.99637403471280683
0.51831125738983796 0.27998494053182299 0.25914619561189473 -0.0083326640933958623 -0.67968824919832382 0.73345378219136881
0.47482655919474853 0.28249956288248734 0.25547506292462108 0.80275159036398991 -0.24414639179835967 0.54404266702155502
0.47272082976090479 0.28197702208551256 0.25839584977223495 0.80227034577713185 -0.24539306822333262 0.54419163385206526
0.47228626664625034 0.28034876623637195 0.26056510834135349 -0.66441426744713494 0.6237664374178884 -0.41166626381534194
0.52520988123052526 0.27924126315129699 0.25656594750677547 -0.10559794952896727 -0.036975388553373588 -0.99372123540588819
0.52218436257187351 0.27865190411292534 0.25621726532405975 -0.06449866370744578 -0.034967054536546707 -0.99730498217796537
0.51894997904615259 0.2766023942060114 0.25745489220879153 0.0063455419489698928 -0.70753410242284798 0.70665071145939462
0.47382352894857627 0.27976178547320885 0.25575908323930879 0.80239559935654858 -0.24506150515497879 0.5441563753411528
0.47223035827404025 0.2788013174689718 0.25769953253765121 0.80212225381925217 -0.24577016662909251 0.54423975885911846
0.47099993857240585 0.27508717925185577 0.25971621133550976 -0.6537420661674761 0.65744048702280322 -0.37469096192235318
0.46827662469010145 0.27446407734422873 0.26160910693328371 0.80140016693859639 -0.24760597716219421 0.54447135140826719
0.52238120884024719 0.2745730631976635 0.25627201109657655 -0.062088709855360143 -0.032579527479453738 -0.99753875438386475
0.47235530442216156 0.27145784593890032 0.25595856526441135 -0.63563244629495752 0.69249042827312091 -0.34121606053525333
0.46918471781247839 0.27168019495112894 0.25900802207800555 0.80135484246505062 -0.24771121895954271 0.54449019133441823
0.32153093228855995 0.27700511812388945 0.086307906191738268 -0.018335744067906039 0.019348720063999389 -0.99964465062409102
0.52504765572945167 0.27003084194193183 0.25249640073766749 0.035370086128628637 -0.73689570347454914 0.67508049831705463
0.60248260890019301 0.39269200829826506 0.037705895423349296 -0.065610574084873544 -0.98699048797790268 -0.14678225100261538
0.4702955452396389 0.26863094614800442 0.25507358092195764 -0.62461435506841223 0.71279298242782219 -0.31903459317779614
0.46771662886542609 0.26717145233273909 0.25716470478203562 -0.62726106249151936 0.71125744974006322 -0.31726392746618964
0.46510108087811919 0.26541437311195459 0.25877422027415692 -0.6261688946096059 0.71424266554685245 -0.31268183531492755
0.54046801471922534 0.32635113245194564 0.18606706888473545 0.40993336810280784 0.91179493173617643 -0.024179250941858851
0.56733067018677574 0.39106135301569456 0.13756185554829195 0.098318243068803879 0.9943972427455674 -0.038828426440904167
0.46245730838466403 0.26238118609142563 0.25733189125062816 -0.61926555340319267 0.72548304900291372 -0.30030737582962164
0.45994394085606588 0.26062443379463857 0.25854272095048292 -0.6176013527603631 0.72948337977830169 -0.29397715505766053
0.45662243925490043 0.25810470783689676 0.25955986836636125 -0.61586535338840831 0.73352908528982874 -0.28748034285779972
0.46306111591961052 0.26148078770157174 0.25371680338202607 -0.60910514287053774 0.7381146081940505 -0.29013402092689033
0.42777284487387068 0.39990411493335826 0.01665812127312925 0.056616405352521146 0.99277875015269645 0.10575885726599379
0.45724767762549207 0.25786529575668504 0.25734696095647402 -0.6117210276095697 0.73828449039644317 -0.28413622722271153
0.45427951743221073 0.25553993826070848 0.25778510665571747 -0.61104571707620781 0.73974063312736782 -0.28179234791445945
0.45103547515225645 0.25302490747711381 0.25837400227064533 -0.61051658127000796 0.74118713879498332 -0.27912565141757906
0.58746176133932981 0.25741953994744038 0.088709042700019142 0.011568834333271315 0.036075066176324264 -0.99928211815910284
0.36727075361396583 0.39901287161495136 0.066894019966400417 0.029612979153800536 0.98891427158588241 0.14550475909536445
0.44810141713709106 0.25054517964641188 0.25834369751853198 -0.61126405640850345 0.74089339085848116 -0.27826828192455505
0.3253735989046353 0.28254282638439471 0.018693558273928358 0.9836779408680224 -0.036791272952833201 -0.17613662561817592
0.32599395920091256 0.36717546397596634 0.032992254540396851 0.97733046531048562 0.0066684019796682823 -0.21161449381133415
0.39744492359344324 0.40544231406368519 0.0019804328477033336 -0.05013829524576266 -0.97803800392455387 -0.20230623873010747
0.42676859529198624 0.25298165823513874 0.25725492743397882 -0.95008044242320089 -0.30033231039536556 -0.084543812650700031
0.57249039519801981 0.17082451229653595 0.067544789664373869 -0.019852304273463465 0.99358177190600638 -0.11136044428411095
0.44664465287598604 0.24895919580878847 0.25690104042705891 -0.60826222270653885 0.74476748217302291 -0.27447853454461058
0.44362877142626328 0.24034529476867164 0.26195588874143749 0.093030836893702604 -0.68037493829182727 0.72693549007546021
0.43820380467605541 0.24273065762012752 0.25893705829586711 -0.60903330702859981 0.74500053429574453 -0.27212613771716682
0.42305977455823041 0.24309347774704407 0.26404625219002248 0.77812084175491425 0.13775311266837306 -0.61282300509755527
0.42799898638837997 0.24932710212221171 0.25682362458292696 -0.94903910110857237 -0.30288018686897022 -0.087111290710507966
0.44804170692844142 0.24956693537473881 0.25532404034245265 -0.60747623726808309 0.74516953490555449 -0.27512721676208463
0.44516078442561541 0.24759280772241385 0.25645781641766341 -0.60807238679145881 0.74522637654625945 -0.27365237094070843
0.43261087354017613 0.40017640349690847 0.017469565100279756 -0.044274748631660581 -0.98017394682010517 -0.19312892224806943
