0.56148799999999999 0.213148 0.14957500000000001 0.046734501904121248 0.051782223909249213 -0.99756427743719134
0.55800499999999997 0.21257899999999999 0.14938599999999999 0.039998874109379606 0.047335251177760045 -0.99807788476948067
0.55456099999999997 0.212312 0.14921999999999999 -0.025907618523172964 -0.057169080489888849 0.99802830197264369
0.392648 0.39743200000000001 0.077699099999999993 0.020499743392931886 -0.95941166184723525 -0.28126326392252221
0.55224399999999996 0.17880699999999999 0.108056 0.073438948873474616 0.99722082530579825 0.012543777930973377
0.54705700000000002 0.212892 0.14916399999999999 0.00079851243477335743 0.041960679875782579 -0.99911894373105226
0.54249000000000003 0.212507 0.14933099999999999 0.010439103637413903 -0.059178387859720336 0.99819283884706989
0.53741000000000005 0.212899 0.14941399999999999 0.0043969565599272561 -0.035846254598054586 0.99934764361772577
0.533057 0.21187300000000001 0.149312 -0.0082856289934216711 0.049576813528220229 -0.99873594503881336
0.52693699999999999 0.21182000000000001 0.149314 -0.0036244291005924608 -0.028200186486303676 0.99959572477868885
0.52235600000000004 0.212089 0.14926200000000001 -0.0099648033766089987 -0.01823737239580369 0.99978402714874481
0.38802700000000001 0.188031 0.106572 -0.99282008029163582 -0.070174083283278038 0.096870460952044227
0.33833099999999999 0.39744400000000002 0.075717199999999998 0.1272900418365942 -0.93560662443286557 -0.32929848096609327
0.38681500000000002 0.18560699999999999 0.10796699999999999 0.96944064894243787 0.23664892932140646 -0.064669254125100911
0.51770000000000005 0.21296300000000001 0.149288 -0.012016428202797136 -0.0065734178055216128 0.99990619341596298
0.51212299999999999 0.21288299999999999 0.14932500000000001 -0.010213954781714756 0.027958527304982529 -0.99955689977041984
0.38770100000000002 0.19291 0.106394 0.99442376162897117 0.0061715753380206318 -0.10527722434379815
0.38700000000000001 0.192389 0.10757 0.99778556950565189 -0.017276421350055301 -0.064229919442717998
0.49694899999999997 0.167492 0.0135105 0.017446427357314553 0.96384254398850511 -0.26590068177842696
0.38752999999999999 0.19786699999999999 0.106311 0.99572593301282053 -0.012084971424666153 -0.091563201076706902
0.50205900000000003 0.16750100000000001 0.0137666 -0.014170627815784768 0.97094851531763937 -0.23886852850423509
0.58069300000000001 0.169743 0.052157700000000001 -0.20966089937176891 0.97735519974837692 -0.028620286501548832
0.38764500000000002 0.202567 0.10634 -0.99767405745275595 0.012803303479478799 0.066951852145907292
0.56603599999999998 0.16857 0.0523548 0.022078995932794245 -0.99679125924344458 0.076939609009066365
0.507942 0.16787199999999999 0.0140114 0.054457476643054968 -0.97412346195096466 0.21935784488898225
0.38777899999999998 0.20735999999999999 0.10692500000000001 -0.99739854924530158 0.051440218664314558 0.050497899630928454
0.38746199999999997 0.20721600000000001 0.108484 -0.9984884359668319 0.053734937064385396 0.011549882215684296
0.38743499999999997 0.20780100000000001 0.107933 -0.99820384778882287 0.048852921911889086 0.034676653244792223
0.38803100000000001 0.21262300000000001 0.106549 0.99701302311132767 -0.055449545897930885 -0.053762250753890121
0.38770100000000002 0.21112600000000001 0.109572 -0.99921388834714353 0.039588024445648316 -0.0020961046426636429
0.38230799999999998 0.39738200000000001 0.076706499999999997 0.065278443536341171 0.93909473036851354 0.33740155927849758
0.38812400000000002 0.21740000000000001 0.106505 0.9977029811131255 -0.033995642227714382 -0.058592301435492287
0.32964300000000002 0.405246 0.076621800000000004 -0.88107629150266087 0.038943269968973487 0.47136821093073478
0.50704300000000002 0.212368 0.14930599999999999 -0.003729889537491479 0.027864151233986455 -0.99960476039285018
0.502108 0.21287200000000001 0.14938100000000001 0.011797746927832392 0.040263314084943616 -0.99911945167048177
0.49735800000000002 0.21271000000000001 0.149338 -0.0088647980133041253 0.041095754527688502 -0.99911588632950044
0.49237399999999998 0.21273800000000001 0.149311 -0.018376946404034724 0.038778539931551441 -0.99907883206563852
0.48791299999999999 0.212953 0.149308 0.0074675404313811391 0.035086815409808673 -0.99935636848138598
0.48210799999999998 0.21279300000000001 0.14929300000000001 0.015912442674347653 0.038027798378096313 -0.9991499790915529
0.47736600000000001 0.21260899999999999 0.14926200000000001 0.0088757017272174249 0.044695889111603104 -0.9989612101655263
0.47223900000000002 0.21280499999999999 0.14941199999999999 -0.0065226897658607844 0.03667135314752646 -0.99930609243441904
0.46791899999999997 0.21270500000000001 0.14951100000000001 -0.02331158999807291 0.028531968529031962 -0.99932101776337134
0.46205099999999999 0.21276600000000001 0.14955099999999999 -0.037638795754729899 0.022613764641116151 -0.99903550422539533
0.45711400000000002 0.212757 0.1497 -0.053145215775610592 0.014287399721986224 -0.99848457987559736
0.38800499999999999 0.24734600000000001 0.108428 -0.99938953806558006 -0.0042911854218503805 0.034671846399378543
0.45247500000000002 0.212894 0.149863 -0.032105064704849674 0.019909479623974994 -0.99928618395402624
0.447515 0.212703 0.149918 -0.039920477698181404 0.016401621773404658 -0.99906823704066927
0.38830399999999998 0.257662 0.106754 -0.99896138285275138 0.0048198629786058633 0.045309209767841904
0.56232000000000004 0.17280300000000001 0.081140699999999996 -0.045785096743558761 -0.93789749670786349 0.34387790069340957
0.38827499999999998 0.26183499999999998 0.105799 -0.99845979655167794 0.020589690591972853 0.051517951350074004
0.38839099999999999 0.26322299999999998 0.10746600000000001 0.99939537234622833 -0.021380820287200397 -0.027418064424576526
0.59359300000000004 0.17151 0.079585400000000001 -0.13890719952023325 -0.97821169847415868 0.1542940792439822
0.38850200000000001 0.26735999999999999 0.106737 -0.99947367746975091 0.018101013450933526 0.026920649270425877
0.38799499999999998 0.26777499999999999 0.108221 0.99984364128598502 -0.0089087244467503223 -0.015275064933237804
0.388573 0.27035999999999999 0.10886800000000001 0.99982378358930191 -0.01866295275877166 -0.0020238486842527638
0.38863300000000001 0.272594 0.106571 -0.99937225448805789 0.028128570105406935 0.021537885301984604
0.38813300000000001 0.27215899999999998 0.108365 0.99975663517438085 -0.022042676051986575 -0.00088930156149984781
0.38886599999999999 0.27752700000000002 0.106679 -0.99924237893688961 0.035856321122785875 0.015132493914909395
0.38831500000000002 0.277034 0.107999 -0.99959710385318767 0.028352661040885831 -0.0013253604114587059
0.389067 0.28252899999999997 0.106673 -0.99905992593696979 0.034270816657917209 0.026547608412354054
0.44236700000000001 0.21257000000000001 0.14995700000000001 -0.025343162434553503 0.025298367912657931 -0.9993586526861975
0.38911800000000002 0.28730800000000001 0.106407 0.99830841229226086 -0.025046092396588081 -0.05246910712187601
0.43759799999999999 0.212587 0.14998 -0.0011283624329955974 0.020448699620605436 -0.99979026674700444
0.40074199999999999 0.39893400000000001 0.045720799999999999 0.16394722516325358 0.98286142740972027 0.084289512226588439
0.38929999999999998 0.29222399999999998 0.10707800000000001 0.99759598834570007 -0.016085307171883875 -0.067405540794152147
0.39719199999999999 0.39942100000000003 0.047176799999999998 0.16016242707163011 0.98423697045539338 0.075003886188074478
0.39226299999999997 0.40012999999999999 0.047365699999999997 -0.12377611367319061 -0.98975934024464374 -0.071105007435822182
0.389318 0.29753200000000002 0.107223 -0.99726009127751336 0.020099548452305126 0.071192123842313049
0.38882800000000001 0.29812100000000002 0.107655 -0.99849860045683136 0.015778115389604126 0.052455657087689268
0.38944200000000001 0.30244399999999999 0.106695 0.99705936276372853 -0.020737794609011689 -0.073773782605624949
0.431979 0.21235000000000001 0.149893 -0.00116561270329204 0.019670392215511891 -0.99980583965943814
0.42742799999999997 0.21268400000000001 0.149896 0.030504659561998815 0.043835197663867759 -0.99857295236290877
0.42250599999999999 0.212672 0.14996899999999999 0.0064033699956726996 0.027769213809046497 -0.99959385133019218
0.41744100000000001 0.21266499999999999 0.149976 0.035848181919027937 -0.014088315272437894 0.9992579382851482
0.41237000000000001 0.21241199999999999 0.14999399999999999 -0.022706560067076047 -0.0029186586673926275 -0.99973791243580634
0.38978299999999999 0.31736399999999998 0.10638599999999999 -0.99754195210407559 0.03069471956045642 0.062991173853922791
0.40754200000000002 0.21248500000000001 0.15004999999999999 0.015970293332308344 -0.036917542294629214 -0.99919069491354073
0.38997700000000002 0.32089499999999999 0.106278 0.99801331846448682 -0.013544982144905831 -0.06153007091005637
0.389899 0.32251600000000002 0.106255 -0.99861465262266724 0.0036993849158679839 0.052488952347648547
0.387133 0.40063900000000002 0.047306899999999999 -0.090850483449460048 -0.99345841753295328 -0.069184986015171437
0.40327800000000003 0.21249000000000001 0.14971200000000001 0.073737566554821665 -0.028177643519140493 -0.9968795271667894
0.39841399999999999 0.212342 0.14910200000000001 -0.23783026907297139 0.023796982803766527 0.97101517327079656
0.39414500000000002 0.21262900000000001 0.14787700000000001 -0.34931134433123989 0.076852908396380079 0.93384967483665127
0.39108300000000001 0.21221300000000001 0.14701 0.56070448004870754 -0.17256619308602861 -0.80983417750617537
0.57511999999999996 0.207509 0.14902499999999999 0.12864047669900169 -0.069810489977143286 0.98923107676811528
0.57283899999999999 0.20810100000000001 0.14945700000000001 0.084507410704464866 -0.056869360881568243 0.99479865969398507
0.56814600000000004 0.20721500000000001 0.149585 0.02406438317090543 -0.023825902142880599 0.99942645144586861
0.56215700000000002 0.20874000000000001 0.149339 0.064589884522746235 0.017207590192758422 -0.99776352191142781
0.55763099999999999 0.20771100000000001 0.14899200000000001 0.044958659529141645 0.042187217272511193 -0.99809766938518829
0.55353200000000002 0.20802000000000001 0.14890999999999999 -0.020761220777590843 -0.028868248277995261 0.99936759801045394
0.54719799999999996 0.20766200000000001 0.148868 -0.014347074509954406 0.047485329608444642 -0.99876889465230279
0.54277399999999998 0.207847 0.14915200000000001 -0.0015906759939427299 0.015556014367375613 -0.99987773260878465
0.53801100000000002 0.20768400000000001 0.14915300000000001 -0.014506549573281 0.013646323551777908 -0.99980164926499204
0.53287600000000002 0.207839 0.149085 0.014726479791285984 0.046753202986309403 -0.99879791189383127
0.52753399999999995 0.20724000000000001 0.14915900000000001 0.014406515225459497 -0.038473305886060363 0.99915577216631035
0.52327699999999999 0.208227 0.14918200000000001 -0.019385944074985586 -0.026649258385865959 0.99945685359589442
0.51567799999999997 0.20885500000000001 0.14906 -0.0076610316613079793 -0.026355455734895429 0.99962327831383102
0.51183800000000002 0.20743500000000001 0.14902899999999999 -0.0011264328863229349 -0.032772887547742387 0.99946218987550306
0.50768500000000005 0.207812 0.149113 -0.001423638665614966 -0.028003876768568553 0.99960680076662167
0.50284700000000004 0.207426 0.14912 -0.0078473508244822337 0.012954432138863003 -0.9998852943078006
0.49736399999999997 0.207653 0.14910599999999999 0.0087456183725115322 -0.0035918581130347568 0.99995530535848365
0.38871499999999998 0.38237300000000002 0.106558 0.90355529806104529 0.23098215197925465 -0.36088096210918119
0.38496999999999998 0.38771600000000001 0.110084 0.39164857131088238 0.91599395690502272 -0.086985444205473411
0.49232700000000001 0.20776700000000001 0.149176 1.3966266361366362e-05 0.018678216998960467 0.99982554679038027
0.38634400000000002 0.38747999999999999 0.107459 0.28345424265781249 0.93736331839902798 -0.20249370765346869
0.39232 0.38928699999999999 0.106585 0.23987540060978815 -0.96722532101025493 0.083276470739955991
0.39676800000000001 0.39052100000000001 0.105902 0.19221215272369241 -0.98087231511881534 -0.030724416654831534
0.40451900000000002 0.39260899999999999 0.10671 0.13983788361137983 -0.98937908478943271 -0.039678620040459148
0.40740199999999999 0.39320500000000003 0.107402 -0.040852869628791991 0.99739070001937391 0.059521715011888979
0.41253200000000001 0.39301399999999997 0.107312 0.027615655569938464 0.99552667455048516 0.090354943560909229
0.48758000000000001 0.20779900000000001 0.14920800000000001 0.0061758104603560479 0.012107738976965449 -0.99990762674460254
0.42233300000000001 0.39222899999999999 0.107247 0.0085519628299664183 -0.99410064897303452 -0.10812383475971515
0.42713899999999999 0.392677 0.10556500000000001 0.033163015491841613 -0.99102583580009818 -0.12949134017456507
0.432477 0.39294699999999999 0.107109 0.061953258418562827 -0.99415864240197682 -0.08837639678546004
0.43697599999999998 0.39326 0.107395 -0.033479213899172404 0.99837152182708067 0.046189248114388362
0.48227799999999998 0.20768300000000001 0.149233 -0.021188884072843545 0.0032742243156320605 0.99977012890307837
0.47735100000000003 0.20768 0.149279 -0.0032178048538079079 -0.014877042556140585 0.99988415295808408
0.47205599999999998 0.20758499999999999 0.14927199999999999 0.0082791597600249869 0.00044316242255149725 0.99996562896968377
0.46778399999999998 0.20765600000000001 0.14929400000000001 -0.021864323738038711 -0.0013455278715725776 -0.99976004166111032
0.46235500000000002 0.20766899999999999 0.14945700000000001 0.03641566139958903 0.020107335492200736 0.99913442272010355
0.45753899999999997 0.207755 0.14952199999999999 -0.021914950581297974 0.0023358140599498574 -0.99975710995906208
0.45213700000000001 0.20777499999999999 0.14963499999999999 0.00029823459951408213 -0.0045016484441777324 0.9999898230569193
0.447295 0.207456 0.149733 0.033822849447851543 -0.010993728629411285 0.99936737628664429
0.48264899999999999 0.39236599999999999 0.107643 0.0085779210309931565 0.99983435792317643 0.016052289155611261
0.48761199999999999 0.392314 0.107514 0.011742392417487292 0.99992302973321501 0.0040063486445686691
0.49240600000000001 0.39224999999999999 0.10752 -0.021143939839955207 -0.99967175305804978 0.014467893623118823
0.49756400000000001 0.39218999999999998 0.107392 -0.030997516378613112 -0.99886521891065116 0.036158379788563143
0.50281399999999998 0.39193299999999998 0.107096 0.042141247176014321 0.99742616982286125 -0.058009921900885109
0.50748599999999999 0.39165499999999998 0.107013 0.050023040494460762 0.99552483738698183 -0.080174768882193909
0.44241999999999998 0.2079 0.149839 -0.029909283085536642 0.0018464708301125362 -0.99955091182529709
0.43745800000000001 0.20753199999999999 0.14983399999999999 0.0019001901313031528 -0.035640591148824494 0.99936286580001921
0.43237199999999998 0.207483 0.149781 -0.0086554200721927835 -0.030962379467544605 0.99948307377417933
0.42733399999999999 0.20761599999999999 0.14977499999999999 -0.014840608405350592 -0.012396319781058891 0.99981302631944369
0.42242800000000003 0.20761499999999999 0.14977199999999999 0.013595765868963612 -0.002041352351531564 0.99990548954939407
0.417325 0.20746600000000001 0.14990999999999999 0.048819568951918524 0.005407557527589835 0.99879297555045643
0.41232200000000002 0.207728 0.150007 -0.02181930438725465 -0.021996698289818338 -0.99951991637005577
0.407669 0.20760500000000001 0.15007499999999999 0.0018720815923164041 -0.013552731697356671 0.99990640500701422
0.40307399999999999 0.20729900000000001 0.14984500000000001 -0.10058990984671227 -0.034954313873377475 0.99431376636284763
0.39853699999999997 0.20736599999999999 0.14926600000000001 -0.17475280772341761 -0.0048699267516361553 0.9846002945389648
0.39404 0.207258 0.148591 -0.30197643291748472 0.099859539698316069 0.94807083400644288
0.39130799999999999 0.20818600000000001 0.147595 0.49923474251463523 -0.086586977073824664 -0.86212955364467292
0.57494400000000001 0.20297200000000001 0.14896499999999999 0.1352331508947279 -0.038181503616639273 0.99007785940331805
0.497282 0.33223999999999998 0.18740399999999999 -0.10526988815022699 0.92667250623429509 -0.3608272673153855
0.37753399999999998 0.39093899999999998 0.107623 -0.26447896125480058 -0.94189957338568675 0.20706538269214314
0.38244 0.38899699999999998 0.108004 0.27331390228813263 0.95024545397994364 -0.14944259100565674
0.49268699999999999 0.33128299999999999 0.18767700000000001 0.31290745809898074 -0.87640817633479484 0.36605686869604592
0.48857699999999998 0.329399 0.18792400000000001 0.47810842344270177 -0.8037204212306146 0.35418331401975761
0.38240000000000002 0.40099899999999999 0.047233499999999998 -0.070462657575841303 -0.99548137456406915 -0.06365411835365338
0.40234799999999998 0.39196599999999998 0.10774 -0.22035498878128873 0.97416446575866533 0.0494699158310603
0.51191699999999996 0.16803399999999999 0.0140535 -0.080731708620317255 0.98019680688259836 -0.18082204235214949
0.42357600000000001 0.39195799999999997 0.109498 0.0092038165536072539 0.99686955117287324 0.078526350387888716
0.51671299999999998 0.168158 0.013146 -0.044707355948287064 0.9855678472066477 -0.16327054503665789
0.43105300000000002 0.39269300000000001 0.109038 -0.075464596908623713 0.99394419163719883 0.079875143343183685
0.52756800000000004 0.16864199999999999 0.0130972 -0.033452303154241872 -0.99316530865282826 0.11181955599182815
0.53210999999999997 0.168378 0.0132093 0.11425447240905655 0.99036865122354278 -0.078203901489561328
0.50232399999999999 0.33159699999999998 0.18579200000000001 0.051851354287723556 0.9320560339737195 -0.35858469932738296
0.49873200000000001 0.33164900000000003 0.18593000000000001 -0.065856780040143892 0.92520936226882389 -0.37369843522934348
0.65137299999999998 0.17261199999999999 0.083292099999999994 -0.67687670604706196 0.55467400276011469 -0.48391597976606604
0.65185300000000002 0.17724899999999999 0.085965799999999995 -0.49424639367018497 0.4321058991815615 -0.75432419703766018
0.55662299999999998 0.20344899999999999 0.14862 -0.044923485194916832 -0.088816456821886866 0.99503443029653416
0.55214700000000005 0.202019 0.148395 0.018419033706472888 -0.058027246464648213 0.99814506854717788
0.54790499999999998 0.20358599999999999 0.14854899999999999 -0.043735719378876124 0.016419788788539152 -0.99890819267165487
0.54215199999999997 0.203352 0.14888499999999999 0.040095274250904887 -0.010315642746770669 0.99914261069051891
0.53699300000000005 0.20206499999999999 0.148787 0.011867422716263913 0.037781534225348558 -0.99921555229572601
0.532138 0.20280599999999999 0.148891 -0.027044690415528691 0.056525011218315158 -0.99803482295313595
0.52783100000000005 0.20430599999999999 0.14909 0.0012571622096378388 0.035974595863589344 -0.99935191399007683
0.52224899999999996 0.20024 0.148953 -0.0087578327415777889 -0.081227190563485263 0.99665713456475769
0.51592300000000002 0.202153 0.148786 -0.0053402000301236759 -0.069096245368492362 0.99759570525319297
0.51247100000000001 0.20274500000000001 0.14879800000000001 -0.010540267973180818 -0.059336484403324889 0.99818239033240197
0.50726300000000002 0.20258999999999999 0.14893799999999999 0.027674077317522087 -0.058250188834249164 0.99791836386820665
0.50239100000000003 0.20242099999999999 0.14899399999999999 0.018524146224719984 -0.043363416101183383 0.99888761637667745
0.49761499999999997 0.20269899999999999 0.14906700000000001 0.0084370951816458706 -0.048037235026798956 0.99880991158271759
0.37342500000000001 0.39232499999999998 0.10773000000000001 0.12059405711247026 0.95182845837768737 -0.28192137061866906
0.37670300000000001 0.39210299999999998 0.107822 0.24206035340708665 0.94976981280039807 -0.19835344212171718
0.38445600000000002 0.39037500000000003 0.105292 0.1890655481915548 0.96198286001796074 -0.19708677154667573
0.38802599999999998 0.39037300000000003 0.106124 -0.1069817791219731 0.98530944039734025 -0.13311726259121232
0.57219600000000004 0.39458300000000002 0.047483499999999998 0.1131197677632427 0.99108130353251567 0.070439817784260159
0.39783400000000002 0.39116800000000002 0.10736999999999999 0.22169001038954683 -0.97497437445059953 -0.016688572681471642
0.56752100000000005 0.39504600000000001 0.046812699999999999 0.070769971145740601 0.99552735485121913 0.062585117455876568
0.593198 0.17889099999999999 0.088918999999999998 -0.27439325235735956 0.32025497281940996 -0.90672217103431929
0.412331 0.39214500000000002 0.107084 0.026285671071673372 0.99540278032096818 0.092099774297215886
0.49281399999999997 0.20305599999999999 0.14907300000000001 -0.016981214754597556 0.04464519017101979 -0.99885857124021904
0.55303999999999998 0.395202 0.047328799999999997 0.040888872198996451 -0.99802646521330363 -0.04765789403795273
0.54763399999999995 0.39482200000000001 0.047510499999999997 -0.06724587557994155 0.99627273956500706 0.054024259524058482
0.54408999999999996 0.39465899999999998 0.046091399999999998 -0.075828154510535317 0.99492427831953556 0.066149613709210089
0.602599 0.18216199999999999 0.086019399999999996 0.097507713249941216 -0.067909691862458224 0.99291516234163402
0.48729499999999998 0.20277000000000001 0.14896599999999999 0.0081912975497376358 0.064255809298086441 -0.99789984147503508
0.48262899999999997 0.20275199999999999 0.149011 -0.012082021878749058 -0.046651223653958226 0.99883816911395074
0.47751199999999999 0.20236699999999999 0.14910799999999999 0.019267534542611431 -0.016950082503517722 0.99967067418013866
0.47261799999999998 0.20322200000000001 0.149147 -0.031322223769692452 0.01333014325389225 -0.99942044484738868
0.46743499999999999 0.20257800000000001 0.14930099999999999 0.042077900028105832 0.0066354689089981713 0.99909229847976655
0.46223599999999998 0.202682 0.14940999999999999 0.026523841161629497 -0.012440657543838173 0.99957076582396565
0.45772699999999999 0.202621 0.149477 0.01935429948303094 0.032099468356372382 -0.99929727069714291
0.45207199999999997 0.20257800000000001 0.14951800000000001 0.020431159476381099 -0.048023564958006221 0.99863722388621934
0.47340100000000002 0.31607099999999999 0.18787799999999999 -0.60386720702299979 0.74704271824568313 -0.27797764909852474
0.49316199999999999 0.39225199999999999 0.109455 0.014281940937795152 0.99921726317085136 -0.03689020390839106
0.496782 0.39217099999999999 0.10889699999999999 -0.021323945224374325 -0.99876098736451846 0.044964202191525811
0.49204500000000001 0.39435399999999998 0.046890800000000003 -0.038119034071168879 -0.99489662281583346 -0.093421887965989978
0.38209599999999999 0.39114599999999999 0.107445 0.3016815918777988 0.93926705256172405 -0.16360202044623146
0.38737300000000002 0.39070300000000002 0.108449 -0.012609213586353377 0.99932187089982849 -0.034594885084369753
0.39056299999999999 0.39058799999999999 0.108572 0.17663948570945148 -0.98408199957791187 0.019522043823310988
0.39162000000000002 0.17715 0.11262 0.29521487153287873 0.94357104211168252 0.15007287601062308
0.39179799999999998 0.17608099999999999 0.110829 0.13084726996286472 0.97528061987276804 0.17806376510636493
0.39131899999999997 0.17768400000000001 0.11148 0.39172762163580588 0.91038513472461757 0.13322303449476952
0.51942999999999995 0.179179 0.114797 0.007931940558011592 -0.99564445817820479 -0.092893472418749887
0.52173999999999998 0.179285 0.113677 -0.0003989031772449218 -0.99634199392426737 -0.08545450262724677
0.52540299999999995 0.179117 0.115089 0.0032426590933049256 -0.99594591122788501 -0.089895645447722619
0.54991000000000001 0.17917 0.11248900000000001 0.022461996823940723 0.99911682504875521 0.035510964548662267
0.447046 0.202927 0.14961199999999999 0.035891243380830072 -0.049420271860120754 0.99813298481607649
0.57361200000000001 0.180482 0.110889 -0.092161593720644891 0.99368860951698457 0.063946758784732494
0.44209199999999998 0.20274500000000001 0.14963699999999999 0.012797418356671206 -0.047455705060044408 0.9987913606658092
0.47117300000000001 0.31406899999999999 0.18690999999999999 -0.56483909034771818 0.78867943154868625 -0.24277882170239479
0.487454 0.394513 0.047466500000000002 0.031881813076580126 0.99500013556077882 0.094648191894937839
0.48242000000000002 0.394594 0.047442100000000001 0.02280865289354916 0.99500082354668162 0.09722719009931001
0.43730999999999998 0.20276 0.14969199999999999 0.0009484287442420589 -0.075360498840873702 0.99715590340596783
0.43255399999999999 0.20293600000000001 0.14971499999999999 -0.029440545302593976 -0.0095060619114067275 0.99952132997711596
0.42732500000000001 0.20274 0.14971899999999999 0.0044974988488706083 0.02575540821482793 -0.99965815729767948
0.42230400000000001 0.20269799999999999 0.14974499999999999 0.014451562385253086 -0.028947247217916524 0.99947646756846154
0.417439 0.20272299999999999 0.14985799999999999 0.038319879339474776 -0.023968689609376436 0.9989780221635598
0.422402 0.17910400000000001 0.11280999999999999 0.077578828563060032 -0.99688068364486115 0.014506134376113568
0.41229700000000002 0.20295299999999999 0.149952 0.041750142381826644 -0.016710945640082513 0.99898832320849051
0.40769100000000003 0.20277400000000001 0.15006800000000001 0.048285071788504511 0.05087491390749746 -0.99753711458636141
0.40301799999999999 0.202845 0.14978900000000001 -0.10447046025488117 -0.046745145245415766 0.99342881694166607
0.398559 0.20280799999999999 0.14941199999999999 -0.13540555525455303 -0.052923183797869401 0.98937579929110009
0.393986 0.20280500000000001 0.14879200000000001 0.17927155466349287 -0.016529137956226729 -0.98366076331576735
0.47746499999999997 0.39467799999999997 0.047130600000000002 -0.018666306911455377 -0.99445854477238327 -0.10345903399645953
0.38830799999999999 0.201018 0.14751 0.62160421550669709 0.0010116143350430134 -0.78333082149289956
0.472443 0.39471899999999999 0.047456699999999997 0.020824663870041667 0.99377347938552041 0.10945595024801519
0.46732099999999999 0.39483299999999999 0.047272300000000003 0.023121970819286391 0.99299269382960431 0.1158916928276456
0.56137999999999999 0.19673199999999999 0.148092 0.073786248581461683 0.11397705748256406 -0.99073953180838148
0.55729200000000001 0.197496 0.14804300000000001 0.047196325166313946 0.11802710458396182 -0.99188815371206129
0.55331399999999997 0.198517 0.14810799999999999 0.026505292501292552 -0.10738927639696663 0.99386367917554819
0.54021799999999998 0.19680800000000001 0.14846999999999999 0.025857787397005897 -0.058396051344287721 0.99795855425880631
0.53689900000000002 0.197741 0.148614 -0.0070551606532157553 -0.059847430634474508 0.9981826034121255
0.53343099999999999 0.197766 0.148674 0.037803775125390453 0.072044308375525667 -0.99668475066941864
0.52756099999999995 0.19663600000000001 0.148643 0.0082214808050137499 0.10114291497163372 -0.99483793554750077
0.52249699999999999 0.19729099999999999 0.14866699999999999 0.013314169071392662 0.10459032927895524 -0.99442626469902651
0.51708699999999996 0.17909700000000001 0.114247 0.014567001500277735 -0.99603215568746428 -0.087793777136389917
0.51750399999999996 0.19745399999999999 0.14871999999999999 0.0067078641980149421 0.074058412234646487 -0.99723134534328817
0.51240699999999995 0.197967 0.14871100000000001 -0.035587095707669117 0.042026431472009768 -0.99848251746178385
0.50753199999999998 0.197467 0.148697 -0.011599394944586445 0.006575722406178269 -0.99991110300454
0.50244699999999998 0.19814100000000001 0.148843 -0.0038633081458965528 0.028354916486558454 -0.99959045291619819
0.57163600000000003 0.17988999999999999 0.113139 -0.12231221028007852 0.98482948738278198 0.12308778979967283
0.388797 0.18332000000000001 0.11171300000000001 -0.94487044850350344 -0.32459539581366492 -0.043100632957745327
0.46251100000000001 0.39499200000000001 0.047140399999999999 0.025881023998441645 0.9922883343630442 0.12121895100935051
0.45746500000000001 0.39513900000000002 0.047196500000000002 -0.034883790109947924 -0.99152086564216035 -0.12517785021235239
0.49796600000000002 0.197907 0.148812 -0.00014768786962940025 0.03268500052003611 -0.9994656917219813
0.49263800000000002 0.19711999999999999 0.14877499999999999 -0.010531463370724879 -0.071899098606185263 0.99735630939944886
0.60256900000000002 0.18740699999999999 0.086291699999999999 -0.096564094059549049 0.026908965824543898 -0.99496295574092208
0.48717500000000002 0.19819700000000001 0.14876500000000001 -0.00094333995381065162 0.061269740275129235 -0.99812079881963689
0.48280699999999999 0.19789100000000001 0.148868 -0.0081817289434337314 0.035677903147332733 -0.99932984871788244
0.47762100000000002 0.197935 0.14890600000000001 -0.009653503151154973 0.043187385730221885 -0.99902034993822808
0.47256900000000002 0.197932 0.14895 -0.013589727881600988 0.024111456643362408 -0.99961690509646706
0.46706599999999998 0.198044 0.14906 -0.027327548002198193 0.021719755998419653 -0.99939054294082486
0.462455 0.198293 0.14921200000000001 -0.045283717647607066 0.052638266712948509 -0.99758638613077932
0.45752999999999999 0.19786999999999999 0.14928 0.022448954963341851 0.054998316415372443 -0.99823405552632194
0.45233699999999999 0.197715 0.14932200000000001 0.0059580906634106876 0.065140653284036565 -0.9978583047935089
0.44707999999999998 0.198156 0.14938499999999999 -0.030719142533509623 0.041454568349894666 -0.99866803946302907
0.44187399999999999 0.19795399999999999 0.149422 -0.025026563864361046 0.066177480031381006 -0.99749396601575457
0.43722100000000003 0.19769 0.14938199999999999 -0.019639116166927931 0.063479583339156168 -0.99778988149573311
0.432753 0.198128 0.14941099999999999 -0.0079735288595295314 0.044137160044082878 -0.99899366061090156
0.42755399999999999 0.19811599999999999 0.149427 0.0078502339343670333 0.050538409846769036 -0.99869126508512918
0.42249900000000001 0.198099 0.14940600000000001 -0.0088720884111188683 0.057024304963934319 -0.99833336851504928
0.41771599999999998 0.19778100000000001 0.14945900000000001 0.043032926743761836 -0.10499357321704268 0.99354140165318905
0.41250300000000001 0.19794700000000001 0.14962800000000001 0.030813399381352649 -0.11083356442915587 0.99336119081353946
0.62080999999999997 0.18853900000000001 0.087099999999999997 -0.072051334512551621 0.013406144475610463 0.99731082440995256
0.65280499999999997 0.18636 0.088893399999999997 -0.28845661072988882 0.16043898653914901 -0.9439555685118427
0.40769300000000003 0.19807900000000001 0.14976500000000001 0.057230299060052059 0.085976053772874372 -0.9946521055359715
0.40296599999999999 0.19809199999999999 0.149566 0.10073170084477949 0.066748301795283738 -0.99267204486293636
0.35295599999999999 0.19216 0.084382200000000004 0.014893703682425119 -0.11210563159339774 0.99358467427575869
0.39863199999999999 0.19795199999999999 0.149316 -0.075502047642170625 -0.069989705473557554 0.99468632338519847
0.394289 0.198073 0.14877299999999999 0.15380679809685593 0.076417215187858684 -0.98514155230714207
0.3911 0.19806499999999999 0.148231 0.45328287015432683 0.11583318734417886 -0.8838084138173522
0.38812799999999997 0.19825100000000001 0.147508 0.73358461129055919 0.030529562249169553 -0.67891204430806273
0.57268399999999997 0.1797 0.11319700000000001 -0.12479264154938111 0.98551778332788864 0.11481069357691685
0.57611199999999996 0.19305 0.14824499999999999 -0.10818570237534982 0.052449491897668288 -0.99274614308051001
0.57367699999999999 0.19376099999999999 0.148535 -0.10713708660828973 0.061087421795290447 -0.99236584562926811
0.38810299999999998 0.18795100000000001 0.112098 -0.99565002251452184 -0.090693654296428783 0.02134698426458009
0.45238 0.39530199999999999 0.047397700000000001 0.040100984688946892 0.99137074857447238 0.12480364537090793
0.38682100000000003 0.186034 0.112539 -0.98659299860142002 -0.16142600830837989 0.023997894746854195
0.56169100000000005 0.19300999999999999 0.14772099999999999 -0.1052753895395046 -0.083135967883815456 0.9909619080475931
0.38775500000000002 0.19264600000000001 0.112236 0.99910591260652737 0.037882519385926017 0.018769393161564202
0.44745099999999999 0.39552700000000002 0.047251799999999997 -0.042113319578743397 -0.99120282316359731 -0.1254728323844361
0.45390900000000001 0.31435800000000003 0.23186300000000001 0.39719407919384092 -0.84808575946833209 -0.3506956059610381
0.38761600000000002 0.19759199999999999 0.112038 -0.99912810097279703 -0.020100094607837612 -0.036592677453942006
0.357346 0.19212899999999999 0.084588200000000002 -0.023846087994352345 -0.09756276361674257 0.99494365229535953
0.38694000000000001 0.199047 0.11210199999999999 -0.9989176241180816 -0.01481305917842346 -0.044092556107163824
0.38753199999999999 0.20258499999999999 0.111804 -0.99941183323533633 0.0166166154895265 -0.029997927909403359
0.362373 0.192276 0.085010100000000005 -0.12529205427030504 -0.057553387176268171 0.99044914496468017
0.36709399999999998 0.19195799999999999 0.085952299999999995 -0.21872339703952734 0.015557743231799544 0.97566286811225056
0.38767600000000002 0.20749899999999999 0.11232399999999999 0.99799603916456947 -0.042036871674882903 0.047294896464847941
0.37115799999999999 0.19164700000000001 0.087030099999999999 -0.29872032725285041 0.058541156789780315 0.95254348932091504
0.45783299999999999 0.31611099999999998 0.23202999999999999 0.32347299416463432 -0.86976063886702681 -0.3726682883259424
0.38785199999999997 0.212339 0.112141 -0.99880867572183762 0.04411644794645514 -0.020855894211871687
0.467501 0.31839000000000001 0.23275199999999999 -0.14516496822138597 0.90711744702881847 0.39505071737335529
0.60262899999999997 0.192388 0.086476200000000003 -0.047905625314659979 0.001525488955190937 -0.9988507015298429
0.388069 0.217446 0.112051 0.99900631811374907 -0.039714385195160309 0.020227307714595612
0.61214599999999997 0.19229099999999999 0.086511500000000005 -0.027529663917677971 -0.00023880155801616048 0.99962095845295096
0.61702900000000005 0.19214200000000001 0.086846199999999998 -0.048630400449840842 0.018755059605108978 0.99864074215470355
0.38833200000000001 0.22242799999999999 0.11208700000000001 -0.99970473334873722 0.019431599432952647 -0.014589690319111365
0.34718300000000002 0.19737199999999999 0.085932099999999997 -0.036312859160623261 0.13210866676538319 -0.99056987457980639
0.47228300000000001 0.31889400000000001 0.23285900000000001 -0.098495432931044874 0.91507104015905461 0.3910800955737227
0.38839299999999999 0.22736100000000001 0.112163 -0.99991342771690805 0.013101320381904945 -0.0012216692164677898
0.35307500000000003 0.19695699999999999 0.085369799999999996 0.051803989982603493 -0.12703842287184902 0.99054408571053287
0.55788400000000005 0.19300500000000001 0.147422 0.037514199847559875 0.062571804960840915 -0.99733517637439206
0.54049599999999998 0.19200800000000001 0.14784700000000001 0.039069879941096584 -0.096496964432979698 0.9945661769518449
0.53745500000000002 0.192995 0.14808499999999999 0.0015867540985922204 0.098724590550125418 -0.99511352992115443
0.53203199999999995 0.192801 0.14804800000000001 0.044603627137546994 0.099666754442683719 -0.99402065094495684
0.38851799999999997 0.24257500000000001 0.11194800000000001 0.99997780000240033 -0.0041231919105308885 0.0052343854298414578
0.38804300000000003 0.24262400000000001 0.11283899999999999 -0.99999659078012415 -0.002059561501015075 -0.0016051898805245521
0.38851999999999998 0.24716299999999999 0.11221299999999999 -0.99996394339466022 0.0017998171174717016 -0.0082989498699797826
0.35747000000000001 0.19725000000000001 0.085148299999999996 0.010846293356415791 -0.078853243314402369 0.99682722873085006
0.38802199999999998 0.24773899999999999 0.11305800000000001 0.99986553589241411 0.00063962384010932604 0.01638600060778805
0.38845400000000002 0.25239600000000001 0.112119 -0.99998402828612898 0.0019744196302364948 0.0052957378872270115
0.36208400000000002 0.19748099999999999 0.085292199999999999 -0.04391103889864674 -0.056302486597510977 0.99744766813391206
0.388017 0.25197599999999998 0.112537 -0.99999033151115824 0.00060405434010054292 0.0043556862327854837
0.38843499999999997 0.257407 0.112106 0.99976458090473797 -0.021629077442670654 0.0017221432441879292
0.388021 0.257357 0.112765 0.99977765622766857 -0.020466072926544898 -0.0050772006928557047
0.38840200000000003 0.26229999999999998 0.11258600000000001 0.99991554317093689 0.0012906358130978391 0.012932160854529971
0.38843800000000001 0.26280399999999998 0.11024399999999999 -0.99981730153994908 0.0082242644220036631 0.017254709968329719
0.366983 0.19716800000000001 0.085812899999999998 -0.15263165403187484 4.8897518400845691e-05 0.98828314555927077
0.38846700000000001 0.26758799999999999 0.112042 -0.99984927308169635 0.0029304912693538694 -0.017112666037880135
0.38844299999999998 0.26610699999999998 0.10957699999999999 -0.99987892054623118 -0.0020547389882377802 0.015424729981244174
0.38803799999999999 0.267681 0.112791 -0.99978942871323739 0.0026036392328338525 -0.020354834708332097
0.38865499999999997 0.27197900000000003 0.112521 0.99956400351048669 -0.010161891026768509 0.02772253337715519
0.44241799999999998 0.285995 0.18764500000000001 0.82010787585731271 -0.18352354163217263 0.54197987197274311
0.3881 0.27258500000000002 0.112653 0.99927545953088059 -0.017277920671797165 0.033912083931933144
0.38869399999999998 0.27734700000000001 0.112238 -0.99892760513765011 0.01849962650364078 -0.0424429442096644
0.38824500000000001 0.27779700000000002 0.112896 -0.99868616928032961 0.018054644800160682 -0.047957951262761166
0.52733699999999994 0.192662 0.14816699999999999 0.009879786745717524 0.06401327188622688 -0.9979001407136282
0.52230200000000004 0.19247400000000001 0.14824300000000001 -0.012872318334169901 0.070917164778102601 -0.9973991473630498
0.51785800000000004 0.19251099999999999 0.148228 -0.049727575286254974 0.043583383087597807 -0.9978114335758983
0.51225100000000001 0.19292699999999999 0.14829500000000001 -0.021094133899982027 0.033764757648083954 -0.99920717504228118
0.50733399999999995 0.192995 0.14846899999999999 0.0013978972698320581 0.056457411454336193 -0.99840402972699338
0.50251000000000001 0.19298299999999999 0.14846000000000001 -0.0073254792341829033 0.051393297926816114 -0.9986516240822898
0.49719000000000002 0.19296099999999999 0.148337 0.01860657393059072 0.067010025605726956 -0.9975787948201813
0.49267499999999997 0.19292599999999999 0.14836199999999999 0.013442923255150851 0.09511502562682897 -0.99537551693537452
0.487431 0.19348199999999999 0.148281 0.029942018391548982 0.10381291829114232 -0.99414604235520465
0.48232999999999998 0.19333800000000001 0.14838799999999999 0.016945846352531366 0.099345251872950194 -0.99490871903994094
0.47725400000000001 0.19342899999999999 0.14851800000000001 -0.03641117453508351 0.098339371273050757 -0.99448659841477838
0.47224899999999997 0.19314000000000001 0.14845 -0.033587982731684396 0.10820264944182302 -0.99356128853221015
0.46750000000000003 0.19347400000000001 0.14856900000000001 -0.023660589454428119 0.10209747606746003 -0.99449297729412034
0.46231299999999997 0.19273899999999999 0.14865 -0.019842975828569795 0.11141418644364687 -0.99357593336864169
0.457287 0.19312699999999999 0.14879200000000001 0.017808138378952475 0.11616980994747217 -0.99306970826032381
0.45280599999999999 0.193412 0.14885499999999999 -0.0026293899461579465 0.099176842100523008 -0.99506634969708363
0.38995200000000002 0.32123000000000002 0.10926900000000001 -0.99997128950643654 -0.0028886430339748236 0.0070054196345797791
0.447023 0.19332199999999999 0.148892 -0.012660044626594109 0.099540358328366607 -0.99495298398161169
0.44220399999999999 0.19306899999999999 0.14896000000000001 -0.011301059478998503 0.12029308142385739 -0.99267409587245969
0.43726199999999998 0.193463 0.14902299999999999 -0.008614418172773957 0.12262269494481484 -0.9924159745207729
0.43226700000000001 0.19311300000000001 0.14897199999999999 -0.017012351999986356 0.12180866386382858 -0.99240779384642952
0.42751099999999997 0.19309699999999999 0.14896599999999999 -0.0020694309345709113 0.11604567689250206 -0.99324172200435068
0.422296 0.193301 0.14906 -0.007953636304631858 0.1227267942255803 -0.99240862231675819
0.417406 0.193274 0.149093 0.032278897768864404 -0.11928382597453081 0.992335347359805
0.41238200000000003 0.19314600000000001 0.14916399999999999 -0.0014096879216386055 0.14835534282943844 -0.98893311454007005
0.40779500000000002 0.19348099999999999 0.14929899999999999 0.04378973408812184 0.16774056809137369 -0.9848581425793641
0.40307100000000001 0.193296 0.14910300000000001 -0.053841147032275716 -0.15420489761288939 0.98657081876490105
0.39856799999999998 0.193632 0.14884900000000001 0.078798499526740173 0.098337766276529723 -0.99202846743229944
0.39417099999999999 0.19370599999999999 0.14816799999999999 -0.14982782324899679 -0.10889169986453355 0.98269742091911494
0.39132499999999998 0.19359299999999999 0.14782000000000001 0.32943461266927732 0.1341619861309179 -0.93459798707939168
0.38720900000000003 0.19465499999999999 0.14736199999999999 0.71754367700487309 0.090819591113874124 -0.69056706659109857
0.57825000000000004 0.18665799999999999 0.14729300000000001 -0.216963964874715 0.28948428190664366 -0.93226900006105473
0.577156 0.188384 0.14774699999999999 -0.19185311489595108 0.18332454198033588 -0.96414962252361081
0.55725400000000003 0.18867 0.146594 -0.030228509620862969 -0.096270771545012276 0.99489606278858578
0.554531 0.18757399999999999 0.14640600000000001 0.069728627853025263 0.13909343960074499 -0.98782130647084554
0.54103500000000004 0.187945 0.14713699999999999 -0.037384827114868291 0.15939855656904772 -0.98650619606026591
0.53764999999999996 0.18800600000000001 0.14735899999999999 0.048858309440566849 -0.20085065944023522 0.97840271780133192
0.53248899999999999 0.18768000000000001 0.14743300000000001 -0.050795799085691241 -0.15416484806438074 0.98673856031703366
0.52749900000000005 0.18784999999999999 0.147595 0.014436789643362565 0.021949101807173958 -0.99965484845253061
0.385461 0.385519 0.114165 -0.69032931013921228 -0.65711245951708341 0.30273529544823297
0.52252500000000002 0.18813199999999999 0.14775099999999999 -0.0029569404173403063 -0.036417094725790487 0.99933230294787367
0.481097 0.31896600000000003 0.23420199999999999 0.08480754054756795 -0.88922475626814823 -0.44954089236255801
0.39154899999999998 0.38931100000000002 0.111668 0.29607539657158899 -0.95015497818277372 -0.097697886258961933
0.40839300000000001 0.39298499999999997 0.11161699999999999 -0.045569042529859355 0.99893396657100375 -0.0073751470245012954
0.41250599999999998 0.39274700000000001 0.11246100000000001 0.066955237914569768 0.99750282504764254 -0.022474655453982261
0.41766300000000001 0.39210699999999998 0.11272500000000001 0.071158374187618584 0.99715397749733603 -0.024908451260914066
0.42096099999999997 0.39206099999999999 0.11051800000000001 0.038816082005725082 0.99804108677757342 0.049064252583375406
0.43445600000000001 0.39266499999999999 0.112829 0.084497264456083979 -0.99619436962672692 -0.021377329661273627
0.43718099999999999 0.39299200000000001 0.11210199999999999 0.063424909894980397 -0.99783205709001577 -0.017563218620775076
0.44209599999999999 0.39318399999999998 0.11104899999999999 -0.011806013934671223 0.99992336134648785 -0.003726857726735935
0.44728699999999999 0.39317400000000002 0.112188 -0.027748472356052857 -0.99940376930838937 0.020545758055834612
0.51757799999999998 0.18790299999999999 0.147787 0.044327199706157741 -0.073694098349331785 0.99629527713157873
0.512934 0.18770300000000001 0.147812 -0.035117714853462031 0.091277957944578075 -0.99520604926665268
0.50724499999999995 0.188281 0.147977 0.011712836568317724 -0.097724322999947544 0.9951445956009235
0.50254200000000004 0.18812599999999999 0.148005 -0.014153549766160494 -0.098682736078822941 0.99501828859022223
0.497693 0.18843799999999999 0.147951 0.031034453626096567 0.088044391828754759 -0.99563298848302251
0.49266599999999999 0.188696 0.14788000000000001 0.0095698312605554687 0.079391678922673958 -0.99679756201923153
0.48222100000000001 0.39244299999999999 0.112147 -0.0043629020704333485 0.99957957838996148 -0.028664116090865877
0.487597 0.39250099999999999 0.11239 -0.0015524665761876932 -0.99900967933487594 0.044466284337216312
0.44244499999999998 0.39572499999999999 0.047258599999999998 0.037258960906974593 0.99138359039376656 0.12558004033323533
0.49840099999999998 0.392266 0.110045 0.019455275517715365 0.9978788092428561 -0.062123862714657238
0.50260199999999999 0.39220899999999997 0.110278 0.029032342258146125 0.99610877633996564 -0.08321315281553808
0.50820200000000004 0.392092 0.110954 0.031869316615790372 0.99318676288534791 -0.11209103749973201
0.51277799999999996 0.39213999999999999 0.112146 -0.028517473072630001 -0.99114679912361126 0.12967180231866735
0.48754599999999998 0.18865100000000001 0.147762 -0.0011871548014544555 0.094558156909840277 -0.99551863148074293
0.482298 0.18853800000000001 0.14766099999999999 -0.009143920240969397 0.10398807208913671 -0.99453650993103893
0.47759200000000002 0.18860099999999999 0.147839 0.014930793114589461 -0.10493195082510169 0.99436731498627173
0.47264299999999998 0.18890799999999999 0.147901 -0.0031004537164099275 0.16097107825259768 -0.98695425382990698
0.467725 0.188834 0.148064 -0.0048094639375241225 0.1883865565197177 -0.98208318098788172
0.46211099999999999 0.188499 0.14809800000000001 -0.0078054818353569776 0.19895688270703871 -0.97997715956894416
0.45729599999999998 0.18881800000000001 0.148285 -0.012496664925682674 0.12204098973480285 -0.99244638655712036
0.45249099999999998 0.18854799999999999 0.14829899999999999 0.00046088849694077955 -0.1339745536460239 0.99098466514731809
0.44725399999999998 0.188717 0.14829200000000001 0.0028538452512147749 0.11603170149838041 -0.99324141064228344
0.44236900000000001 0.188503 0.14836099999999999 0.0029997430743157263 0.17558584702504054 -0.98445955318945766
0.43800099999999997 0.188551 0.14841199999999999 -0.016283365571385332 0.15632747266690641 -0.98757104721394384
0.43244500000000002 0.188468 0.14838699999999999 -0.012166504630759833 0.18031969832877404 -0.98353280705815305
0.427398 0.18832399999999999 0.148394 -0.00068744179981802182 0.18169700332843178 -0.98335432393681943
0.37785000000000002 0.39332099999999998 0.112244 -0.30860288326902763 -0.93764353976076065 0.15996516115377885
0.38232699999999997 0.39031199999999999 0.11285100000000001 0.37259420722030079 0.92311153313030903 -0.095071836774548085
0.38812999999999998 0.38858999999999999 0.112495 0.1312251223545271 0.99120768600664422 -0.016949644963648657
0.43745499999999998 0.39588600000000002 0.047373100000000001 -0.025157624657571993 -0.99279431362589332 -0.11716033780115326
0.39727800000000002 0.39018000000000003 0.11273900000000001 0.22291434665920618 -0.97478654311368085 -0.01001945197997961
0.40247899999999998 0.39215100000000003 0.11236699999999999 -0.19831190819254246 0.9801361806735408 -0.0023354664880408729
0.60246699999999997 0.19741900000000001 0.086439199999999994 -0.02975518659131924 -0.026672729944585152 -0.99920127819584903
0.42251899999999998 0.391706 0.11278299999999999 0.042586416751132804 0.99907000401791091 0.006747160880723844
0.42724899999999999 0.39199499999999998 0.112612 0.05495474950240152 -0.99806157071024393 -0.029207474703040935
0.431535 0.39241799999999999 0.112668 0.090416381186522829 -0.99544727861033988 -0.030159468171724265
0.438469 0.39308500000000002 0.114665 -0.06602148993832134 0.99763249200217452 -0.019250292669337223
0.441695 0.39327899999999999 0.113541 -0.029966082234634886 0.99944584020345062 -0.014492978145496403
0.48766599999999999 0.39234400000000003 0.11085100000000001 0.005645846189202294 0.99951457810093514 -0.030638743194156829
0.49258800000000003 0.39252799999999999 0.11272500000000001 0.0042079959301147343 0.99816923127248058 -0.060336378008279692
0.49782500000000002 0.39247300000000002 0.11253199999999999 0.0093552389811736684 0.99724982781800053 -0.073520476199310028
0.50210999999999995 0.392343 0.112091 -0.017426813864247048 -0.99546390256472517 0.093530341863741734
0.50773900000000005 0.39224199999999998 0.112164 -0.025593747252619748 -0.99297012903868931 0.11556505933221006
