0.50278287270325595 0.17940815938873464 0.13092968677692043 -0.00045247929314643902 0.99763599574343242 -0.068718376432360076
0.41354152859098936 0.27716941290687847 0.26217178595986818 0.98992017679004107 -0.024197759418115576 0.13954394298254857
0.51208352607359842 0.17947921885949758 0.13464518982117601 -0.0055731341267600196 0.99750888698733553 -0.070320413517642427
0.51908694496396623 0.17975226402695868 0.13330944731052449 0.00028886413589356913 -0.98730336681825714 0.158845769307353
0.55214807762042961 0.17908747617111195 0.13351267306730399 -0.035726547834239751 0.99618949788126732 -0.079561913569975801
0.49146482944545233 0.3913763123418928 0.079547574250004638 -0.028081898551589411 -0.99627107825963412 -0.081580301526313334
0.56139736512048188 0.17928133342519567 0.1333934934160331 -0.041741739549870753 0.995805313000102 -0.081421162974497155
0.54776796355506452 0.30227331059697765 0.1574961164428493 0.53453921161571194 0.59085899246347762 0.60427930815997433
0.41751291826437575 0.18062468548790067 0.13538388530676623 0.033436319940635902 0.99673248890076838 -0.073527940801488473
0.53832242923773255 0.30958824744297075 0.15870963230455859 0.53463882679266572 0.59119039259115025 0.60386690966941003
0.58101532524744015 0.180145867902653 0.13385836956110106 -0.050776144649448594 0.99517006844567124 -0.084013796512098379
0.43654610520428705 0.30243522129535622 0.15788322187451542 -0.083972191738313023 0.0019437603823778777 0.99646620254288598
0.38837111458795648 0.2023566956799856 0.13253109148542924 -0.99785986044625741 0.019238553287408922 0.06249461558873104
0.38851517505291222 0.20761549880666752 0.1326636773267684 -0.99784808019297422 0.019195255338047362 0.062695701827977957
0.38857226953107726 0.21194990583034998 0.13158356847882016 0.9639159797008372 0.00086446272387753157 -0.26620525310664733
0.3887124507208658 0.21254961014215704 0.13216554647480114 0.96384744883622597 0.00083590960913483407 -0.26645336670236353
0.38998587913908606 0.28307918193070764 0.13345043843698426 0.98191405595112136 -0.00090235641096920506 -0.18932504450950383
0.39110581305299785 0.29726380750827663 0.13308252471502466 -0.99879267684046358 0.00328006680359719 0.049014588151132257
0.39116423794847238 0.30287956099147795 0.13298121844340546 -0.99890233053315625 0.0018923852841371781 0.046803343185776017
0.39122619584155027 0.30727851327589656 0.13263622971936553 -0.99904530890628829 5.4717356206181005e-05 0.043686013303458789
0.39135625856267764 0.3176856481908395 0.13253095853132932 -0.99931257695163433 -0.0039269475079919932 0.036863974684691513
0.39141874738711957 0.32257061046091201 0.13250512981105189 -0.99944381307491026 -0.006313579083953501 0.032744514432718981
0.40201645494809429 0.39522084928792567 0.076908046473881483 0.023131713405257551 0.99569876144930847 0.08971566353346587
0.40538608046340768 0.39390919874477931 0.078429347224022866 -0.00083308552924897831 -0.99404630905281566 -0.10895522670792362
0.3914472377951454 0.32743241314175803 0.13251689779213122 -0.9995304277489454 -0.0081702507969729759 0.029532541474192285
0.49269014325307531 0.16859925003471335 0.016798677314371672 -0.0048288189930041575 -0.98748861266981336 0.15761637717756388
0.47726806393891147 0.39594116975176125 0.020137042612190341 0.032775782302309577 0.99633505858155147 0.079007589102364495
0.47229517758745465 0.39607522382460109 0.020483033059881792 0.03316323647215904 0.99623412567915159 0.080110964162143666
0.46717594982678085 0.39619424696420236 0.021716034117715444 0.03371572792726811 0.99609731050643979 0.08156836207851427
0.4625559499109419 0.39643221970029102 0.021864704008282346 0.034434027098110026 0.99591185734927656 0.083509701046769844
0.39137134996316059 0.35275255760085622 0.13262029209388052 -0.99975727064107611 -0.018971567871150213 0.011201759362548143
0.39089779480133358 0.37752881065491223 0.1327046585481354 0.99949395099912552 0.024276829234984337 -0.020554256942371941
0.44722713308142575 0.39741174910441784 0.022205406488955973 0.036800185698591975 0.99523879158698547 0.090252390843821376
0.56724642396300928 0.28802155996381162 0.15226988798568999 -0.11010205565703791 0.011948344755601597 -0.99384846651675018
0.56520221420018446 0.28566993258025625 0.15263768759201304 -0.11125137029601474 0.016166418802818192 -0.9936607970078879
0.39071313706650784 0.38248259744955659 0.13259134788278371 -0.99964288840143822 -0.026685962641716455 -0.0013982368593127689
0.44258015841212989 0.39770772288830919 0.022730284011263955 0.037462254142102913 0.99502592292305114 0.092303803961282488
0.43262017827459243 0.39300387261847874 0.13260254406826585 -0.00306901628984789 0.99952148826243414 0.030779467842399742
0.43784584776690716 0.39307450616836359 0.13310994578025703 -0.0014518492969517265 0.99962628626644789 0.027297984152104906
0.44272094455772815 0.39310115889712915 0.1330541508704069 -1.6943649309254872e-05 0.99968787198568454 0.024983160681669739
0.44763192378685507 0.39312467956076874 0.13261425036687988 0.00097658295481111205 0.99972994724612885 0.023218071948046103
0.50238958170639936 0.17542780689668483 0.08217610310466214 -0.0052315716080199737 -0.99140488617405764 0.13072483439925997
0.4775189457761605 0.39301033196624025 0.13311064551819465 0.0092905297338524775 0.99988084918487607 0.012327752860746952
0.5126332363293109 0.17497458558696971 0.081932157231495856 -0.0033553154315480518 -0.99114687855980999 0.13272756676553688
0.57698891144209552 0.28216237154731766 0.15136653921369281 -0.11364235064223976 0.020769138199097321 -0.99330461543223136
0.52118432630755673 0.17465508661822174 0.082040302499688009 -0.00091377800642821957 -0.99088385593805361 0.13471580846763889
0.52895367777752911 0.17436541004624134 0.082804410053316971 0.0030597040221979205 0.99595062659900258 -0.089849805722386489
0.53341346528018374 0.17421794207732216 0.081639004338039362 0.003106532209979986 -0.99045488921730218 0.13780225645166413
0.49252754703196611 0.39278902416441008 0.13277991072819426 0.014915870581689019 0.99984862331380375 0.0089580836277547947
0.49754215666639595 0.3926900692956618 0.13268880545659886 0.016259686611950274 0.99983167009402474 0.0085002393068903236
0.50271501781335648 0.39255709498616204 0.13306689844258077 0.018091511569927804 0.99980146928218705 0.008349804206994384
0.5525064364143385 0.17325149635135448 0.080619575770218332 -0.012244681734780901 0.99568331551265599 -0.092004363912472562
0.50732974547368692 0.3926504898453087 0.13287848184544915 -0.029143112961283781 -0.99895269993293456 -0.035272967887975341
0.56654660233254139 0.27839690912978476 0.15265916808110777 -0.1137696691172357 0.024680839366282816 -0.99320054297061799
0.56304835657011432 0.27778570174093409 0.15304718594100014 -0.11317211389881661 0.025034556451510773 -0.99325995772453712
0.55852616792899656 0.27610070466866515 0.15364192815656352 -0.11306128329349592 0.028000123553308665 -0.99319340478127793
0.42234413257869485 0.39284911516684567 0.13257750951876413 -0.0072999147777231084 0.99926542233828952 0.037620831507526854
0.52833442678678477 0.17915237114797622 0.13433905399713988 -0.016992581736419224 0.99710652719769632 -0.074093357230460621
0.54391355002573771 0.18098516629029987 0.13837830947597335 0.0099073431634534546 -0.98859299525730637 0.15028550921372624
0.62775680641841025 0.1686024417555016 0.085629611273274772 -0.018293324183583749 -0.091744112035201275 0.99561457010089338
0.58231325170465975 0.27234210929109443 0.1508875374297714 -0.11648536646947243 0.032436976775977247 -0.99266258211746228
0.4029933057578941 0.1810321011738511 0.13610275396602134 -0.017369291518110529 -0.98947297412416169 0.14367164365331409
0.40762178477924549 0.18106875168148745 0.13672393951474549 0.03661143478744492 0.99639101462944535 -0.076580342180674235
0.5571803047240026 0.27280847141653736 0.15444434565243284 0.099425283741129411 -0.1947636541965504 0.97579799751639296
0.3244762853528923 0.17419362731715463 0.078855726466055195 0.96216025827320872 -0.031214442455386345 -0.27069040615033196
0.55380512545319394 0.27136872271389317 0.1545744044154449 0.099483514395033112 -0.20204369791526075 0.97431071763392818
0.43269905744805559 0.18041182358070759 0.136235962933693 0.024855416915667193 0.99740799562476168 -0.067524058777178153
0.43736417820422047 0.18039917790793761 0.13663801110938484 -0.0093460890679842139 -0.98243529998535584 0.1863693428700578
0.44244548673920464 0.18033181187986658 0.1358358040636404 0.020491374021286129 0.99764362662310413 -0.065477460618293348
0.44783918088700059 0.1803588502395358 0.13651282655802927 0.018629317196770322 0.99773414012982731 -0.064649316780429636
0.50280150608062679 0.18014478419721555 0.13787355475638802 -0.0031135363062150746 -0.98243326975719225 0.18658825355809985
0.50782630532975082 0.17976915670857019 0.13759102821148206 -0.0029137840077111889 0.99763029669408221 -0.068740824702893041
0.53205037174647773 0.17937946152853748 0.13765468233082587 -0.019716618779422216 0.99704050077481776 -0.074306761190401902
0.54077073816205734 0.18086107783542549 0.13791980495026671 0.0087090696366389896 -0.98872694791779125 0.14947633447216119
0.56763271394247494 0.18146929017715982 0.13740504233243536 0.014953060299782663 -0.98855456873697622 0.15012085337128223
0.58164603498290202 0.2675664095237934 0.15096132651372016 -0.11709509209909649 0.037039035460159776 -0.99242977044145808
0.58173624280921443 0.18199960527880998 0.13807888940044888 0.016694880189248022 -0.98822079215414693 0.15212148740298603
0.56427040092939817 0.26580483191028964 0.15231882422254522 0.087008814551607458 -0.17304814525710893 0.98106259005906382
0.4171718889211134 0.17673018036137605 0.082180478299559309 0.00353441577090685 0.99482265085918753 -0.10156476378477593
0.4221936695071275 0.17679892817475923 0.08218929587362668 0.0035684464193465998 0.99505628200815643 -0.099248485259254032
0.42760399925791004 0.17705196243259463 0.081813050174983123 0.00044686256351326244 -0.9924659373162068 0.12252005379084806
0.55349090260051459 0.26694149607639994 0.15366800209809184 0.091567232859170566 -0.19150843071383827 0.97721029611442256
0.4377539109935667 0.17691266210574652 0.081447439016894968 0.0046891812943650364 0.99564913640267338 -0.093063466298001163
0.44239740763910457 0.17690183635164244 0.081009357753430475 0.0048392775127307983 0.99571656465438707 -0.092331491193528306
0.44770968746495693 0.17696316664231337 0.081588926098737247 0.0056487256504494541 0.99584742234679957 -0.090862551712798584
0.54400637591890255 0.26529743906429376 0.15498353715151941 0.11417704915548593 -0.26866439980266182 0.95644291085501865
0.39092273946045636 0.2776594795558453 0.13666834323876442 -0.99828510925641756 0.0093361607540148432 0.057789936314877374
0.39124442687582711 0.29268348312970538 0.13763535639496619 -0.99865310863257717 0.0051133528075133494 0.051631601191092516
0.58154796685258747 0.26205067769614404 0.15091401198906099 -0.11809191653907421 0.042339085309526819 -0.99209964272913687
0.50225627588816446 0.16815791720106715 0.016751641968648107 -0.0034810257054983407 -0.98780357953854536 0.15566621570165559
0.5672946321343515 0.26242403685866694 0.15149591031589296 0.08330118357305949 -0.16787022619897016 0.98228330942311859
0.56260316013235057 0.26238967970026178 0.15318408646746859 -0.11481110264445238 0.045298477479653758 -0.99235399865551521
0.55821770468456922 0.26181879756892507 0.15367457543845187 -0.11353841303835312 0.046966458451876289 -0.99242288392863076
0.55278810008628376 0.2619391317818654 0.15427595827722296 -0.11159614035536601 0.048087087279269101 -0.99258950905940035
0.53212880224058334 0.17415286568315552 0.080454086042299283 0.002573586976610602 -0.9904939107972256 0.13753250279003698
0.46535341629061233 0.33249984219289203 0.2826478177493319 -0.96437328780836329 0.2439952464012563 -0.10222759654456269
0.38795690518307552 0.39081150945695403 0.13821799588850281 0.036983172053649704 -0.99349064003168575 -0.1077431814746596
0.4523360322295068 0.39373322040269298 0.13819781371952986 0.015104420366999544 -0.99792501414485979 -0.062590116067621784
0.4674442705422388 0.39315666661852477 0.1381419090986061 0.0063390958222743895 0.99988895840100478 0.013486538915148607
0.48275231906978644 0.39299787033028977 0.13807080267005922 0.010716979163274324 0.99989207574840022 0.010049040410373701
0.58138002135126032 0.25778229278887249 0.15083977903513779 -0.11829234557150441 0.045877282092931487 -0.99191844219520253
0.56762176104851358 0.25757765270670469 0.15078462494560829 0.078315188453129569 -0.16256896776937271 0.98358429327432406
0.56235182898363367 0.25743179857062043 0.15119703739360621 0.078549595571951264 -0.16526758768148361 0.98311575386493832
0.55734822435066711 0.25766047743349435 0.15168251171340788 0.07828024638926824 -0.16837260377017904 0.98261023265834446
0.55267750977272334 0.25711679009585603 0.15195651496282328 0.079272628359573591 -0.17630633002286525 0.98113807814539211
0.5470239890974351 0.25748117543648991 0.1525461875209691 0.080427775849873234 -0.1842450447810379 0.97958416501364276
0.44452027446456971 0.30840475681451118 0.26819671436396902 -0.57695534566098883 0.81444789452488153 0.061621069588219682
0.46988203891058755 0.29728044202713716 0.27116597279605109 -0.63638617831209021 0.64502159122464164 -0.42303638012275468
0.60215614193803135 0.17168892568703989 0.085374076247399663 -0.020183367808622812 -0.08997796633461104 0.99573922150239191
0.44477309712522733 0.30775274314252543 0.27105169416706515 -0.57888429365564698 0.81284012656869886 0.064683098245091844
0.61229572946659505 0.17227450014736037 0.085645630158479411 -0.019651980622054178 -0.089755471202799961 0.99576993078059639
0.61721032707958334 0.17249957463440857 0.085769691824458025 -0.019326984723924089 -0.089933734009698577 0.9957602076547114
0.62244679043527751 0.17199159935665947 0.085832270640693625 -0.018916314287865263 -0.090373542598246384 0.99572827410494158
0.62749330062018771 0.17115954301023573 0.087306461344194466 -0.017894655852244385 0.039284016128378806 -0.99906783922251996
0.63241603692305315 0.17076543157846719 0.085913347161512457 -0.018016483012846005 -0.091073980577209168 0.9956811419333349
0.46493768678002845 0.29632472265582144 0.27680713957444997 -0.63798630812938539 0.64114324708516235 -0.42650768733579869
0.64246868296953696 0.17030775752214497 0.086045243497128943 -0.016986983883392308 -0.091908249924677346 0.99562257707141644
0.46226078055922121 0.34641413908787855 0.3131185906244805 -0.15130449265231341 -0.98439594097356031 0.089841982936735329
0.58919933792557055 0.19093255264405892 0.14273270234788954 -0.57852265641487455 0.21872445338195376 -0.78579332493184395
0.56807199059521751 0.25247497765119115 0.1522683812243773 -0.11597177759442782 0.052362662294180067 -0.99187131141043405
0.56284230170844951 0.25214885143957672 0.1528572840750744 -0.1133051543993769 0.05414490347149005 -0.9920838026167933
0.55721751010567855 0.25211844605972339 0.1534965483756861 -0.11091012441780099 0.056473738815469715 -0.99222460215710739
0.5525806540766095 0.25212573072999178 0.1539835889409425 -0.10867136746192213 0.058293632059215922 -0.99236706230875105
0.52694170738251123 0.16817401692761091 0.024190155548289186 0.013465467450133448 0.99527805092397981 -0.096126388340108296
0.45507880090800479 0.34785184720961509 0.31677164246764122 -0.15130560407165261 -0.98439539383525732 0.089846106050517724
0.56277401023423301 0.166908169289162 0.023769260562328847 0.00028455025762535411 0.99549412031197726 -0.094822863569043292
0.58162703325649368 0.25117923079547994 0.1506137885036897 -0.11913024073628514 0.051221052478854584 -0.99155654882869548
0.39102095775798207 0.33738597741830806 0.14204068658622032 0.9993585861764136 0.017716679911978065 -0.03112130280653742
0.39083406161980927 0.35773031395652843 0.14233080729247161 0.99964289411568419 0.021336463754906852 -0.01608849149095512
0.39089190701291648 0.37534767057477847 0.1411427040823324 -0.99965102536525174 -0.026395923255325741 -0.0010405391389840181
0.43745733324966762 0.39304899840742641 0.14319403051047389 -0.002897554741918211 0.99969981274176567 0.024328760358803006
0.44251061902225453 0.39309052024901669 0.1436617171653494 -0.0018808475694702877 0.99974197568177092 0.022637236411049297
0.4473987345477366 0.39311276071001922 0.14359588408909899 -0.00074261929289645646 0.9997763455811185 0.021135452042709717
0.45244550724935417 0.39366625420970724 0.14363535593002855 0.017140110371763349 -0.9977459100737468 -0.06487923818568149
0.46199734627097405 0.39324606614695096 0.14340786780005088 0.0041661000681042625 0.99989555038126143 0.013839506420997513
0.46743606041552627 0.39321223157897178 0.14365844897554769 0.0055935663002667033 0.99990791225697528 0.012364425661610987
0.4723053753393483 0.3931955140873159 0.14327283731389481 0.0067185901765854051 0.99991402969869558 0.011260273431636074
0.48228191894244071 0.39355303714889034 0.14392865783465864 -0.016185991862225274 -0.9994249303740852 -0.029796345651621075
0.49276296324780133 0.39292493848322374 0.14272342253933112 0.013686101551483894 0.99988153961416337 0.0070425395371756785
0.57760763740057164 0.2471957896509272 0.15096213237383874 -0.11866070667513362 0.054628856880685979 -0.99143094801769605
0.49748205037776239 0.392835410183282 0.14255701496869186 0.015035093110115002 0.99986558796760994 0.0065384993198673944
0.50262715264318947 0.39273564406580452 0.14262185716818218 0.016445353124221462 0.99984553160314427 0.0062018782514182543
0.5076352038426214 0.39287341252428776 0.14230454426383737 -0.029631456087772116 -0.9990016717331186 -0.033431073637451646
0.52247281433691983 0.16836469663715223 0.023358202493875081 0.014135107320867278 0.99525431920763963 -0.096275847643972345
0.39922332702877972 0.16949015111133556 0.020630574611357925 -0.023529255248843101 0.99334232602661943 -0.11277143907683336
0.58230277657871243 0.16838075197155991 0.022665979878875565 0.035352529506299836 -0.98979865088197982 0.13801749660720122
0.49699296186629421 0.16861686788419605 0.018084556662155582 -0.0043963595094551715 -0.98765563056153427 0.15657914114964872
0.37896407075022076 0.39135241797316284 0.14055801377607979 -0.012373657898974637 0.99835486888612823 0.055986144371271258
0.47750053595517278 0.39311984350802426 0.14223395313953821 0.0080766403929105664 0.99991055061273226 0.010661081244696464
0.58734550572173982 0.19716256309504393 0.14676467156117462 -0.12787322245586841 0.074996793093931577 -0.98895091890567455
0.58206165539095944 0.24249900228677185 0.15023922099891882 -0.11984550777295749 0.056986260949942087 -0.99115569933769088
0.5676882216323379 0.24753161901564921 0.15211697160441698 -0.11485792823303841 0.055919473627749003 -0.99180676988575234
0.57251173721223858 0.24747806893096891 0.1515574068090306 -0.11688921025492906 0.054660573989020488 -0.99163961910422371
0.55712553178552504 0.25695023855365517 0.15158794791345526 0.077880733074389863 -0.16785463175545201 0.98273059075925639
0.5435043087499577 0.26088622184017701 0.15355229057932801 0.084012848655044478 -0.19556481309142304 0.97708558741871809
0.55734200964969882 0.26168606799069333 0.15377933765070786 -0.11338606590271327 0.04751410402530843 -0.99241423305884613
0.53726842364096949 0.17442703968669127 0.083964169645183592 0.0043410003102611842 -0.99027720040998302 0.13904036127856018
0.56322709659042014 0.26182139823922373 0.15310027667713871 -0.11500853780817175 0.045621402775099427 -0.99231634262469881
0.56343946127293287 0.27176883115523676 0.1534805280671647 0.09426563276216271 -0.17971548980863683 0.97919167337288515
0.57385555765976937 0.27700997778938125 0.15183947033799453 -0.11467230914232439 0.026757044800651008 -0.9930429608377993
0.47067159839293204 0.29912675913325942 0.27135293793856424 -0.63570849071967905 0.65355494205072051 -0.41078054061504293
0.56226948946747501 0.17438189046669486 0.084435942800189248 0.01016450601605289 -0.98937917641367723 0.1450018210107839
0.56734179757731451 0.17443096310693451 0.084510968469210468 0.010833954563252464 -0.9892758320579208 0.14565697214562037
0.5727056785374095 0.17441900423481038 0.084172769230515421 0.011623017507096973 -0.9891163357669378 0.14667576412964789
0.56031015846459509 0.28804880584641435 0.15313451491190189 -0.10950949205108618 0.012215473529997285 -0.99391068681101868
0.58303818533374085 0.17460754663779515 0.084779224242681819 0.012415946379927632 -0.9889024127786612 0.14804682460638324
0.58817983308172128 0.17476436213078858 0.085209493312282017 0.013203167858797268 -0.9888067861569958 0.14861633829551046
0.5929278792486522 0.17488760076535312 0.085681336811436429 0.01347468196192707 -0.98871175017045099 0.14922301438085367
0.59761702574273234 0.17593238802476791 0.087706869894356207 -0.011636899733351577 0.035400029713045497 -0.99930546904383122
0.60236084724364602 0.1769820607143579 0.085837283263021313 -0.020352499305638254 -0.088319479185962016 0.99588425299747285
0.57353700343542013 0.28796893144931274 0.1515909526458864 -0.11055827836518946 0.013443342777051458 -0.99377871964532627
0.61210264383855861 0.1775486464002721 0.086100747784112169 -0.019853230403700323 -0.088438769493613179 0.99588374486834219
0.61724385849262253 0.17734585253965268 0.087660423303400459 -0.015514652922882689 0.037857476985451957 -0.99916270295732035
0.62187660033465642 0.1768542748632308 0.086243440306202873 -0.019196601464693635 -0.088527833768128422 0.99588870519778883
0.62720942606253149 0.17664095228326926 0.087513491100889185 -0.017228781507299177 0.03888978431327722 -0.99909496733986225
0.46224221027433793 0.39680195379562488 0.018003017361466547 0.034730441051360639 0.99582338344519816 0.084436872562498849
0.47965817054358073 0.32818952855777489 0.18902351614946691 -0.4847831754664565 0.8654307392319357 -0.12655002322055983
0.48283041473821053 0.32900251002890951 0.1842789952836858 -0.4825000322645186 0.8659722222073386 -0.13147558415927371
0.32472081522009894 0.18361762815628699 0.079395823298777077 0.96141945902983084 -0.031710792985571487 -0.27325272076781554
0.56742615438312483 0.29772036503480609 0.1520125887689916 -0.10480631142935069 0.0027510292491525804 -0.99448884806348847
0.45960864708543675 0.31865965200735069 0.27485556829932334 0.9667625320208566 -0.25562429358455929 0.0051407402207680458
0.54585348645551601 0.30542503177992786 0.15610817700884341 0.53454909775799975 0.59090345578028447 0.60422708316743468
0.54898953560050956 0.30387064825654064 0.15385161087684934 -0.096169039841642101 -0.0096278073277283657 -0.99531845210565495
0.4655025847555993 0.33156093083387439 0.27614061758337632 -0.96646773315602807 0.23712952104671689 -0.098537865901404439
0.34751153773081567 0.18218736362692209 0.08510308201097079 -0.050196006201772246 -0.086334344492402376 0.99500087533753401
0.54849183892740561 0.31344272703554615 0.15371390283317599 -0.089116312773598841 -0.016821822541850481 -0.99587916389691011
0.3581990996265258 0.18225302214073305 0.081889477880813702 0.23507930351201295 0.044611878580407521 -0.97095185326041467
0.36285553665543152 0.18204506137312901 0.082879538546764026 0.24262038417486748 0.043905958830763904 -0.96912724446379628
0.55261167291829061 0.31738099621952232 0.15321000337062463 -0.087523017976098322 -0.016589313342260829 -0.99602435512751786
0.37112300843037216 0.18047489788737653 0.086128313189076072 -0.049976822045121459 -0.090294016738261138 0.99466039822621921
0.37616002652992681 0.18021915857884058 0.086086001843956872 0.26175581288297323 0.04229450894116684 -0.96420696374554327
0.38074290958740847 0.17675442970411917 0.086980390797920554 0.0061295715540457089 -0.99035963960960738 0.13838429312928685
0.3858222754283282 0.17678803559501344 0.08658769785078288 0.0055627845064065177 -0.99061048917220051 0.13660129637213975
0.55785618440050255 0.3172930895994609 0.1574082934455637 0.059820379313307491 0.0092169534030959715 0.9981666043245373
0.39583196931148751 0.17673276613824537 0.084677065747406813 0.0044614288847541978 -0.99113413917424309 0.13279011188954645
0.54820921076344042 0.33536456644283241 0.1574408840568608 0.043611451700630369 0.049597785534166626 0.99781666700384908
0.5778906643075421 0.34220942528172954 0.15000668956990232 -0.074870036076352217 -0.01394959098015482 -0.99709572590068396
0.51758552705452121 0.39246857671863622 0.14836018745132121 -0.032361563113437644 -0.99873336477624797 -0.038527851167292189
0.52254032722249866 0.39223784575183251 0.1487296251626482 -0.033556895902044019 -0.99858520023315023 -0.041249637728574047
0.52756114240348584 0.39204755426903914 0.14882071485984338 -0.034414842423722801 -0.99845617096040729 -0.043599234993658149
0.5326143314739048 0.3918503184679375 0.14824715524409221 -0.035272163741119987 -0.99831429342480471 -0.046091713016035034
0.55254282481622718 0.3909578113760806 0.14826455265043889 -0.037322724432011581 -0.99766860352263032 -0.057134681115559922
0.55747669060865168 0.39057685173264262 0.147863736180912 -0.038078477948910158 -0.99741351880574125 -0.060961479810152611
0.56245065250311166 0.39009183049780105 0.14779954690485531 -0.038958855997378972 -0.99710257395342461 -0.065335017829881867
0.56745793751220219 0.38976074261070109 0.14738733618328639 -0.039339249949500096 -0.9969025570753951 -0.068100771728001996
0.50205689871286951 0.24329094672582313 0.17694718801232107 0.06256884397986387 -0.9949048659354699 -0.079053447116163772
0.45744509639702807 0.17718038421256804 0.084396328508177798 0.0074767424130338734 0.99612048691016175 -0.087681662169187838
0.47252906074462392 0.22727952753468816 0.15200454345010514 -0.014220695865974808 -0.14853312124928733 0.98880517985143657
0.46758503010329172 0.22756605654241446 0.15208130924249516 -0.018102282159895042 -0.14187460060501833 0.98971910413196029
0.46223297148345155 0.22762941443132412 0.15213564658155398 -0.022839625401743256 -0.13368897819233666 0.99076011658796448
0.45734533268948513 0.22784623397722123 0.15218292640430636 -0.026835505779500828 -0.12453172752766604 0.99185266268157668
0.48209306969801663 0.17637760489936516 0.08443795806655599 -0.0058431402422750795 -0.99193938022581951 0.12657852767877451
0.45251483931982284 0.22731553387303918 0.15209284259531519 -0.029183484494903669 -0.11916472525602839 0.99244551109236778
0.49262805789569214 0.1760125571242605 0.084974553377729953 -0.0057982546153353097 -0.99167849489248772 0.12860848732173957
0.49752130743082146 0.17604224058094167 0.084333065601339852 0.010374198669450437 0.99617649400293584 -0.086745425227994541
0.50206119532296944 0.17588164993947814 0.084294529686108857 0.010142021337025058 0.9961551312080329 -0.087017779626385031
0.50751332682032724 0.17558254526561118 0.084669818781364078 0.0087902985731451323 0.99611925981244942 -0.087573688295587523
0.51218282363958911 0.17523431369340026 0.084829268365605004 -0.00337685058462487 -0.99117954608102032 0.13248284534516785
0.44751650859159942 0.22748750103894272 0.15297714628364628 0.073941132382686264 0.085973339848860048 -0.99354984463649254
0.52274604381519485 0.17495619397426601 0.085572817186274644 -0.00034579201259520552 -0.99083988636079612 0.13504147520080109
0.52678165091647156 0.17475076584919089 0.085564293925164028 0.0027100072183422297 0.99604151441423339 -0.088847945526483535
0.53033687653651773 0.1747871164630764 0.086003661119323699 0.0020376210792506021 -0.99053503012190847 0.13724504436127172
0.53775577696444354 0.17469874482320008 0.086234335384289304 0.0045920464457248041 -0.99023301652145967 0.13934664007521322
0.54218054203517252 0.17459129205521171 0.086128410172631911 0.0059953563489623775 -0.9900325938580492 0.14071076291795129
0.44234524347974979 0.22734321245801931 0.15278291538834093 0.076249463570331397 0.082837360905295046 -0.99364178200369702
0.58983904786050223 0.17753358114969955 0.085532052913835949 -0.022162308359697853 -0.08643320735270027 0.99601111075875792
0.43750994768278373 0.2275131159625175 0.15198382966060142 -0.035799633830458803 -0.098518613610111425 0.99449106028659029
0.47500339108097772 0.32496047301003234 0.18528240755216011 -0.48908531563038826 0.86279499343205934 -0.12798575445453406
0.43286237263405691 0.22770292992146593 0.15193607370068432 -0.038051774161260016 -0.091677481253368942 0.99506145635041987
0.42701562611371569 0.22806326844770097 0.15183001563106344 -0.039388594629355102 -0.085963660925908417 0.99551935572008832
0.61237379776099121 0.18233359179857186 0.087876028983078988 -0.014257725919182299 0.037105744799769538 -0.9992096281333902
0.61677606288295317 0.18211234629768849 0.087830409131454207 -0.014996556369111876 0.037550865148247604 -0.99918218349992927
0.41744984442243677 0.22765447824688029 0.15148353322553779 -0.041338691152934218 -0.079527535730450558 0.99597514209663096
0.62981972234626304 0.1807497823581799 0.086717239304674787 -0.018823357938085348 -0.086375456337748971 0.99608481653842129
0.47308230562004566 0.32407055100821969 0.18620033221375176 -0.49164177930240721 0.86151395759093541 -0.12681506897986125
0.41274664279026047 0.22737466729571301 0.1512372337661986 0.099391917923392664 0.065708557956750083 -0.99287644350279258
0.40782147921204631 0.22739093134731692 0.15104383492436788 -0.043570034944650955 -0.074611274115022608 0.99626041265818388
0.40303097399720528 0.22730157622970487 0.15083929512702621 -0.044092701609224974 -0.072644893239561553 0.99638273426982504
0.39351844188159929 0.22773470235233445 0.14926558205191032 0.11441447260760461 0.06091947823487795 -0.99156348542567563
0.3372517325770239 0.18698413682333309 0.084963856417702682 -0.050723465546163964 -0.081608143030321476 0.99537291556186613
0.39182326924454813 0.22719913025213012 0.14684275923137366 0.96156281528316268 -0.0010830428171865504 -0.27458291877495694
0.34766178776503787 0.18722476062072504 0.085530201764620756 -0.050552420917847271 -0.08384963157792559 0.99519530345736207
0.57677445593414733 0.22268429060110495 0.14983268094185709 -0.11851848305083867 0.068384974881150043 -0.9905941976338406
0.57265117856790426 0.2226288089178467 0.14772237799949786 0.04443302952035167 -0.1069809263552054 0.99326773192519724
0.56707633927576362 0.22250423396792526 0.14805335395955804 0.042756829223596513 -0.10741225850253532 0.99329474994994749
0.56232146601903787 0.22275271049597423 0.15140801685266181 -0.1098520225854748 0.071630513441040475 -0.99136350683190533
0.37126059459270028 0.18577889947691179 0.086612807799019004 -0.050397369824044906 -0.087377450728652786 0.99489963625432098
0.37587242418147992 0.18492486056642521 0.086196117301060207 0.26281583569216083 0.041774514909286159 -0.96394124634934319
0.55752107639833259 0.2225421454218601 0.15181604272736679 -0.10555624159255035 0.072583022033677724 -0.99176085059519958
0.55304274260548436 0.22248492257684946 0.15218212380754123 -0.10123596762665187 0.073840213279427705 -0.99211839100056198
0.54749316304680029 0.22266081271062213 0.14890374192291467 0.040340657775031867 -0.11781400623072889 0.99221594991521056
0.5369588959739392 0.22242375593597632 0.15284508842290501 -0.074234900157771247 0.084247141279792936 -0.99367580164998903
0.40025630978681787 0.17706389741819023 0.087192002682826494 0.0028516916559401173 -0.99157226057645553 0.12952343382568737
0.406612827551317 0.17707561144157288 0.086006005738838709 0.0060260566196510571 0.99466798817059066 -0.1029528044799487
0.41261747845788194 0.17707532652770555 0.085876499099054565 0.0059958012374038104 0.9948331822675387 -0.10134589200832828
0.41769229340176872 0.17705747939279021 0.085382042712228712 0.0053364357010853951 0.99497611737694458 -0.099970237088389702
0.42320516633186761 0.17726969944590801 0.085316443928642585 -2.940168659216391e-05 -0.9925613364456799 0.12174560578808044
0.53256831648561032 0.22229128774732868 0.15291185796490084 -0.066557665923536874 0.087456128953458459 -0.9939424040734387
0.43417593414233036 0.17728427477347602 0.086111608832420194 0.0062343879085835193 0.99572033449732344 -0.092207092329949503
0.44920622299121632 0.17737124956711808 0.086361553839197636 0.0070917593197608467 0.99612514702962174 -0.08766070045901414
0.52774202609080667 0.2220876154932841 0.15295883840161881 -0.05931880705987317 0.090122856985896796 -0.99416253690113132
0.52250404660747596 0.22263600956417415 0.14987227892578639 0.028429508533113476 -0.14805082422652141 0.9885710477706765
0.51715102758530596 0.22287282689689836 0.15012567110291408 0.02487659906149936 -0.15209981080684115 0.98805202412203808
0.47268424244793494 0.32339763157872559 0.18398396107602377 -0.49182473966251117 0.8610655732875 -0.12912979499314708
0.51247966995637118 0.2222572102874954 0.15267219089582063 -0.029709603155915008 0.099853756881725306 -0.99455847827914234
0.50768866066895291 0.22244195788399218 0.15268201408599066 -0.020381513842477543 0.10186839936523336 -0.99458907248383455
0.5023624143193407 0.22225495553782085 0.15273069294320518 -0.014458500622110477 0.10277282908697538 -0.99459976742467604
0.49735105188065992 0.22240493633501174 0.15276186563534452 -0.0054608520461903835 0.10363818818128148 -0.99460007291646169
0.49229716014537106 0.22193608365119344 0.15269529474180144 0.0010437794995729465 0.10393882846536655 -0.99458314406670068
0.56569795460216288 0.30696758158148296 0.18539709399338419 0.60368590943610978 0.79635956751157511 -0.037077782850031792
0.4875445574701559 0.22241011911865063 0.15102852738456676 -0.00080821297640957981 -0.16017186299421476 0.98708881114960834
0.47747517624339469 0.2222696134259268 0.15283061572478038 0.027854987307537358 0.10075757189393494 -0.99452099595138532
0.3247315190128412 0.19337377589678781 0.078785137021683077 0.96138512372549734 -0.032683425876250165 -0.27325892035266058
0.46743874247852968 0.22232692540679364 0.15282633256234796 0.041591380061715588 0.096048920416088646 -0.99450729609765354
0.32820393870937203 0.19323046568168495 0.07764702192437109 0.18707960436882864 0.047138933795664417 -0.98121309742064211
0.46259665927656674 0.22258400694115596 0.15155070367392567 -0.020705942030189661 -0.13154530206569226 0.99109388933091913
0.45750951697902836 0.22246824493610232 0.1515773059102706 -0.024140011566816819 -0.12463156465331832 0.99190938746118329
0.44752594341448287 0.22280217243601444 0.15169321830088692 -0.030192872217766103 -0.11067353704776355 0.99339808670269691
0.43737336304501678 0.22245209496176926 0.15234422580603757 0.073251609126260289 0.077233122372777033 -0.99431848346943918
0.56132481238267229 0.30994668269153275 0.18503099171132548 -0.61008516034763827 -0.79218719499743862 0.015347482063414061
0.57054888080771726 0.30300895918777232 0.18549225565192234 0.61302564242932667 0.78930134326256729 -0.03468358758862989
0.43247457923990956 0.22205486122223766 0.15155440658590602 -0.035060833771223897 -0.091431430304158054 0.99519396676617888
0.42739019728461775 0.22218438696093509 0.15147779062421876 -0.036014624356137372 -0.086997873143789151 0.99555728961267898
0.42263029765127652 0.22232061722350835 0.15173884566642676 0.086561654708227992 0.068348909351000159 -0.99389914303449434
0.37629892441239282 0.19094330640999355 0.08653757150145297 0.26867435415050273 0.040806733097256728 -0.96236630341868235
0.41745616706387478 0.22266496703758418 0.15137911967905768 0.091299852493191405 0.066891441109101946 -0.9935742911534442
0.40804279937110371 0.22223192060600774 0.15061823787450157 0.096384191207209077 0.063969617140489571 -0.99328645202088173
0.40246079143465613 0.22256606249435759 0.15016283632495769 0.10006091945782555 0.062165363889641355 -0.99303740107295202
0.39418262991992103 0.22264037080017576 0.1502844958900543 -0.042344303677531135 -0.071566913968257997 0.99653657071435409
0.39175660953827751 0.22241126449533447 0.14645305684198945 0.96135378355552548 -0.00028813530998763747 -0.27531585464974384
0.56754279658141016 0.21777296259679341 0.15056354346600101 -0.11388669860334939 0.071901205549269875 -0.99088850862334221
0.56283501856109308 0.2174321754733268 0.15102088689659129 -0.11044365782174818 0.073529579110040086 -0.99115871556620683
0.62685982747308444 0.19299249488964193 0.087559544618200424 -0.019484097749101072 -0.080100361544670692 0.99659635862033769
0.47230035048379437 0.2174591857780912 0.1523024478014148 0.032120334179005811 0.098161224504640904 -0.99465202866931224
0.44798285390103637 0.21758011911497108 0.15209513859028945 0.058927513873481899 0.084918375236746294 -0.99464386473543465
0.44233478473836613 0.217186131009144 0.15201730135380448 0.063047711137801291 0.080714823292447627 -0.99474122434990764
0.43718050964116256 0.21765617090735898 0.15197431696550889 0.069012514598998306 0.076823295325782026 -0.99465343417896601
0.33301274046185025 0.19760518742916391 0.078534581404716641 0.19068216900639814 0.045984964911085571 -0.98057416518341012
0.43223964292417849 0.21730759046368697 0.15178459558122631 0.072850948006524183 0.073900167570093669 -0.99460117866794373
0.34220456269610372 0.19718337299985658 0.085950949390022319 -0.05152091298280255 -0.076154746628580128 0.99576405342398011
0.41250457766483301 0.2174195001062352 0.15076481154771831 0.086676206880603485 0.065355213394354683 -0.99409050455326708
0.39140230329213382 0.21678508108018515 0.14504246187843256 0.96150705865686081 0.00044897411986397702 -0.27477986566572093
0.58040098687218677 0.21207468040855701 0.14870960683069614 -0.1216700985977504 0.07158653233941259 -0.98998573499562703
0.57704784614675897 0.21279645034751604 0.14916164619750422 -0.1200401346292464 0.071745274982927626 -0.9901732078761859
0.56755741945735538 0.21296326740360333 0.14750003899184369 0.037387488819736234 -0.098848069349631723 0.99439993708045082
0.56269270790193959 0.21252387050172239 0.15070369508280959 -0.11061991053305777 0.07480230185143355 -0.99104381892597726
0.3759817307844045 0.19698587924955821 0.086644423632389209 0.27165781600872391 0.039701406281958597 -0.96157466134492398
0.55729489411858435 0.21264291383946479 0.15121188041268149 -0.10622664176072938 0.076065787472290675 -0.99142821049053176
0.55260740881650416 0.21207320248769995 0.1514509263485895 -0.098496677791541934 0.0781681123509647 -0.99206257397178133
0.56450772377232428 0.28632301734468479 0.18525861947200492 -0.9881478851010721 0.15295665729174732 -0.012962181931037792
0.54738358387166552 0.21275679829285948 0.14835376043048079 0.033340733165955101 -0.10411086023345704 0.99400670233827204
0.53730388202541624 0.21267331214263807 0.15188097788440102 -0.069896892271199107 0.08719625912567372 -0.99373599957197722
0.53221649611974586 0.21269431646399628 0.15194547170463563 -0.061786291723671651 0.090009289037305068 -0.99402252592284657
0.56214385275364021 0.27672554061571897 0.18576609218855811 -0.65720697196765876 0.75035558409316572 0.071031636735367235
0.62267150641430069 0.19599658859979766 0.088239325319445047 -0.013926180009317633 0.037029148137082427 -0.99921714541864726
0.52795407567022401 0.21233472636523604 0.1519187829295752 -0.055068135877216359 0.092465572409306113 -0.99419194239846254
0.52269330843063666 0.2124366819150787 0.15180218529879622 -0.045448345447028506 0.095818724156311444 -0.99436070919821851
0.51758966382652283 0.21250694987647745 0.14915626581263761 0.019766046108894042 -0.13366716825972288 0.99082914347058237
0.50743336221313307 0.21248344066986127 0.15156217435174052 -0.022038753789045764 0.10191103686915826 -0.9945493622217445
0.3263402544947584 0.20268005197994482 0.084189341161454281 0.96070008206869351 -0.033674901405183089 -0.27553829738995789
0.33231875052057003 0.20270364815208369 0.079185367150147346 0.17646194315832625 0.045400141017108396 -0.98325988925228425
0.50272409780442828 0.21239482393000111 0.1516255683215367 -0.015574427081156477 0.10256928259786388 -0.99460393096370436
0.34196707857881936 0.20241200037253429 0.086210229891567444 -0.052126032481169246 -0.070995921706632839 0.99611367616291557
0.49752140905050762 0.21232336709853364 0.1515768680802263 -0.0069551297766974459 0.1031881396378264 -0.99463753901000229
0.43578564997742592 0.28433745471673844 0.19027742005699486 0.90129032016986566 -0.16612601653797107 0.40009736989553785
0.5391442180347914 0.25612002733932054 0.18888357571403758 -0.64979680868888279 0.75699870153462812 0.068680952910035273
0.49211042565385454 0.21232644213749918 0.151554301929339 -0.00014710536314680513 0.10349643298539288 -0.99462981391033733
0.48745262911435777 0.21246062950573993 0.15154002633795507 0.0071018039128386053 0.1035914199160691 -0.99459458177739757
0.47728535196047001 0.21189029431974854 0.15159696731343367 0.021929313653878256 0.10015911436996906 -0.9947297406890443
0.37559320735482471 0.20193032632358018 0.086659252983983581 0.27784064554795795 0.038377474545731836 -0.95986027375289662
0.47257855210251798 0.21254920560960006 0.1517380780422421 0.0279854158671539 0.09783843430557039 -0.99480875411878888
0.5323939014596264 0.25094941851054831 0.18578946346026828 -0.64672153418280165 0.75928519195937205 0.072368877948069496
0.46709568098193138 0.21219071977842302 0.1503389887550596 -0.016636372639400061 -0.13215154351539946 0.99108990543335695
0.46249408150827565 0.21233227783887262 0.15169848618207923 0.039907990881959586 0.093359212009450201 -0.99483235260858893
0.45717223538308238 0.21223829633256081 0.1516279972504391 0.046124703818539017 0.090818717721476122 -0.99479870939254778
0.44727690241212309 0.21250724055946879 0.15167613339229721 0.05640744951833912 0.083691262489519011 -0.99489395023879124
0.44246640590112962 0.21230654526181872 0.15164122686186748 0.058628393607017111 0.080162210910711448 -0.99505614485061455
0.62901908754619285 0.20099211328243052 0.088103697274152834 -0.019522380539038129 -0.075881169891924616 0.99692573680987984
0.43717784742649896 0.21248437337421069 0.15097019057306563 -0.028648077911628374 -0.097521497123852219 0.9948210116552082
0.32567757522569252 0.20736482992442423 0.08105999126299758 0.96159095412397988 -0.034501424216121873 -0.27230954569018184
0.43266350586764929 0.21254611753249489 0.15151679770456378 0.068904362036390929 0.073248545430152107 -0.99493057018302788
0.32670860289330933 0.20765156043533892 0.084919013054175443 0.96108888958402183 -0.034300840015985198 -0.27410143869076969
0.33063296657859814 0.20746626854585987 0.08586681440959959 -0.052412034024195302 -0.067258421668868071 0.99635800965519383
0.33670108739905208 0.20722497134782053 0.086182533085536361 -0.05247057455192225 -0.067707467544720151 0.99632451422459323
0.34237642348948361 0.20772179860746048 0.086478233009805561 -0.05266808598004067 -0.06655968007448039 0.99639142996494201
0.34848665300622694 0.20780892170934909 0.081220154191732688 0.20954777374700548 0.042352450474414792 -0.97688075037667021
0.42730632150316389 0.21249222859415662 0.15086203349498897 -0.031560248526525676 -0.089930121113108455 0.9954479012130798
0.41747205882939648 0.21253452327878355 0.15085590421653486 0.077996214507027525 0.066556408393285416 -0.99472952857767316
0.41265155510840557 0.212483573828051 0.15056324031371679 0.08152352318173961 0.064959971383714565 -0.99455221948667094
0.40769504760193381 0.21234780851091153 0.1502102339438034 0.084113872437024298 0.063541615730347875 -0.99442813693802168
0.40253464443260745 0.2122897274626106 0.14982397786332968 0.086875235292968117 0.062052928520383188 -0.99428473163115383
0.37591520948217211 0.20739201105695251 0.086835581463036549 0.28181092222425957 0.03656375342631879 -0.95877301591695396
0.3931896891544277 0.21237501031189746 0.1489818425077149 0.091041383831629713 0.06095653710519381 -0.99397976187353287
0.58107388298506835 0.20773572421661796 0.1466853524603749 0.036088519372297359 -0.09364510536112261 0.99495136213355651
0.57751462688852528 0.20823525225650966 0.14688514179966247 0.035707636679387665 -0.093959468151062334 0.99493546676532862
0.53199472363052103 0.25016548879379336 0.18854407038663026 -0.64663081376635612 0.75961903207418824 0.06962411075578348
0.5678373578352508 0.20812575953681051 0.14725494506695605 0.034977369457305112 -0.094841415953367175 0.99487772587680723
0.56222829832480636 0.20755904664887267 0.15037348425957375 -0.10877734059721525 0.076879675476928255 -0.99108879807571215
0.5572521980666596 0.20755753661363283 0.14763408499430497 0.033322519849916944 -0.096828818462459665 0.99474307717420984
0.62149977980605953 0.20887656967945692 0.088693350531755838 -0.011687024560307674 0.035908208180780943 -0.99928675266020228
0.6287387641857265 0.20927208381483819 0.088502439043441142 -0.019275173458627171 -0.07047009821402607 0.99732764573426191
0.32585534788595377 0.21070607013943535 0.081270347962278194 0.96183448508713942 -0.034877536865528712 -0.27140003817124098
0.55234129403493415 0.20768196172850428 0.1478003748733315 0.032817720324352477 -0.098595374760129278 0.99458632069248876
0.3268044228838114 0.21229839433334677 0.084573900394285653 0.96175814167771723 -0.035060744669895214 -0.27164686837844504
0.33168374483800306 0.21280961807555451 0.080240598953240427 0.15408963744692866 0.043375812930542428 -0.9871043118556867
0.33670932468429854 0.21263725125646549 0.086361491607262905 -0.052981623317289742 -0.062521816958430482 0.99663632785228207
0.34285539838550166 0.21292717149353996 0.086666332849911501 -0.05328076780681483 -0.061334759531135395 0.99669413916967231
0.34727397486895262 0.21211673879698281 0.086879395432746684 -0.05330210351015132 -0.062092855463367465 0.99664605706429121
0.54738745120576737 0.20763647305295324 0.14798054370671074 0.031621847233508568 -0.100584176086827 0.99442590588664515
0.53738080967719182 0.20737082170803631 0.14830955452146607 0.02824233201487206 -0.10607755382039524 0.99395670089689658
0.5323978181361837 0.20757536475326935 0.1514240880232825 -0.060311638199718617 0.090980700990861266 -0.99402465680931562
0.5276384389172647 0.20769020786597911 0.14858201301130461 0.023845376046794441 -0.11546041110360422 0.99302582620442137
0.52261929854886802 0.20735699928641013 0.15127272556408525 -0.044439316444595853 0.096476118510963715 -0.99434275062022537
0.37574591703428906 0.21264902923703721 0.086854084483175512 0.27867081536411548 0.035298352299924375 -0.95973777824425011
0.3796482200309852 0.21256090134048514 0.088005404725350872 0.29381001542140384 0.034248919110510929 -0.95525006484052966
0.51726067768943862 0.20742710711483595 0.14881789643678764 0.017269203323338308 -0.12496170681082951 0.99201126326645173
0.50727018001405133 0.20814070044490859 0.14895590373921214 0.010926087517211759 -0.13763550453436163 0.99042268173903314
0.6022802183405378 0.21192037036643122 0.088032212161762768 -0.020272364470356265 -0.068019598877474094 0.99747800246788831
0.50243076528382213 0.20723910234585727 0.15105448968365037 -0.016696750370689271 0.10221886884272219 -0.99462179816228302
0.61137583100749748 0.21186106984381892 0.08822176301318374 -0.020343133610188517 -0.068160018172016473 0.99746697631435821
0.61696774153834621 0.212860796299811 0.088380717848803816 -0.020196915232142496 -0.067540174202774902 0.99751210994341544
0.62249465043653174 0.21254842653383124 0.08851922168510433 -0.019360935834987547 -0.068439277884627919 0.99746740267851575
0.62742193041196948 0.21269323177290239 0.08876797364585419 -0.011874779442364739 0.036055905171647161 -0.99927922089646604
0.49775818837184943 0.20774770906014217 0.14900695425179067 0.0043580248604790008 -0.14458623020286637 0.98948260705029034
0.49244624299778333 0.20768881656932631 0.14909094263494063 0.0010990434376571755 -0.14561906928495821 0.9893401228920744
0.32594907160330661 0.21727130165276448 0.080599880295102885 0.96274584174015942 -0.036020422441815698 -0.26799808465573993
0.48701136209953794 0.20749940118599522 0.14919830284705626 -0.0024339644382846389 -0.1444824295604237 0.98950437258530111
0.3304200175433602 0.2173347911763264 0.086134103146485716 -0.053240531786436097 -0.05806021204340743 0.99689240018799019
0.33687727686576646 0.21763442171622438 0.086419124369447473 -0.053547234951191174 -0.056209682978044649 0.99698202850833262
0.34302037721572332 0.21752080793033715 0.081362582356404381 0.1710897036112291 0.040025517273596788 -0.98444211169839879
