0.659139 0.202221 0.0230879
0.534104 0.847898 0.0944866
0.615023 0.19557 0.0468161
0.61855 0.197515 0.0450463
0.623085 0.197324 0.0428261
0.627403 0.197707 0.0412113
0.53758 0.847003 0.0933752
0.589647 0.674422 0.0791978
0.615704 0.202036 0.0469425
0.618928 0.202435 0.0453186
0.622941 0.202441 0.0434386
0.543045 0.846219 0.0914558
0.282296 0.207568 0.0832154
0.6365 0.202594 0.0391918
0.645557 0.204734 0.0366094
0.618694 0.207392 0.045935
0.623058 0.207565 0.0439268
0.627401 0.207578 0.0421998
0.432422 0.69739 0.132685
0.636535 0.207306 0.0397929
0.427486 0.697567 0.132151
0.177429 0.147088 0.0671499
0.584991 0.646522 0.082306
0.616144 0.211185 0.0474989
0.619114 0.212696 0.0462589
0.622878 0.212291 0.0443983
0.627396 0.212364 0.0427099
0.632049 0.212653 0.0415354
0.637203 0.212481 0.0402601
0.640941 0.213422 0.039242
0.645179 0.212929 0.0378863
0.666834 0.422342 0.0111141
0.619141 0.217478 0.0464343
0.623543 0.217452 0.0444806
0.627734 0.217226 0.0430561
0.232567 0.182872 0.0762886
0.637123 0.217516 0.0407825
0.122127 0.151838 0.0596505
0.646255 0.217884 0.037894
0.442478 0.692452 0.133224
0.619246 0.222253 0.0466388
0.623267 0.222357 0.0449313
0.117597 0.14722 0.058599
0.267428 0.167679 0.0772357
0.637195 0.222551 0.0410667
0.437469 0.69263 0.132982
0.645814 0.222916 0.0383613
0.432608 0.692487 0.132632
0.619852 0.22688 0.0467002
0.623208 0.227445 0.0451807
0.628085 0.227458 0.0435834
0.427532 0.807524 0.127375
0.63757 0.227666 0.0412912
0.448228 0.0726966 0.0696268
0.645643 0.227969 0.0386981
0.522857 0.867559 0.09436
0.619923 0.231823 0.0468088
0.623211 0.232363 0.0453697
0.62807 0.232387 0.0437099
0.566936 0.677466 0.0932901
0.637116 0.232413 0.041573
0.559104 0.784765 0.0899933
0.645649 0.232256 0.0387667
0.620158 0.237946 0.0468784
0.623317 0.237298 0.0454986
0.62821 0.237311 0.0438844
0.432483 0.202796 0.0761095
0.637056 0.237461 0.0417347
0.117623 0.142225 0.0582742
0.645548 0.237765 0.038783
0.647713 0.238483 0.0375401
0.620037 0.242225 0.0472934
0.623563 0.242313 0.0457648
0.628576 0.242416 0.0442176
0.427483 0.202616 0.0759651
0.636692 0.24253 0.0420157
0.27219 0.192372 0.0810608
0.645509 0.24269 0.0387457
0.620491 0.247248 0.0477279
0.623737 0.24734 0.0462851
0.628448 0.247284 0.0446385
0.632861 0.247509 0.0435286
0.637034 0.247615 0.0419804
0.641656 0.247853 0.0403418
0.645512 0.247558 0.0385153
0.572336 0.722472 0.087824
0.620905 0.250748 0.0476845
0.624136 0.252114 0.0464858
0.628532 0.252307 0.0449295
0.6331 0.252425 0.0437102
0.392341 0.822519 0.130868
0.302454 0.0776811 0.068131
0.645065 0.252949 0.0387105
0.292516 0.132253 0.0734205
0.620432 0.255412 0.0483107
0.624198 0.257176 0.0470289
0.628786 0.257116 0.0454397
0.633137 0.257326 0.0442573
0.662808 0.487732 0.00761915
0.30749 0.0772697 0.068477
0.64537 0.258041 0.0390168
0.62141 0.259753 0.0484921
0.624356 0.262094 0.0477859
0.62859 0.262093 0.0462198
0.633419 0.261976 0.044688
0.192648 0.142727 0.0684898
0.641758 0.262836 0.0413845
0.645884 0.263165 0.0396305
0.625078 0.266955 0.0483309
0.629144 0.266928 0.047082
0.633552 0.267207 0.0456142
0.579501 0.683603 0.0850934
0.6421 0.267561 0.0425063
0.646198 0.267562 0.0404361
0.622052 0.273597 0.0512882
0.624961 0.271924 0.0496231
0.629384 0.271659 0.0480637
0.633953 0.271995 0.0465572
0.252292 0.13729 0.0712464
0.642747 0.272332 0.0431721
0.257342 0.137786 0.0717357
0.62554 0.276688 0.0505183
0.629959 0.276855 0.0491112
0.634235 0.276689 0.047494
0.267438 0.207502 0.0818631
0.643005 0.277366 0.0442208
0.142052 0.0710952 0.0480264
0.625666 0.281346 0.0513504
0.630107 0.282106 0.0498964
0.634714 0.282064 0.048227
0.55906 0.787995 0.0896695
0.643139 0.282303 0.0449266
0.646974 0.281973 0.0436647
0.626059 0.287238 0.0517551
0.630366 0.287095 0.0500998
0.634896 0.287055 0.0483167
0.207131 0.172853 0.0723053
0.643396 0.287205 0.045222
0.182756 0.142237 0.0672483
0.623136 0.294159 0.0531012
0.625927 0.292557 0.0519675
0.630363 0.292227 0.0502511
0.634914 0.292191 0.0484061
0.638974 0.292302 0.0469453
0.642987 0.292332 0.0453217
0.647236 0.292611 0.0440898
0.622814 0.297789 0.0531867
0.626203 0.297672 0.0517954
0.630319 0.297353 0.0502708
0.634917 0.29736 0.0483793
0.63939 0.297556 0.0468141
0.643171 0.297243 0.0452308
0.647379 0.297597 0.0434699
0.622486 0.300483 0.0533837
0.625989 0.30214 0.0520486
0.630523 0.302379 0.0503003
0.635001 0.302446 0.0485708
0.639228 0.302293 0.0468941
0.137378 0.078985 0.04921
0.647042 0.302308 0.0434879
0.623218 0.305628 0.0531224
0.626019 0.307331 0.0521991
0.630501 0.307227 0.0504253
0.650118 0.590253 0.0190834
0.639548 0.30748 0.0467796
0.57214 0.727421 0.0880598
0.646941 0.307813 0.0428986
0.626434 0.311762 0.0522253
0.63063 0.312335 0.0505102
0.635134 0.312225 0.0487025
0.639229 0.312834 0.0469286
0.447471 0.687465 0.132974
0.21736 0.172507 0.0739105
0.626899 0.316529 0.052245
0.630578 0.31709 0.0507825
0.634865 0.317255 0.0489452
0.639042 0.317409 0.0469636
0.643467 0.31754 0.0446916
0.277294 0.0827836 0.0663778
0.628029 0.322123 0.0521844
0.630987 0.322195 0.0509975
0.634944 0.322152 0.049145
0.639228 0.321969 0.0472026
0.127574 0.08364 0.0488207
0.522793 0.876612 0.0929454
0.627751 0.325562 0.0524749
0.63096 0.327318 0.0511914
0.634874 0.327277 0.0495103
0.639939 0.326838 0.0475126
0.643903 0.327455 0.045084
0.282531 0.137712 0.0735366
0.630484 0.332217 0.0515977
0.635181 0.332228 0.0494613
0.639813 0.332402 0.0477043
0.643784 0.332348 0.0453779
0.287343 0.167571 0.0780008
0.630627 0.3375 0.0515335
0.635003 0.337398 0.0496509
0.639236 0.337335 0.0479677
0.644409 0.337653 0.045229
0.39155 0.826873 0.130279
0.630454 0.34207 0.0517544
0.635296 0.34251 0.0497025
0.639375 0.34213 0.0481142
0.644225 0.342337 0.0454129
0.647103 0.340158 0.0424268
0.630775 0.347028 0.0515698
0.635075 0.34723 0.0497807
0.639748 0.347152 0.0480156
0.644307 0.347524 0.0452092
0.631135 0.351936 0.0515835
0.635856 0.352378 0.0497024
0.64049 0.352258 0.0476991
0.644062 0.352591 0.0445799
0.631166 0.357314 0.0518984
0.634982 0.357246 0.0503235
0.640488 0.357828 0.0477325
0.644094 0.357564 0.0444713
0.63219 0.362289 0.0517758
0.636021 0.362572 0.0502646
0.64074 0.362384 0.0473465
0.643467 0.362595 0.0447303
0.632369 0.366782 0.0521302
0.636064 0.367382 0.0505276
0.641565 0.367196 0.046667
0.64347 0.367401 0.0443477
0.635637 0.37123 0.0509135
0.641932 0.37274 0.0458609
0.643572 0.372669 0.0434457
0.636302 0.379062 0.0505798
0.64087 0.37751 0.0468481
0.643114 0.377609 0.0437036
0.633123 0.383883 0.0518851
0.636108 0.382763 0.0504391
0.640459 0.38268 0.0471235
0.642746 0.382472 0.0438345
0.635857 0.387762 0.0504846
0.640579 0.387334 0.0466359
0.642625 0.387791 0.0435894
0.635957 0.39209 0.0505061
0.640938 0.392785 0.0459182
0.642392 0.392333 0.043738
0.636283 0.396794 0.050221
0.640245 0.397627 0.0466347
0.642329 0.397591 0.0430175
0.637273 0.401751 0.0496417
0.640523 0.402585 0.0463576
0.642497 0.402555 0.0424451
0.640731 0.407717 0.0463364
0.642559 0.40754 0.0425542
0.640865 0.412509 0.045642
0.642538 0.412672 0.0419235
0.641048 0.417524 0.0446293
0.640648 0.422381 0.0445137
0.641817 0.424005 0.0414609
0.640329 0.427812 0.0440526
0.641545 0.426198 0.0417517
0.639966 0.432918 0.0444049
0.637682 0.43619 0.0474168
0.639598 0.437766 0.0444883
0.639508 0.442723 0.0443808
0.637239 0.447692 0.04711
0.639357 0.447617 0.0442506
0.638831 0.452417 0.0441095
0.637158 0.459648 0.0462632
0.638289 0.457335 0.04423
0.636856 0.46114 0.0464181
0.638311 0.462599 0.043433
0.636844 0.469322 0.0459631
0.638115 0.467595 0.0434298
0.636763 0.473158 0.0460602
0.638202 0.472347 0.0431743
0.636886 0.477079 0.045713
0.282481 0.0822993 0.0669081
0.636463 0.48292 0.0453091
0.452589 0.552408 0.126336
0.636305 0.487786 0.0443507
0.448543 0.552518 0.125388
0.636029 0.492383 0.0447317
0.49574 0.548464 0.122473
0.491593 0.547512 0.123548
0.487065 0.547902 0.124621
0.481821 0.547667 0.125546
0.477476 0.547543 0.126146
0.472545 0.547666 0.126621
0.46761 0.547572 0.126867
0.462716 0.547724 0.126827
0.45741 0.547857 0.126576
0.452406 0.547572 0.125809
0.448408 0.547419 0.124887
0.491776 0.542883 0.123232
0.486785 0.542637 0.124378
0.481886 0.542748 0.125251
0.477344 0.542497 0.125694
0.47238 0.542708 0.126171
0.46748 0.542511 0.126285
0.462757 0.542699 0.126219
0.457626 0.542323 0.125986
0.452324 0.542894 0.125393
0.448536 0.542498 0.124576
0.491116 0.537651 0.123145
0.487152 0.537836 0.124097
0.481967 0.537645 0.124925
0.477265 0.537736 0.125374
0.472695 0.537526 0.125742
0.467521 0.537518 0.125967
0.462743 0.537651 0.12586
0.457615 0.537354 0.125646
0.452467 0.538097 0.125132
0.448659 0.538134 0.12441
0.491144 0.533074 0.122823
0.652413 0.557955 0.0172445
0.601766 0.0181822 0.0435363
0.570295 0.0243546 0.0518556
0.573626 0.023081 0.050993
0.577779 0.023264 0.0503788
0.582801 0.022871 0.0492754
0.587884 0.0227062 0.048178
0.592464 0.0224685 0.0469742
0.596857 0.0230431 0.0459494
0.427434 0.172651 0.0736428
0.604622 0.022823 0.0434003
0.587347 0.692385 0.0813989
0.117223 0.0935109 0.0495012
0.578699 0.0261126 0.0508164
0.582753 0.0274004 0.0502199
0.587767 0.0273146 0.0490091
0.592946 0.0274537 0.0475876
0.29749 0.0826223 0.0682774
0.601992 0.0276252 0.044847
0.605632 0.0285061 0.0436099
0.579411 0.0304763 0.0513351
0.583342 0.0315646 0.0505799
0.587864 0.0324237 0.04951
0.592848 0.0326083 0.0480746
0.432298 0.6875 0.132331
0.582676 0.69692 0.0836801
0.605516 0.0321021 0.043876
0.486922 0.532696 0.123768
0.482296 0.532542 0.124634
0.477093 0.532484 0.125096
0.47222 0.532604 0.125529
0.467606 0.532709 0.125752
0.462734 0.532527 0.125633
0.458023 0.532608 0.125418
0.584066 0.0368295 0.0507695
0.588278 0.0374354 0.0497042
0.592718 0.037445 0.0483687
0.597316 0.0374586 0.0469118
0.422572 0.867499 0.117695
0.605271 0.038691 0.0442757
0.45269 0.53292 0.124922
0.449379 0.533969 0.124366
0.490166 0.528341 0.122684
0.486955 0.527606 0.123399
0.482154 0.527728 0.124298
0.476924 0.527479 0.124914
0.472517 0.527518 0.125339
0.467396 0.52762 0.125548
0.584126 0.0425748 0.0510984
0.588062 0.042432 0.0500295
0.592836 0.0424923 0.0485107
0.597506 0.0424735 0.0470444
0.601702 0.0423173 0.0457027
0.277367 0.192743 0.0814082
0.462427 0.527567 0.125504
0.45809 0.527475 0.125226
0.453176 0.527608 0.12474
0.485934 0.524019 0.123328
0.481967 0.522604 0.123972
0.477058 0.522735 0.124616
0.180772 0.0461144 0.049474
0.584494 0.0476362 0.0512324
0.588478 0.0470932 0.0501377
0.592801 0.0474472 0.0487306
0.597592 0.0474331 0.0471729
0.567431 0.672745 0.0936746
0.605928 0.0472871 0.0444336
0.472171 0.522555 0.125117
0.467782 0.52269 0.125415
0.462663 0.523207 0.125351
0.457908 0.522929 0.124979
0.453028 0.52275 0.124409
0.480931 0.517721 0.12381
0.18086 0.050766 0.0501239
0.584801 0.0514845 0.0511976
0.588427 0.0526052 0.0502209
0.592912 0.0523631 0.0488143
0.597471 0.0526203 0.0473866
0.399197 0.878292 0.119736
0.606047 0.0523902 0.0445858
0.477643 0.517923 0.124322
0.472169 0.518201 0.124956
0.467534 0.517619 0.125193
0.462618 0.517573 0.125147
0.457493 0.517645 0.124686
0.453143 0.517936 0.124098
0.450011 0.518871 0.123561
0.588227 0.0572337 0.0504548
0.592702 0.0574227 0.0491389
0.597599 0.0574729 0.0475942
0.602083 0.0576826 0.0461352
0.606684 0.0579208 0.0445737
0.48112 0.513427 0.123303
0.478795 0.514305 0.123786
0.471566 0.51216 0.124378
0.467454 0.512771 0.124697
0.462402 0.512702 0.124735
0.457675 0.513573 0.124436
0.453598 0.514522 0.123884
0.588898 0.0622178 0.050506
0.592776 0.0626281 0.0493465
0.597602 0.0624421 0.047778
0.602201 0.0624836 0.0462813
0.606817 0.0626794 0.0446581
0.609579 0.0631721 0.0436932
0.471823 0.507936 0.123557
0.467602 0.507787 0.123821
0.462497 0.507844 0.123959
0.459696 0.510023 0.124201
0.46707 0.503869 0.12287
0.461819 0.502869 0.122594
0.45804 0.502327 0.122391
0.589254 0.0673093 0.0506485
0.592628 0.0675392 0.049618
0.597625 0.0676011 0.0479743
0.602388 0.0674975 0.0463538
0.544639 0.0247308 0.0553334
0.461774 0.500242 0.121998
0.471165 0.777343 0.119511
0.467346 0.777281 0.120738
0.471734 0.772458 0.119569
0.467028 0.772452 0.121053
0.462549 0.772404 0.122508
0.458536 0.772202 0.123811
0.475534 0.765569 0.119066
0.589355 0.0722401 0.0508322
0.592964 0.0725788 0.0497312
0.59738 0.0724882 0.0482588
0.602539 0.072465 0.0464794
0.606539 0.072566 0.0450603
0.472163 0.767284 0.1199
0.466908 0.767551 0.121468
0.462599 0.76747 0.122925
0.458318 0.767974 0.124235
0.58906 0.0768869 0.0510999
0.593129 0.077556 0.0499004
0.597817 0.0774292 0.0483092
0.602318 0.0774858 0.0467161
0.549927 0.0241318 0.0542688
0.654743 0.543988 0.0163262
0.479626 0.760497 0.118598
0.476423 0.761914 0.119298
0.472072 0.762337 0.120568
0.467342 0.76237 0.122035
0.589701 0.0825794 0.0510381
0.593396 0.0826074 0.0499435
0.597692 0.0822829 0.0484279
0.602278 0.0824999 0.0468232
0.606671 0.0825163 0.0452004
0.463094 0.762671 0.123375
0.412541 0.877433 0.117491
0.454016 0.762504 0.126008
0.481431 0.756653 0.118808
0.476879 0.757137 0.120035
0.589652 0.0874688 0.051234
0.593223 0.0873387 0.0501084
0.59778 0.0875379 0.0485584
0.602354 0.0874814 0.0468807
0.417725 0.877513 0.116553
0.610467 0.0878454 0.0437637
0.471846 0.757673 0.121466
0.467629 0.757416 0.122844
0.464258 0.758457 0.123725
0.589921 0.092503 0.0513044
0.59305 0.0922635 0.0503451
0.597613 0.0925433 0.0487745
0.602339 0.092576 0.0470307
0.507546 0.877431 0.0973105
0.610295 0.0918169 0.0439398
0.455993 0.759498 0.125941
0.452865 0.758672 0.126884
0.593568 0.0970705 0.050335
0.59781 0.0975802 0.0489042
0.602419 0.0974342 0.0471788
0.653797 0.542157 0.017544
0.610008 0.0980213 0.0442788
0.59412 0.1027 0.0504136
0.597951 0.102432 0.0490828
0.602256 0.102473 0.0474681
0.42251 0.877421 0.11568
0.609765 0.10025 0.0444253
0.59377 0.107591 0.0507491
0.597995 0.107259 0.0493307
0.602625 0.107465 0.047594
0.422485 0.772298 0.132233
0.610187 0.108569 0.0446315
0.593417 0.112329 0.0511357
0.59828 0.112422 0.0495658
0.602739 0.112376 0.0479198
0.653351 0.529494 0.0182712
0.61091 0.113024 0.044585
0.594173 0.117287 0.0512977
0.598566 0.11755 0.0498785
0.602729 0.117518 0.0483223
0.512028 0.875707 0.0962406
0.611276 0.117798 0.0447486
0.594934 0.120971 0.0513208
0.598183 0.122274 0.0503171
0.602748 0.122382 0.0486331
0.606836 0.122513 0.0469206
0.572746 0.732745 0.0876198
0.595405 0.1286 0.0515799
0.597876 0.127417 0.0507855
0.602958 0.12745 0.0488259
0.40257 0.882612 0.118344
0.611963 0.127499 0.0450224
0.615077 0.128467 0.0436932
0.59517 0.130609 0.051729
0.598259 0.132431 0.0507612
0.603255 0.13253 0.0488763
0.607298 0.132588 0.0472019
0.412402 0.882552 0.116527
0.387686 0.777475 0.13106
0.598456 0.137495 0.0508331
0.603269 0.13726 0.0490422
0.607157 0.137528 0.0474808
0.307272 0.202195 0.0839679
0.192959 0.0424572 0.0506444
0.598296 0.142409 0.0509838
0.603608 0.142505 0.0492025
0.607636 0.142326 0.0475284
0.61198 0.142599 0.0457362
0.615967 0.142868 0.0440255
0.598383 0.147366 0.0511837
0.603493 0.147437 0.0494353
0.607664 0.147462 0.0477953
0.444552 0.0825416 0.0695475
0.6603 0.502619 0.0102894
0.619301 0.149133 0.0428906
0.598825 0.152372 0.0513136
0.60364 0.152382 0.0495565
0.607926 0.152595 0.0480037
0.612003 0.152539 0.046334
0.282506 0.20242 0.0827478
0.619517 0.15259 0.0430108
0.599618 0.157064 0.0514257
0.603446 0.157276 0.0499118
0.608097 0.15742 0.0481095
0.612175 0.157696 0.0465335
0.616672 0.157495 0.0445061
0.619999 0.157853 0.043055
0.599859 0.162721 0.051882
0.603646 0.162266 0.0502756
0.607638 0.162373 0.0485858
0.611917 0.162555 0.0469133
0.616449 0.162746 0.0448621
0.619911 0.162145 0.0433188
0.599841 0.16684 0.0522316
0.603575 0.167396 0.0506054
0.608095 0.16735 0.0486166
0.4083 0.703172 0.129659
0.616714 0.167674 0.0449694
0.619622 0.167253 0.0436314
0.600033 0.172398 0.0524493
0.602905 0.172287 0.0511509
0.608086 0.172283 0.0488069
0.655367 0.323041 0.0146485
0.616632 0.172698 0.0449809
0.620381 0.173523 0.0433672
0.600469 0.177579 0.0524638
0.603681 0.177402 0.0510396
0.608313 0.177522 0.0489452
0.612183 0.177494 0.047093
0.616314 0.177589 0.0451912
0.197512 0.137106 0.0681771
0.603243 0.182486 0.0514461
0.608287 0.182475 0.0491794
0.267632 0.202434 0.0815455
0.616737 0.182714 0.0452149
0.655501 0.312463 0.0146303
0.603803 0.187491 0.051511
0.608504 0.187472 0.0493677
0.662693 0.512823 0.00738865
0.437426 0.172543 0.0735654
0.620214 0.187248 0.0437824
0.604623 0.191838 0.0513639
0.608327 0.192456 0.0496781
0.612481 0.192396 0.0477883
0.616916 0.192562 0.0456583
0.62027 0.192759 0.0438815
0.608225 0.197406 0.0501666
0.612986 0.197383 0.0479539
0.447513 0.682632 0.1327
0.621068 0.197823 0.043694
0.605472 0.201145 0.0517793
0.608678 0.202384 0.0503845
0.613002 0.202439 0.0483493
0.517724 0.792654 0.104423
0.621599 0.202683 0.0439355
0.197318 0.0476709 0.0520301
0.608657 0.207251 0.0508554
0.612969 0.207338 0.0487649
0.617042 0.207647 0.0466945
0.272628 0.0877137 0.0663483
0.202715 0.0472116 0.0528575
0.609181 0.212344 0.0510017
0.613571 0.212476 0.0489245
0.404471 0.709156 0.129357
0.621767 0.212645 0.0448454
0.624734 0.213554 0.0437577
0.637285 0.214664 0.0403953
0.6092 0.21732 0.0512158
0.613358 0.217383 0.0492042
0.61755 0.217555 0.0471603
0.665944 0.117942 0.0146793
0.187539 0.137295 0.0671585
0.302641 0.237504 0.0876342
0.442518 0.172319 0.074025
0.606082 0.222159 0.0529797
0.609246 0.222529 0.0516033
0.613322 0.222323 0.0495339
0.617448 0.22261 0.0475034
0.182608 0.137727 0.0666472
0.626077 0.222829 0.0438289
0.292506 0.0872527 0.0683856
0.635254 0.222506 0.041477
0.605756 0.226336 0.0535402
0.609235 0.227334 0.0519998
0.613572 0.227371 0.0497607
0.617718 0.227541 0.0476564
0.472232 0.867453 0.106571
0.122374 0.132796 0.0583632
0.193095 0.177117 0.070448
0.609688 0.23218 0.0520207
0.613462 0.232311 0.0501057
0.617836 0.232531 0.0478455
0.477504 0.867351 0.105342
0.112381 0.132072 0.0567498
0.107497 0.132884 0.0560494
0.609819 0.237045 0.0521809
0.613368 0.237448 0.0503474
0.61791 0.237481 0.0479725
0.102941 0.1323 0.0553096
0.625791 0.237555 0.0445349
0.480653 0.866945 0.104748
0.609899 0.24182 0.0523257
0.613296 0.242371 0.0506885
0.618012 0.242448 0.048303
0.443376 0.0873582 0.069556
0.627007 0.242611 0.0445551
0.127211 0.127483 0.058455
0.197649 0.177617 0.0710391
0.297474 0.237391 0.0868634
0.610358 0.247521 0.0524389
0.613837 0.24748 0.0506993
0.618205 0.247445 0.0485804
0.621678 0.247486 0.0468499
0.627077 0.247485 0.0449074
0.202522 0.177804 0.0717801
0.639767 0.247675 0.0408939
0.610124 0.252251 0.052594
0.613265 0.252298 0.051043
0.618395 0.252277 0.0487568
0.11772 0.127339 0.0570929
0.626742 0.252472 0.0454024
0.222508 0.122717 0.0670585
0.639507 0.253063 0.0412053
0.610481 0.257458 0.052695
0.61377 0.256977 0.0512057
0.618322 0.257176 0.0493082
0.622057 0.257521 0.0476224
0.627093 0.25765 0.0458535
0.422527 0.777358 0.131926
0.12765 0.122806 0.0577776
0.667481 0.0870706 0.0144388
0.610826 0.261961 0.0531407
0.614156 0.26204 0.0516818
0.618514 0.262119 0.049897
0.398888 0.719635 0.129192
0.626929 0.262554 0.0464022
0.122426 0.122339 0.057005
0.242734 0.142919 0.0714191
0.641116 0.26338 0.0416743
0.644615 0.26514 0.0406218
0.611112 0.266903 0.054101
0.614711 0.266744 0.0524862
0.618958 0.267194 0.0507731
0.622706 0.267156 0.0490706
0.627866 0.267398 0.0471763
0.432617 0.682152 0.132047
0.636702 0.268125 0.0442845
0.132253 0.1177 0.0573634
0.423737 0.397446 0.109367
0.247742 0.142208 0.0716234
0.650885 0.272057 0.0385166
0.207702 0.177426 0.0725936
0.611833 0.271718 0.0551625
0.61511 0.271724 0.0536835
0.619353 0.272006 0.0517708
0.623191 0.272181 0.050106
0.292495 0.197459 0.0826582
0.663549 0.522125 0.00759936
0.636445 0.273074 0.0453559
0.641326 0.273084 0.043696
0.202486 0.13229 0.0677561
0.648139 0.274543 0.0405544
0.192857 0.0529445 0.0520012
0.653444 0.276011 0.0359955
0.611674 0.274376 0.0558621
0.61513 0.276782 0.0549215
0.619829 0.276837 0.0527224
0.623453 0.277078 0.0511779
0.157252 0.10722 0.0581452
0.632926 0.277842 0.0476479
0.15227 0.107745 0.0577441
0.641847 0.278036 0.0444356
0.267429 0.142627 0.0731097
0.447438 0.677334 0.132535
0.197694 0.0522635 0.052665
0.653064 0.28078 0.0370411
0.652315 0.282883 0.0363197
0.615714 0.281914 0.0554045
0.620146 0.281917 0.0534954
0.624111 0.282111 0.0517569
0.628915 0.282333 0.0499236
0.633391 0.282367 0.04809
0.637571 0.282524 0.0465757
0.641988 0.282574 0.0450705
0.64551 0.282591 0.0438833
0.64945 0.28416 0.0422333
0.653725 0.283784 0.0408286
0.197604 0.132781 0.067493
0.616064 0.286729 0.05577
0.620393 0.287143 0.0539781
0.624494 0.287065 0.052145
0.166997 0.102465 0.0581097
0.63315 0.287457 0.0485223
0.637606 0.287673 0.0468099
0.162452 0.102469 0.0577147
0.646223 0.287785 0.0441938
0.157908 0.102507 0.0572781
0.17297 0.0974359 0.0577805
0.655999 0.289595 0.0398049
0.616193 0.292154 0.0560877
0.620337 0.292206 0.0541827
0.19282 0.132656 0.0670165
0.292449 0.237701 0.0860725
0.633266 0.29217 0.0485244
0.457553 0.882367 0.107658
0.167639 0.0977552 0.0573632
0.282524 0.192254 0.0815633
0.202224 0.0523262 0.0534609
0.267299 0.0923668 0.0662547
0.653783 0.291878 0.0388381
0.616199 0.297274 0.0561069
0.620404 0.29719 0.0542122
0.437534 0.177208 0.0738061
0.67022 0.0658834 0.0097406
0.633381 0.297329 0.0484841
0.637276 0.297476 0.0470675
0.247558 0.172544 0.0767106
0.645356 0.297707 0.0442167
0.65069 0.295597 0.0415798
0.252406 0.172916 0.0772236
0.654311 0.296103 0.0384334
0.616373 0.302317 0.0560062
0.62024 0.302244 0.0542096
0.624776 0.30226 0.0522719
0.442429 0.177094 0.0742989
0.633253 0.302624 0.0486323
0.637572 0.302538 0.0469902
0.392538 0.817596 0.131598
0.43255 0.677459 0.131729
0.651481 0.301988 0.0389319
0.653453 0.29992 0.0381181
0.6165 0.307289 0.0560901
0.620461 0.307498 0.0541943
0.262888 0.177598 0.0787927
0.282423 0.0926737 0.0679985
0.633362 0.307359 0.0486956
0.222205 0.162464 0.0734837
0.187235 0.0574973 0.0518257
0.28748 0.0925326 0.068493
0.650464 0.306835 0.0390813
0.616061 0.312342 0.0564214
0.620398 0.312299 0.0544379
0.197634 0.0573388 0.053252
0.62839 0.312306 0.0509057
0.63329 0.31243 0.0488962
0.637495 0.312628 0.0470869
0.292597 0.0923959 0.0689398
0.442254 0.142459 0.0725893
0.182656 0.0927151 0.0578853
0.177616 0.0923369 0.0573354
0.616314 0.317075 0.0565782
0.62042 0.317004 0.0547745
0.247396 0.192826 0.0786066
0.628468 0.317599 0.0512758
0.633403 0.317183 0.0490404
0.447595 0.142578 0.0729428
0.442929 0.0922003 0.0698197
0.644945 0.31584 0.0437554
0.616789 0.321935 0.0566561
0.620496 0.322088 0.0551285
0.192617 0.0623205 0.0531133
0.227601 0.127258 0.0682177
0.633677 0.32246 0.0493465
0.262821 0.0970437 0.0663795
0.394081 0.728816 0.129433
0.616794 0.32703 0.0569038
0.620409 0.327121 0.0553617
0.625029 0.3272 0.053441
0.277604 0.0973128 0.0680074
0.633534 0.327391 0.0496356
0.637713 0.327726 0.0477348
0.192599 0.0873438 0.0577377
0.616894 0.332198 0.0570785
0.620919 0.33239 0.0552772
0.625601 0.332361 0.0533469
0.172708 0.0677834 0.0518821
0.633252 0.332256 0.0498211
0.177964 0.0675263 0.052455
0.18234 0.0674412 0.0528774
0.64877 0.33378 0.0398165
0.61692 0.336262 0.0570425
0.6201 0.336986 0.0557044
0.625651 0.337172 0.0535458
0.187291 0.0675147 0.0533329
0.633112 0.337292 0.0500639
0.187088 0.0877827 0.0573346
0.64137 0.337642 0.0465867
0.649151 0.336908 0.0412415
0.222419 0.127768 0.0680103
0.617573 0.342068 0.0568654
0.620646 0.342829 0.0555551
0.625405 0.34252 0.053714
0.267416 0.17281 0.0782025
0.633081 0.342441 0.050193
0.469 0.878527 0.105566
0.641245 0.342357 0.0467697
0.649402 0.342726 0.041569
0.651003 0.342496 0.0398966
0.617052 0.346989 0.0571043
0.620276 0.347225 0.0557801
0.625355 0.347226 0.053702
0.207252 0.162609 0.0718441
0.633126 0.347406 0.0502359
0.182198 0.0872657 0.0568091
0.641007 0.347393 0.0469402
0.6485 0.34783 0.0415746
0.43248 0.157592 0.0730537
0.617388 0.35159 0.0571697
0.620928 0.351939 0.0555719
0.625269 0.352131 0.0539542
0.629098 0.352365 0.0521983
0.633278 0.352255 0.0504231
0.227499 0.147672 0.0715104
0.641093 0.352568 0.0469282
0.648248 0.351558 0.041311
0.649052 0.350497 0.0394659
0.617293 0.356973 0.0574753
0.620658 0.356805 0.0560993
0.625346 0.357272 0.0541006
0.167451 0.0726042 0.0521384
0.633619 0.357613 0.0505674
0.172402 0.0723212 0.0527478
0.641159 0.357665 0.0470736
0.617493 0.361995 0.0577608
0.621149 0.360897 0.0562052
0.625647 0.361828 0.054459
0.629761 0.361931 0.0525758
0.177482 0.0724202 0.0533239
0.638297 0.362641 0.0487425
0.232449 0.147046 0.0715842
0.617836 0.365607 0.0579685
0.621197 0.367282 0.0567989
0.624309 0.368372 0.0556258
0.630548 0.366633 0.0527373
0.471375 0.878525 0.104988
0.638331 0.367326 0.0487999
0.640736 0.3673 0.0471228
0.621928 0.37157 0.0566609
0.212528 0.182637 0.0737146
0.632058 0.370323 0.0524856
0.633762 0.372313 0.0513175
0.638164 0.372464 0.0490309
0.423846 0.180748 0.0746458
0.62201 0.377785 0.0566033
0.625461 0.377741 0.0553029
0.630184 0.378665 0.0533511
0.634515 0.377959 0.0510024
0.638155 0.377343 0.0489644
0.640369 0.377284 0.0471709
0.622415 0.381993 0.0566326
0.62612 0.382519 0.0550036
0.630483 0.382646 0.0531225
0.634085 0.382893 0.0510493
0.638565 0.382298 0.0486033
0.639195 0.380569 0.047917
0.626645 0.386891 0.0548367
0.630858 0.387652 0.0528871
0.633724 0.387409 0.0510672
0.638317 0.387702 0.0486765
0.621247 0.392916 0.0569486
0.62612 0.392508 0.0548309
0.630587 0.392226 0.052854
0.633537 0.392572 0.0511358
0.638313 0.392397 0.0484908
0.640014 0.394377 0.0470356
0.621073 0.397199 0.0568843
0.625476 0.397307 0.0549839
0.630484 0.397561 0.0528392
0.634165 0.397461 0.0509689
0.638295 0.397476 0.0485389
0.640846 0.395371 0.0460146
0.622167 0.401926 0.0564261
0.625847 0.402374 0.0548787
0.63016 0.40223 0.0530661
0.634586 0.402668 0.0510204
0.637934 0.402331 0.0489919
0.622342 0.407188 0.0564909
0.625732 0.40742 0.055109
0.630441 0.40764 0.053308
0.634869 0.407675 0.0513132
0.637871 0.407401 0.0493027
0.622373 0.411031 0.0565653
0.626347 0.412087 0.0549735
0.630592 0.412456 0.0531994
0.63519 0.412406 0.0511817
0.638179 0.412619 0.0490111
0.622691 0.41676 0.0565115
0.626191 0.418083 0.0550234
0.630633 0.41707 0.0530929
0.634942 0.417755 0.0511509
0.63801 0.4174 0.0489943
0.625486 0.422257 0.0552897
0.630422 0.422426 0.052984
0.634461 0.422472 0.0509965
0.637753 0.42253 0.0485525
0.62591 0.427254 0.0549664
0.629919 0.427371 0.0532301
0.634998 0.4277 0.0504817
0.637711 0.427479 0.04812
0.626921 0.432005 0.0546192
0.630357 0.432976 0.053122
0.63504 0.432728 0.0503736
0.312403 0.1471 0.0763013
0.626782 0.435702 0.0547509
0.630979 0.437263 0.0528725
0.635288 0.437639 0.0499212
0.41235 0.327352 0.0981624
0.632047 0.44273 0.0519722
0.635096 0.442624 0.0497097
0.407564 0.282427 0.0914652
0.632113 0.447827 0.0518498
0.635076 0.447661 0.0494016
0.637035 0.446859 0.0472536
0.630768 0.452579 0.0525312
0.634736 0.452503 0.0492434
0.637169 0.452717 0.0465507
0.626395 0.457613 0.055001
0.630968 0.457161 0.0524534
0.634546 0.457479 0.0493593
0.636564 0.456732 0.0468993
0.626246 0.462157 0.0552613
0.630452 0.462223 0.0529597
0.63457 0.462573 0.0491893
0.628337 0.465698 0.0544066
0.631503 0.467831 0.0522755
0.634411 0.467499 0.0496
0.632148 0.471031 0.051902
0.634386 0.472468 0.0495857
0.634636 0.477555 0.049184
0.634275 0.482501 0.04949
0.634048 0.487343 0.0492374
0.633889 0.492538 0.0494195
0.634026 0.497374 0.04915
0.633828 0.50263 0.049145
0.633986 0.507602 0.0485143
0.633729 0.512557 0.0481999
0.633451 0.517564 0.0484855
0.633357 0.522422 0.0486907
0.632172 0.528185 0.0512173
0.633296 0.52801 0.0488262
0.632125 0.532365 0.0511076
0.63349 0.532849 0.0482763
0.632111 0.537975 0.0505336
0.258084 0.177293 0.0784194
0.631706 0.542957 0.0504558
0.252462 0.147561 0.0727609
0.631437 0.547333 0.049968
0.632347 0.549317 0.0476935
0.631014 0.552748 0.0499617
0.257475 0.147415 0.0730924
0.631054 0.558121 0.0493532
0.632082 0.556433 0.046977
0.630583 0.562726 0.0491709
0.630238 0.567138 0.0489345
0.48534 0.751388 0.118551
0.627308 0.582638 0.0514635
0.628617 0.582863 0.0484201
0.627936 0.587621 0.0482578
0.627404 0.592553 0.0481458
0.625442 0.598773 0.0506994
0.4474 0.672598 0.13242
0.625548 0.602785 0.0508719
0.481858 0.75233 0.119557
0.476934 0.752075 0.121217
0.62603 0.607241 0.0508429
0.472194 0.752364 0.122613
0.627296 0.610441 0.0505155
0.468287 0.753087 0.123737
0.217641 0.127379 0.067672
0.485619 0.747531 0.119168
0.482281 0.747113 0.1204
0.477371 0.747452 0.122033
0.567728 0.0231991 0.0517212
0.207812 0.0772925 0.057785
0.576565 0.0239532 0.0507775
0.437606 0.672423 0.132116
0.217499 0.0726808 0.0585388
0.590074 0.0239579 0.0478361
0.472617 0.747431 0.123647
0.548167 0.0270797 0.0556775
0.552919 0.0280821 0.0552376
0.557704 0.0278233 0.0543984
0.562587 0.0277756 0.053636
0.567673 0.0275018 0.0528871
0.572702 0.0276209 0.0522517
0.577049 0.0276964 0.0514372
0.257297 0.102405 0.0666247
0.586679 0.0276969 0.0493227
0.212559 0.0722948 0.0578035
0.552802 0.0321016 0.0562357
0.557934 0.0320769 0.0553363
0.563047 0.0320993 0.0544097
0.5676 0.0323457 0.0537411
0.572754 0.0324341 0.0529334
0.577599 0.0324413 0.051965
0.582164 0.0331654 0.0509847
0.262408 0.147256 0.0734182
0.272568 0.17228 0.0783294
0.419286 0.673359 0.129552
0.486067 0.742166 0.119718
0.490269 0.736269 0.118894
0.553689 0.0350793 0.0566082
0.557818 0.0369593 0.05611
0.56315 0.0372934 0.0551055
0.567617 0.037439 0.0542839
0.572867 0.0374599 0.0533691
0.577572 0.0375205 0.0524158
0.582435 0.0375327 0.0512496
0.586774 0.0374427 0.050101
0.272331 0.10205 0.0680104
0.184233 0.0445298 0.0497428
0.487009 0.737244 0.119887
0.490476 0.731822 0.119316
0.487311 0.732544 0.12034
0.490972 0.727185 0.119771
0.487254 0.727394 0.121021
0.479419 0.727766 0.123906
0.417708 0.787196 0.131757
0.227259 0.0673082 0.0588364
0.464384 0.726594 0.128054
0.559601 0.0422683 0.0563091
0.563269 0.0421111 0.0555468
0.567993 0.0422637 0.054624
0.572735 0.0422751 0.0537324
0.495028 0.720926 0.119651
0.582345 0.0424609 0.0515583
0.58682 0.0426456 0.0503756
0.212757 0.127345 0.0674182
0.183135 0.0481794 0.0500917
0.187495 0.0472317 0.0505392
0.492048 0.72253 0.120323
0.487225 0.722239 0.122013
0.471954 0.724471 0.12665
0.468143 0.723736 0.127567
0.480868 0.695653 0.126666
0.392618 0.782579 0.132031
0.559707 0.0458994 0.0565307
0.56261 0.0475049 0.0560535
0.56838 0.0472191 0.0548471
0.572827 0.0475291 0.0539425
0.481192 0.692827 0.126638
0.582523 0.0475074 0.0517415
0.586928 0.0476988 0.0505875
0.267517 0.197225 0.0811866
0.479497 0.692363 0.127028
0.48154 0.690049 0.126656
0.479653 0.687909 0.127285
0.479538 0.683317 0.127784
0.481469 0.678988 0.127839
0.498461 0.662352 0.124765
0.227705 0.157991 0.0731806
0.502579 0.657482 0.123293
0.562838 0.0523756 0.0562648
0.568212 0.0523565 0.0551
0.572764 0.0525022 0.054161
0.212902 0.0676027 0.0572374
0.582453 0.0524753 0.0518695
0.277583 0.172687 0.0785727
0.30268 0.23275 0.0873013
0.207704 0.127648 0.0671907
0.501985 0.652296 0.123015
0.506658 0.647329 0.120956
0.502333 0.64794 0.122503
0.650371 0.380964 0.020473
0.494121 0.64534 0.125248
0.511429 0.642409 0.118747
0.506737 0.642699 0.120451
0.564014 0.0570322 0.0561531
0.568264 0.0577593 0.0552626
0.572691 0.0573172 0.054303
0.577775 0.0574735 0.0531722
0.582675 0.0575104 0.0519952
0.586983 0.057642 0.050824
0.227758 0.0624366 0.0584204
0.502717 0.642127 0.121832
0.497778 0.642001 0.123587
0.493603 0.64215 0.125214
0.31751 0.142345 0.0761392
0.217577 0.0623095 0.0572999
0.511561 0.638015 0.118352
0.50654 0.637421 0.120035
0.502037 0.637352 0.121688
0.564469 0.0606716 0.0562605
0.568113 0.061893 0.0554504
0.572659 0.0625413 0.0544774
0.577638 0.062542 0.0533906
0.262592 0.107521 0.0677581
0.587137 0.062499 0.0510086
0.487374 0.88761 0.10048
0.595021 0.0638689 0.0486746
0.207648 0.157306 0.0715111
0.489162 0.637611 0.126549
0.510789 0.632689 0.11829
0.506619 0.632613 0.119761
0.501992 0.632312 0.121503
0.44446 0.53749 0.123082
0.447624 0.667563 0.132358
0.488927 0.63236 0.126519
0.510922 0.627275 0.118115
0.568761 0.0670431 0.0556207
0.572946 0.0677853 0.0547195
0.506492 0.62744 0.119763
0.50191 0.627336 0.121525
0.587053 0.0675122 0.0512875
0.267399 0.107646 0.0682219
0.437311 0.667459 0.131821
0.232216 0.0571771 0.0582288
0.38371 0.74433 0.129714
0.489536 0.627729 0.126363
0.511249 0.622474 0.118115
0.506342 0.622401 0.119983
0.502139 0.622603 0.121611
0.497726 0.62234 0.123454
0.222546 0.0574228 0.057322
0.489701 0.62308 0.126543
0.514504 0.61675 0.117102
0.511459 0.617292 0.118173
0.569501 0.0730028 0.0557753
0.573265 0.0720497 0.0548221
0.506601 0.617577 0.120052
0.502179 0.617638 0.121811
0.217921 0.0576144 0.0567577
0.652425 0.362635 0.0177991
0.497763 0.617345 0.123624
0.117325 0.0981603 0.0506818
0.489581 0.61727 0.126777
0.514491 0.612707 0.1172
0.511196 0.612379 0.118374
0.506514 0.612567 0.120161
0.502239 0.612516 0.121885
0.657482 0.582822 0.00799919
0.242768 0.112665 0.0670899
0.489689 0.61303 0.126736
0.514366 0.607829 0.117316
0.564884 0.078961 0.0571169
0.567966 0.0776796 0.0563527
0.57316 0.0771789 0.0550423
0.577621 0.0773147 0.0540362
0.511469 0.60756 0.118366
0.402622 0.317916 0.0959495
0.237729 0.0524127 0.0582361
0.595332 0.0782307 0.0491756
0.506393 0.607363 0.120281
0.502409 0.607753 0.121886
0.252399 0.112727 0.0677805
0.493523 0.607577 0.125457
0.488921 0.607245 0.126946
0.514334 0.602384 0.117319
0.511378 0.602367 0.118414
0.506456 0.602663 0.120337
0.502516 0.603175 0.121925
0.567872 0.08222 0.0565785
0.573178 0.0825289 0.0552942
0.577778 0.08246 0.0541735
0.582525 0.0825973 0.0529794
0.587295 0.082402 0.0517215
0.591821 0.0824898 0.0503914
0.596484 0.0828438 0.0488794
0.227657 0.0526957 0.0572088
0.493382 0.602346 0.125419
0.488613 0.60225 0.126972
0.514472 0.597734 0.117294
0.511345 0.597681 0.118444
0.506444 0.597497 0.120328
0.502448 0.596317 0.121926
0.257667 0.0456405 0.0599366
0.493113 0.597569 0.125401
0.56904 0.0876575 0.0565102
0.573199 0.0872515 0.0554764
0.577742 0.0872113 0.0543103
0.582512 0.0874592 0.0531194
0.242264 0.0478136 0.0581755
0.591547 0.0876847 0.0506426
0.257443 0.112169 0.0680378
0.472763 0.882508 0.103875
0.540103 0.745702 0.100241
0.514395 0.593819 0.117304
0.511571 0.592411 0.118391
0.50658 0.592561 0.120361
0.502078 0.592189 0.122082
0.498226 0.592255 0.123517
0.227223 0.0472246 0.0562956
0.521517 0.850266 0.0980464
0.56928 0.0921332 0.0565374
0.573 0.0922893 0.0556915
0.57852 0.0924455 0.0543227
0.582488 0.0925033 0.0533002
0.247734 0.1522 0.073276
0.302635 0.227701 0.0868249
0.242545 0.12217 0.0685558
0.658075 0.572681 0.00936787
0.514284 0.587896 0.117361
0.511236 0.587331 0.118544
0.506669 0.587639 0.12035
0.501922 0.587683 0.122097
0.498135 0.587369 0.123559
0.516891 0.850712 0.0992528
0.488893 0.587546 0.126335
0.227309 0.117772 0.0665425
0.572828 0.0974937 0.055847
0.577805 0.0971508 0.0546682
0.582452 0.0974904 0.0534649
0.587472 0.0975718 0.0521493
0.592336 0.0974616 0.0507533
0.242726 0.152547 0.0730519
0.514486 0.584718 0.117168
0.511405 0.582705 0.118487
0.506507 0.582481 0.120359
0.50232 0.583274 0.122015
0.447456 0.662583 0.132287
0.232414 0.117258 0.0669338
0.488612 0.582284 0.126191
0.237711 0.152531 0.0727859
0.569648 0.104612 0.0570173
0.573095 0.102449 0.0560013
0.578291 0.10256 0.0547594
0.582645 0.102399 0.0535901
0.511156 0.57747 0.118549
0.592301 0.102438 0.0509511
0.23252 0.152205 0.0724732
0.506514 0.577717 0.12032
0.502624 0.577206 0.121743
0.497831 0.577559 0.12341
0.227393 0.152771 0.0723716
0.488689 0.57703 0.12605
0.483806 0.577366 0.127148
0.511208 0.572543 0.118366
0.506582 0.572573 0.12017
0.501905 0.572078 0.121857
0.570496 0.108796 0.0571444
0.57303 0.10733 0.0563322
0.577825 0.107279 0.055199
0.582775 0.107281 0.0538819
0.587487 0.107528 0.0525313
0.592218 0.107546 0.051186
0.596626 0.107973 0.0498578
0.600001 0.108608 0.0486779
0.237247 0.117608 0.0674294
0.493156 0.572482 0.124741
0.493064 0.887931 0.0993493
0.247393 0.117452 0.0682122
0.51088 0.567769 0.118332
0.506517 0.567515 0.119959
0.501734 0.567591 0.121684
0.573766 0.112129 0.0566138
0.578483 0.112408 0.0554625
0.582911 0.112354 0.0542679
0.587575 0.112449 0.0528959
0.592068 0.112605 0.0515281
0.218701 0.0440363 0.0547717
0.601172 0.112988 0.0485805
0.212345 0.152559 0.0715248
0.222336 0.15226 0.0721508
0.512178 0.0333445 0.0601892
0.483517 0.567457 0.126803
0.574783 0.116861 0.0567164
0.577938 0.117436 0.055959
0.583472 0.116979 0.0544726
0.587724 0.11764 0.0532887
0.592202 0.11753 0.0518747
0.307417 0.192112 0.0823015
0.600909 0.117528 0.0489782
0.511053 0.562427 0.117945
0.506695 0.562737 0.119667
0.501456 0.562516 0.121526
0.498123 0.562593 0.122736
0.575372 0.123051 0.0569228
0.577922 0.122514 0.0562411
0.583049 0.122304 0.0549774
0.587989 0.1224 0.0535388
0.59223 0.122531 0.0522435
0.237643 0.122657 0.068225
0.600923 0.122616 0.0493257
0.492941 0.562243 0.124223
0.302195 0.222542 0.0862677
0.232698 0.122449 0.0677929
0.513665 0.555804 0.11635
0.574905 0.127095 0.0572138
0.578275 0.127274 0.0563913
0.583082 0.127516 0.0551946
0.587992 0.127455 0.0537893
0.592418 0.12742 0.0524335
0.662395 0.562887 0.00752087
0.601316 0.127756 0.0494356
0.523146 0.0287372 0.058305
0.511221 0.557868 0.117509
0.506449 0.557631 0.119371
0.501563 0.557859 0.121244
0.665409 0.126488 0.0158895
0.575355 0.133996 0.0572942
0.577971 0.132315 0.0566568
0.582889 0.132122 0.0553465
0.587884 0.13267 0.0539484
0.592491 0.132563 0.052525
0.519403 0.0296304 0.0586269
0.601403 0.132742 0.0495872
0.237339 0.177377 0.0763529
0.492729 0.557221 0.123932
0.443994 0.557225 0.124198
0.21728 0.152568 0.0719284
0.574932 0.137387 0.0574613
0.577946 0.13758 0.0567202
0.583362 0.137353 0.0552975
0.587967 0.137561 0.054004
0.592373 0.137545 0.0526883
0.407446 0.797769 0.132013
0.601528 0.137774 0.0497512
0.442406 0.657517 0.131714
0.302591 0.192756 0.0822772
0.447465 0.657629 0.13211
0.664833 0.134575 0.0173925
0.446994 0.556403 0.12519
0.574457 0.142519 0.0575573
0.578322 0.142324 0.0567769
0.582741 0.142284 0.055605
0.587996 0.142284 0.0541271
0.592484 0.142459 0.0527919
0.502849 0.887447 0.0971368
0.601848 0.142548 0.0497994
0.605822 0.143089 0.0482976
0.510977 0.552824 0.117219
0.506432 0.552825 0.119032
0.501594 0.55265 0.120835
0.575241 0.145595 0.0576381
0.578433 0.147353 0.0569706
0.583523 0.147282 0.0556928
0.588166 0.147421 0.0544417
0.592633 0.147452 0.0529555
0.100782 0.130456 0.0548237
0.601678 0.147354 0.0500628
0.452443 0.657424 0.13225
0.578821 0.152024 0.0572605
0.582998 0.152282 0.0563269
0.588506 0.152274 0.0547734
0.592863 0.152345 0.0532797
0.661959 0.55736 0.00896671
0.601446 0.152665 0.0503562
0.426092 0.791437 0.12977
0.579616 0.156112 0.057511
0.583136 0.15753 0.0568904
0.588483 0.157098 0.0554063
0.59269 0.157286 0.0539399
0.597406 0.157623 0.0522676
0.601602 0.157586 0.0506691
0.437612 0.657553 0.131195
0.584014 0.161896 0.0572199
0.588705 0.162469 0.0559977
0.593039 0.162428 0.0544723
0.59772 0.162453 0.0526701
0.228223 0.178122 0.0755273
0.232225 0.17767 0.0758957
0.584247 0.165842 0.0575163
0.588218 0.167213 0.0566169
0.592988 0.1674 0.0549695
0.597581 0.167471 0.0531503
0.429332 0.658656 0.129949
0.412506 0.79742 0.131423
0.585645 0.170839 0.0574789
0.588745 0.172398 0.0567132
0.59368 0.172311 0.055001
0.597731 0.172313 0.0533755
0.417422 0.797447 0.130672
0.497591 0.852492 0.103556
0.610096 0.172874 0.0478636
0.588612 0.177394 0.0568905
0.593762 0.177427 0.055195
0.597904 0.17741 0.0535439
0.497712 0.887402 0.0984014
0.422552 0.787586 0.130934
0.609954 0.177615 0.0480878
0.588501 0.182746 0.0569896
0.593318 0.182489 0.0555051
0.597809 0.182514 0.0537841
0.602324 0.182509 0.0518111
0.52768 0.0283182 0.0581036
0.609796 0.182586 0.0484719
0.588401 0.187421 0.0569949
0.593852 0.187419 0.0553251
0.598368 0.187308 0.0537538
0.602492 0.187612 0.0520519
0.532248 0.02815 0.0578727
0.609813 0.18767 0.048744
0.585711 0.192315 0.0577727
0.588243 0.19253 0.0571961
0.59323 0.192404 0.0557213
0.597906 0.192341 0.0540497
0.602436 0.192635 0.0523349
0.6588 0.567705 0.00947927
0.610469 0.193552 0.0488155
0.588817 0.197099 0.0572549
0.59366 0.19748 0.05578
0.598128 0.197384 0.0542181
0.603143 0.197369 0.0523457
0.606463 0.197511 0.0509503
0.610941 0.197865 0.0489371
0.589206 0.202442 0.0574922
0.593733 0.202102 0.0561094
0.598054 0.202393 0.0545383
0.102502 0.117756 0.0535927
0.606663 0.202595 0.0512791
0.610981 0.202525 0.0492027
0.589535 0.20701 0.0577811
0.593873 0.207321 0.0565357
0.598014 0.207274 0.0550938
0.602902 0.207418 0.0533065
0.447542 0.652437 0.13198
0.611729 0.207885 0.0493445
0.589368 0.210332 0.0580365
0.593803 0.212179 0.056858
0.598412 0.212353 0.055232
0.603604 0.212416 0.0533579
0.606783 0.212549 0.0519476
0.611461 0.212726 0.0498592
0.614773 0.213493 0.0482951
0.594404 0.217272 0.0570845
0.598097 0.217402 0.0557708
0.603081 0.217371 0.0538817
0.606802 0.217558 0.0522967
0.61134 0.217596 0.0500744
0.12717 0.110282 0.055031
0.594473 0.222223 0.057387
0.598525 0.222401 0.0560388
0.603197 0.222323 0.0542147
0.442607 0.652514 0.131521
0.611869 0.222651 0.0501601
0.297704 0.227631 0.0863307
0.594783 0.227377 0.0575611
0.598849 0.227195 0.0562985
0.603408 0.227407 0.0546403
0.607631 0.227686 0.0527448
0.611831 0.227466 0.0505995
0.444096 0.552393 0.123885
0.595287 0.232105 0.0576416
0.599367 0.232319 0.0563986
0.603696 0.232323 0.0547277
0.607621 0.232482 0.0529868
0.108119 0.112167 0.0532752
0.437431 0.662427 0.13155
0.595432 0.23579 0.0578537
0.598981 0.237326 0.0567951
0.603579 0.237377 0.0550101
0.607875 0.237474 0.0530833
0.612342 0.237653 0.0508036
0.127661 0.106972 0.054263
0.599363 0.242525 0.0569511
0.60365 0.242438 0.0553077
0.608196 0.242483 0.0532041
0.122352 0.105853 0.0533346
0.452581 0.662671 0.132281
0.599284 0.247257 0.0572489
0.60366 0.247434 0.0554271
0.608356 0.247399 0.0533497
0.659773 0.558325 0.0105601
0.615786 0.247263 0.0495641
0.596299 0.252558 0.0584985
0.599006 0.252164 0.0574884
0.603375 0.2523 0.0555593
0.608144 0.252233 0.0533495
0.112406 0.107222 0.0525101
0.412734 0.322494 0.0975284
0.595981 0.255929 0.0588236
0.599074 0.257149 0.0575987
0.60395 0.257107 0.0554167
0.608269 0.257264 0.053629
0.666253 0.551886 0.00711518
0.207447 0.152241 0.071001
0.513096 0.817758 0.104104
0.132685 0.102394 0.053768
0.599357 0.261874 0.0581402
0.603976 0.262019 0.0560458
0.608497 0.262294 0.054154
0.127467 0.1024 0.0530391
0.252683 0.152675 0.0736492
0.620932 0.262886 0.048573
0.444641 0.548138 0.123715
0.600441 0.266753 0.0584774
0.604222 0.266948 0.0569837
0.608661 0.267316 0.0552064
0.117676 0.102291 0.0518242
0.616637 0.26711 0.0515041
0.28283 0.172076 0.0786054
0.247478 0.0472476 0.0588496
0.600924 0.271315 0.0594323
0.604637 0.271887 0.0580613
0.25164 0.0469499 0.0593841
0.61319 0.272207 0.0544173
0.61691 0.272079 0.0526257
0.589189 0.686465 0.0800115
0.639006 0.274605 0.0441365
0.662553 0.552588 0.00929803
0.601875 0.276703 0.0603847
0.605177 0.276887 0.0590874
0.609711 0.276659 0.0570491
0.442506 0.147384 0.0728337
0.618114 0.277439 0.0533064
0.222687 0.0522866 0.0566172
0.657374 0.577348 0.00938224
0.502354 0.852625 0.102461
0.137444 0.0974786 0.0534004
0.602013 0.281656 0.0611606
0.60544 0.281828 0.0598032
0.61022 0.281786 0.0578259
0.613949 0.282172 0.0558994
0.437414 0.147268 0.072375
0.62178 0.283806 0.0527902
0.640241 0.283505 0.0452043
0.407701 0.317523 0.0962666
0.132527 0.097152 0.0525028
0.602236 0.287481 0.0618708
0.605665 0.286972 0.0603598
0.609982 0.286893 0.0583733
0.613903 0.287194 0.0565658
0.127417 0.0977158 0.051832
0.208789 0.0580838 0.0553274
0.212732 0.0575832 0.0559674
0.437514 0.152439 0.0728033
0.671606 0.00474815 0.012021
0.648063 0.289459 0.0431866
0.602272 0.291761 0.06218
0.605895 0.292026 0.0605797
0.610579 0.2924 0.0586546
0.614295 0.292083 0.0567652
0.517631 0.81746 0.102648
0.20255 0.157511 0.070948
0.237282 0.0577306 0.0588345
0.142496 0.0926161 0.0530966
0.636221 0.293492 0.0467615
0.13779 0.092404 0.0522916
0.644442 0.292889 0.0440977
0.402503 0.312733 0.095631
0.602199 0.297859 0.0622666
0.605713 0.297181 0.0607464
0.610222 0.297442 0.0587705
0.614307 0.297576 0.0566728
0.132537 0.0927604 0.0514958
0.297431 0.232809 0.0866462
0.627616 0.298061 0.0505815
0.630844 0.298368 0.0492095
0.207261 0.0623847 0.0555808
0.212159 0.0627985 0.0565095
0.157306 0.0873559 0.0539812
0.152695 0.0873268 0.0533226
0.147746 0.0880127 0.0527809
0.602775 0.302216 0.0620447
0.606203 0.302443 0.0605075
0.610611 0.302387 0.0586753
0.614444 0.302387 0.0567316
0.232683 0.0626487 0.0588383
0.307839 0.217311 0.0860377
0.142653 0.0873446 0.0518745
0.302764 0.217546 0.0858371
0.552095 0.672346 0.101604
0.207889 0.0677314 0.0563878
0.647721 0.302331 0.0420465
0.170923 0.0807803 0.0543779
0.602159 0.306855 0.0624359
0.605842 0.30721 0.0608734
0.610145 0.307296 0.0589136
0.614493 0.307124 0.0567385
0.402105 0.309349 0.0952377
0.622833 0.307711 0.0527407
0.162539 0.0827675 0.0536744
0.157684 0.0823408 0.0528508
0.63591 0.308623 0.0468429
0.152483 0.0825374 0.0521215
0.147256 0.0825227 0.0513573
0.647377 0.307311 0.0418796
0.232217 0.067734 0.0592368
0.602976 0.311075 0.0621615
0.606187 0.31223 0.0607849
0.6105 0.312397 0.0588667
0.614385 0.31236 0.0570068
0.660442 0.552135 0.0111052
0.62288 0.312288 0.0529037
0.142562 0.0821803 0.0506338
0.138224 0.0834738 0.0503078
0.134388 0.084566 0.0500166
0.267281 0.147719 0.0737879
0.191184 0.0762316 0.0552924
0.647632 0.311807 0.0416892
0.606148 0.316937 0.0611106
0.610254 0.317364 0.0592018
0.61456 0.31738 0.057183
0.618592 0.317399 0.055193
0.622861 0.317262 0.0532725
0.626974 0.317441 0.0514667
0.631604 0.318353 0.049742
0.63595 0.317866 0.0472032
0.207158 0.0727729 0.0569632
0.643535 0.317822 0.0439493
0.647412 0.316781 0.0414403
0.606299 0.322187 0.0612636
0.610191 0.32213 0.0594925
0.614763 0.322268 0.0574002
0.187187 0.0770449 0.055108
0.622899 0.322889 0.0538175
0.182429 0.0771868 0.0547688
0.177525 0.0770394 0.0543117
0.636207 0.322923 0.0474898
0.2227 0.072426 0.0589932
0.643747 0.322531 0.0438797
0.647546 0.32235 0.0415266
0.227817 0.072499 0.0593688
0.60684 0.32677 0.0612736
0.610721 0.32712 0.0595883
0.61533 0.32695 0.0574613
0.432566 0.672457 0.131535
0.622952 0.327586 0.0538653
0.172769 0.0773388 0.0538707
0.177822 0.0797238 0.0549057
0.636307 0.326237 0.0476552
0.188356 0.0794613 0.0556788
0.197761 0.0771718 0.0562163
0.202693 0.0778258 0.0570325
0.167471 0.0778506 0.0532764
0.60643 0.332498 0.0615641
0.610066 0.332757 0.060047
0.614661 0.332636 0.0580648
0.16241 0.0774318 0.0524318
0.623585 0.332411 0.0537299
0.626575 0.333314 0.0522117
0.232496 0.157398 0.0733213
0.639193 0.333126 0.0464731
0.643869 0.33317 0.0444825
0.647647 0.332392 0.0422445
0.212597 0.0774766 0.0585274
0.606873 0.337582 0.0613935
0.610494 0.337212 0.0598556
0.615145 0.337472 0.0577821
0.217253 0.0776409 0.0591308
0.623567 0.337481 0.0538067
0.502283 0.882472 0.0980169
0.237381 0.157533 0.0736125
0.142747 0.0791262 0.0499208
0.639016 0.337676 0.0469559
0.242236 0.157256 0.0738528
0.542917 0.692612 0.104117
0.606628 0.342207 0.061564
0.610235 0.342319 0.0600003
0.615084 0.342421 0.0578933
0.51199 0.85223 0.10029
0.623495 0.342279 0.0539334
0.177276 0.0828475 0.0555
0.631947 0.34276 0.050427
0.182598 0.082293 0.0558399
0.639474 0.342228 0.0468463
0.187583 0.082696 0.0563016
0.647687 0.342017 0.0428771
0.607137 0.347629 0.061353
0.610705 0.34722 0.0597881
0.614978 0.347105 0.0579773
0.618489 0.347501 0.0561247
0.623272 0.347282 0.0540023
0.663205 0.548455 0.00934223
0.18771 0.0723184 0.0542311
0.192659 0.082615 0.0567151
0.639094 0.34756 0.0469565
0.197513 0.0824167 0.0572033
0.202175 0.0826432 0.057843
0.606618 0.352068 0.0618387
0.610916 0.352083 0.0598946
0.614873 0.352403 0.0580639
0.618552 0.352589 0.056448
0.623487 0.352211 0.054174
0.627782 0.352614 0.0523891
0.20737 0.0821323 0.0585259
0.212424 0.0826543 0.0592953
0.639717 0.352994 0.046951
0.182546 0.0727987 0.0538942
0.648335 0.353628 0.0427135
0.606978 0.356762 0.0620431
0.61056 0.356501 0.0604463
0.614872 0.356525 0.058422
0.162781 0.0723219 0.0513807
0.62365 0.357629 0.0545593
0.628081 0.357276 0.0526573
0.631876 0.357514 0.0510117
0.222446 0.147157 0.0713085
0.639374 0.357365 0.0473851
0.172844 0.0877883 0.0560001
0.647272 0.357292 0.0424832
0.607223 0.364221 0.0624499
0.613205 0.359682 0.0595279
0.61546 0.36094 0.0584406
0.618671 0.361927 0.0568887
0.623496 0.36251 0.0549364
0.627819 0.362372 0.0530443
0.177644 0.0877278 0.0564792
0.202205 0.162255 0.0711817
0.660544 0.547545 0.0114838
