0.51723523766768886 0.52266407824713623 0.11588720758383264 -0.32481664799166243 0.075925279309513108 -0.94272450755734194
0.5125556353618117 0.52231956819308734 0.11699676552155494 0.32265599531717126 -0.084001891782034502 0.94278141202662924
0.51050378541780739 0.11406811892947195 0.069665983350931895 -0.12711149039960465 0.064534296753814127 -0.98978684248219917
0.51310891610481746 0.11186108678585086 0.069160690768176422 -0.13179018043993312 0.064618983801157409 -0.98916921468074182
0.51794933389581399 0.11226472257319882 0.068385819158605407 0.14067140937350406 -0.071716040441708484 0.98745549982175662
0.52322842598552044 0.11208556370826081 0.067594238862580605 0.14597951750235913 -0.070902842336936472 0.98674351653219483
0.52847751203525561 0.11204396646604775 0.066794796229156517 0.15441388857659064 -0.069428718723120939 0.98556380008151778
0.53313106549136347 0.11238359662021556 0.066238277066018938 -0.16840817518757181 0.061754354177420485 -0.98378101540440477
0.5380502496820857 0.11221694862586219 0.065277207189649925 0.16722648721397809 -0.067306440854610003 0.98361839398902973
0.54285637974435763 0.11232431133217248 0.06446574543758668 0.17406043621016606 -0.066040611120368867 0.98251799079160629
0.54764927289685994 0.11248400013048244 0.063745342069182614 -0.20321091802736588 0.05820358551131042 -0.97740353254329027
0.66595532109991917 0.48888268065497908 0.017126299392910951 -0.59839936059106225 -0.0024087330087482124 -0.80119436047035453
0.4926660066546979 0.86265330421266095 0.10396712141522099 0.23871033243839188 0.15324174432946802 0.95892353448125067
0.66372396151837543 0.49263402015946917 0.018722734648063517 -0.60049099710918163 -0.0029869847239262851 -0.79962593774406776
0.56572430806283658 0.11264432082338002 0.059963026365373186 -0.24482696452157632 0.053321920688848057 -0.96809944231840295
0.50767432204381457 0.52257746112226233 0.11962890051170851 -0.28178302555682033 0.080886541786360969 -0.956062599344775
0.5036358612733921 0.52195343738727396 0.12020179688731608 0.29600057337803914 -0.087652842730997146 0.95115752623897543
0.1424515945485996 0.13220137428996365 0.061680219370162374 0.12473632103904361 0.15169245455652566 -0.98052549658041066
0.64032941823934508 0.48773741375419033 0.042502934138377045 -0.56115622014235511 0.011069733614689886 -0.8276358846698495
0.49054485979958889 0.52133159596186929 0.12401415450710966 0.24787072050185752 -0.093287141708346039 0.96429125014685113
0.51658635899676564 0.51759549436492214 0.11501635137669722 0.32850232294668874 -0.086667785161468072 0.94051843088470899
0.51238562375937935 0.51734559257847013 0.11656718074073998 0.32002966454462256 -0.088585219246803376 0.94325694948007255
0.50762212120284744 0.517552342571718 0.11836445582482777 0.3066741082685292 -0.089845219101982135 0.94756468271153893
0.50302911031261732 0.51737923918991557 0.12070042056458294 -0.26528687108596599 0.089168508234011845 -0.9600374227959757
0.49875032583778139 0.51706402160489129 0.12125888097297201 0.27733320421100904 -0.0952541520960688 0.95604023992220843
0.64247432768492341 0.48282214489575803 0.043034958554638174 0.71427826010393203 0.0078168651612926 0.69981816478421721
0.64301036789008015 0.46718601344017507 0.042410054818841102 0.715246673555756 0.0049526097957582269 0.6988545396744853
0.51009648622820047 0.11728379154804884 0.069767818528999534 0.13026716728211729 -0.071816114877714041 0.98887456776487281
0.51333297952012091 0.11707851251769891 0.069322907118345697 0.13520231366211971 -0.071295579205819179 0.9882496014500165
0.51818228725823789 0.11738400812231606 0.068660682243700408 0.14156586960161777 -0.07025918108986294 0.98743240378089658
0.52328060120716391 0.11717057345459145 0.067881772443130317 0.14828621706512035 -0.069216454920101811 0.986519275126852
0.52854522603245024 0.11707027600022095 0.067250897170906265 -0.16040683688453644 0.062103372788285864 -0.98509533435552166
0.53279493931757838 0.1172572220487936 0.066565805866876354 -0.16761521102305077 0.061507066160637093 -0.98393191931454749
0.53786176061926971 0.11717258199140493 0.065531008730276397 0.1689691262112204 -0.065415589389745996 0.98344813541549236
0.54311678126171359 0.11734853145168996 0.064814024337818896 -0.19063075174542363 0.059446638676709795 -0.9798602010690175
0.54785548757849523 0.11750344410692939 0.063778596812384403 0.18596989294812544 -0.062510413637116374 0.98056496322466025
0.16243814023160377 0.13240210321649404 0.064213646525696791 0.11517481660453756 0.14528476046872973 -0.98266326887477329
0.5575036498163225 0.11743040217915048 0.061833418281309567 0.20420220146386539 -0.059789034152224391 0.97710118836917548
0.56227992997678022 0.11741720111111141 0.060994497324910198 -0.23412677562720347 0.054747024376850979 -0.97066338977850075
0.30250478671392556 0.10763360575316232 0.071476261538906169 -0.083220710037758466 -0.13117913284883997 0.98785947812724739
0.51613279436838366 0.51263794650186489 0.11464886674131981 0.32548700548227205 -0.09196974371706694 0.94106310920299097
0.51240546502451534 0.51280344869814787 0.11606606240788621 0.31842918986077717 -0.092861948773292291 0.94338725320762928
0.50723939696557385 0.51238452735840834 0.11795910186832273 0.30121396756812857 -0.095822459020596024 0.94872978349428483
0.50282779880727446 0.51232207279980302 0.11946995039454897 0.28399616905661285 -0.0989066957115384 0.95371045999537651
0.5276759955071656 0.79761197936355821 0.10182188566205159 -0.31579034388004878 -0.08904648615254776 -0.94464129806821628
0.49358694274393572 0.51169181852635448 0.12211951065185085 0.25513735535478083 -0.10394968069821764 0.9613008861877258
0.29762265790877274 0.10712737745391368 0.071002415234553376 -0.083541992900702286 -0.1315009254238925 0.98778957376297449
0.51571104283106461 0.50793819253121075 0.1150757549202789 -0.31509181004670739 0.093205201771572585 -0.94447336733452159
0.51225939151809563 0.50736875791820235 0.11639697835146072 -0.29629676883041689 0.097107532347722333 -0.95014648972776328
0.50742994309351985 0.50768667129689171 0.11727688236335775 0.29894943475012253 -0.10312870598114614 0.94867998053360258
0.50973459597768567 0.12232041858995446 0.070279472467135201 -0.12607408776060289 0.063514003213147152 -0.9899855028186888
0.51285278196970818 0.12221565373684852 0.069845932567634897 -0.13177649692687929 0.06336631121446365 -0.98925207377126678
0.5180959853919721 0.12185553519660625 0.069070143515031684 -0.1408431465686118 0.063041997270931197 -0.98802272982191275
0.52292673848447446 0.12227494034014239 0.068213899327197236 0.14874213494030883 -0.067517301820530728 0.98656839157165088
0.52850395413132756 0.12193074584165395 0.06753718751935596 -0.16060144170559276 0.061778225094848406 -0.98508407145086629
0.53311428284513884 0.1223125935462359 0.066604955837066326 0.16237762628179839 -0.06571609598540562 0.98453791253131828
0.53789773703581079 0.12201242906877399 0.065781239558782859 0.17029346803462972 -0.064519565212622948 0.98327888233680305
0.54281702653898356 0.12245642173023095 0.065152214922554394 -0.19114594963687667 0.059250911937715797 -0.97977168532876358
0.54776141017774949 0.12238759330664696 0.064237750106406102 -0.20231273951783219 0.058262459461420613 -0.97758633442080001
0.1378300962727198 0.13725321993773743 0.061877420810509079 0.12527865733096177 0.15169740410929125 -0.98045558573749469
0.44746505722224877 0.56699368233642089 0.13390748904686053 -0.11191298424930919 0.05779704503769735 -0.99203577835747647
0.66568457242692192 0.49188293846848014 0.017152021552675974 -0.60061927915853985 -0.0030713370927440815 -0.79952926675109193
0.56731998473985779 0.12266310765046914 0.059890831346228253 0.22843074706868685 -0.05651746968056693 0.97191829358982007
0.42248891844019359 0.21707122073471843 0.081686968212183728 0.055035551177759816 -0.1305195574202753 0.98991703351208959
0.50262840479342219 0.50721352524208074 0.11890329352636989 0.27850550585258071 -0.10604340029731024 0.95456245498300563
0.41753742495123564 0.27131752352323829 0.092117387374749338 -0.059859577971313561 0.17487930636176238 -0.9827685684491162
0.49328593133654969 0.5069809077397146 0.12238198704750639 -0.2224434842537234 0.10241194670722667 -0.96955179824736526
0.48921037826711977 0.5070943715174786 0.12264411986583371 0.23831354204971919 -0.10941850809298849 0.96500479053858657
0.51496410650766378 0.5025461126215528 0.11384476306026534 0.31561846685318917 -0.10555600725971573 0.94299677237657031
0.51240641894405525 0.50283989506315563 0.1157406094397334 -0.29775477003560402 0.10191442620175552 -0.9491867817521541
0.5071026054239145 0.50233631401402767 0.11669721368672893 0.2947382025889172 -0.10906981854448772 0.9493330114439964
0.50251396584663877 0.5027221871519032 0.11914418157544758 -0.2627654917801347 0.10547663492462796 -0.95907714799932575
0.43767959290636083 0.16232943264801616 0.075532190739472954 -0.028181101439926935 0.078983737982083885 -0.99647749330128388
0.16244303958958883 0.13763364529437011 0.065039826678427115 0.11369066939645993 0.14299551962370255 -0.98317176172819987
0.48852278013882555 0.50176328773570067 0.12281661934301677 -0.20142351112875451 0.10987244299600382 -0.97332246220595076
0.5094931949910908 0.12723405622094616 0.0705796435336557 -0.126037371661536 0.063121984325336472 -0.9900152504075298
0.51344155883043652 0.1271010816963877 0.070047166308958256 -0.13332347296074296 0.062901041466682031 -0.98907447168557172
0.51823892963442519 0.1271908135007486 0.069206553269899204 0.14427502599925454 -0.06753604532451507 0.98723026668292513
0.52270425849992708 0.12719730960827966 0.068712663452063394 -0.14933237446796468 0.062181562576449023 -0.98682992213010579
0.52771188222392218 0.12712480474914076 0.067747664277583178 0.15694513774684701 -0.065824719162058051 0.98541124921773626
0.53328382198344315 0.12675662178750016 0.067062927960392496 -0.17112670956410969 0.060783759845422336 -0.98337225088611024
0.53799231982044082 0.12727751286138797 0.066279592886070493 -0.17961223021264058 0.060148375860817282 -0.98189694960283236
0.54297485119672662 0.12741421342380549 0.065405564745228906 -0.19209506941753063 0.059151362811525117 -0.97959205824823503
0.54787616875739276 0.12737487652527468 0.064487069340452896 -0.20176531957430846 0.058341038226007537 -0.97769477807534022
0.29241930303088437 0.10787680877789856 0.070667998227083736 -0.083519346403327185 -0.13221923580257935 0.98769559706426913
0.49793167983519643 0.86271596007299423 0.10364885669634812 -0.25958937068329885 -0.12479596143143827 -0.95762170330389429
0.56202251164118122 0.12795312628000574 0.061596337609293096 -0.23407266321522502 0.055402526380960382 -0.97063924730351747
0.64493636783841013 0.41273086401003989 0.039890891523559312 0.82254108217743382 0.030091340613661151 0.56790904144101151
0.13710322241022227 0.14197524000801282 0.062528885479679205 0.1251308487127645 0.15126351548389874 -0.98054149304548843
0.64545105411293546 0.4075669701712909 0.039134382220975712 0.84015718256926042 0.034441789108384968 0.54124825333694693
0.48473289126543834 0.50044079768066907 0.12339476854615379 -0.19113645946455571 0.11197277858357364 -0.97515585970634877
0.5120646127365901 0.49810008093532199 0.1152201861982851 -0.29497077632410235 0.10769011604078264 -0.94941828506821957
0.50746714602992726 0.49765631495454693 0.11590303097064845 0.29443493915318653 -0.11353037797189369 0.94890406252867221
0.50220409413993827 0.49746427359786116 0.11767944377494793 0.2774155467718083 -0.11513377941008485 0.9538264135827067
0.49795882176495415 0.49707589793951101 0.11973402733459036 -0.23908206278539187 0.11528494893047828 -0.9641312917877829
0.66331797045863305 0.50264579762293493 0.018154251866787607 -0.60879521186339214 -0.0060528968343756548 -0.79330432524480776
0.52154690362529654 0.77174737712109553 0.10605386450467308 -0.32911089649490144 -0.086687481609628664 -0.94030383299256126
0.48374431924103767 0.49736512977719022 0.12248706150807137 0.21922551242456539 -0.11926103846674764 0.96835787775285831
0.50963324178624392 0.13148330471192521 0.070818080351767398 -0.12541643423730939 0.062916653468855735 -0.99010717235028578
0.51317122208429367 0.13173645819101945 0.070351857570821713 -0.13221258711083594 0.062698197721299045 -0.98923645697677376
0.51810225106686547 0.13233735923272177 0.069547590143126545 0.14356992821375172 -0.067105638955855917 0.9873623999996276
0.52357644311920415 0.13203226601452958 0.068704596103488794 0.15295596144866186 -0.066098331215893369 0.98602002234629571
0.52836296402897298 0.13236648979199309 0.068132624403604861 -0.1610206261074926 0.061320396805262273 -0.98504424616541786
0.53354418098344647 0.13211277305600116 0.067302688506714101 -0.17041690689195113 0.060715150154305196 -0.98349974498579318
0.53829978921870769 0.13239825657498236 0.066316372731795761 0.17260644049520135 -0.063760460091423082 0.98292503296462364
0.54303348939265339 0.13223618451230362 0.065625226454530644 -0.19024302590746744 0.059352246976128543 -0.979941274706018
0.54796844336624562 0.13229466158548706 0.064737701999630193 -0.20262822706278558 0.058371027415734709 -0.9775145138338478
0.15746467859140117 0.14249580458551497 0.065197173160325306 0.11534185831940562 0.14366326438264446 -0.98288204896943177
0.44320264769247136 0.45530915328323579 0.1214194454865621 -0.12180815386175456 0.13244831753109815 -0.98367688639917361
0.44385517385037532 0.49215465192257696 0.12662228531369538 -0.10216023179029125 0.11503293996290931 -0.98809448422913682
0.44246466743243956 0.10239932313197908 0.073430619358427179 -0.03612892633693629 0.067352645997474592 -0.9970748827239001
0.55697047234487251 0.7874010503210509 0.09198653680751559 -0.33736156298342168 -0.081312879910525326 -0.93785680750423683
0.57469605847134009 0.13073527461487439 0.05861559586112533 -0.26459821433303243 0.053073205370630719 -0.96289720107779808
0.4781343644042495 0.49502216561367557 0.12376047663646564 -0.16455211557884319 0.11611597569948863 -0.97950991901352524
0.44667704206754655 0.49567819193463242 0.12694223642015634 -0.10466259360399219 0.11246567960614119 -0.98812813562352042
0.51042924657147926 0.49475771382886946 0.11538146047163579 -0.28304465354840663 0.11382407004531556 -0.95232862247019623
0.50729093381128654 0.49239421507991493 0.11605516425573571 -0.27141274563391138 0.11859301366996339 -0.95512869217511076
0.50249117632783169 0.49247016867878946 0.11759497163141772 -0.25696801315642787 0.12016641864752638 -0.95891995080082959
0.49744718913056818 0.4923746082747541 0.11912142602460324 -0.23711909292382227 0.1208126800230586 -0.96393922636057805
0.13757021399880864 0.14730245469427997 0.063935712900183031 -0.11133984170184312 -0.17466077099114463 0.97831337245618166
0.64789692398058218 0.37688720727574265 0.036696383348589046 0.89217619944815196 0.048902092126089973 0.44903253169892121
0.17071414812827193 0.13906029789983373 0.066135148450516615 0.10765067532050228 0.13837153806044519 -0.98451239177464211
0.51053800061676691 0.13474549742164207 0.070723302955276388 0.13267509315736725 -0.06803525583243468 0.98882178557083744
0.51373953561229213 0.13632274509330766 0.070394338285005451 0.13646569583477261 -0.067619350006099532 0.98833432469235016
0.51794656223404834 0.13685932552434313 0.069849646684799496 0.14320340314133398 -0.066930505005729474 0.98742751269570095
0.52285361331383839 0.13696898576075286 0.069127303272511625 0.15135963923540258 -0.066072511232492637 0.98626805832388231
0.52797652234213965 0.1372227099589117 0.068341237130746427 0.15940372951833007 -0.065191922665138138 0.98505860954304125
0.53304489380334052 0.13730616824039132 0.067495924893860706 0.16665442354888679 -0.064536231151553242 0.98390110172737455
0.53843813125416284 0.13719287131219665 0.06657585003489494 0.17404399870670414 -0.063660463384218491 0.98267798994171396
0.5429262894715785 0.13746075441191705 0.065917689167063587 -0.1888263990614156 0.059642354728665234 -0.98019762320662607
0.54802061472483676 0.13732322705916536 0.065004205504675089 -0.20169843036898019 0.058717125495153281 -0.97768606534013569
0.64817919172834093 0.36737281017699308 0.037395236542989645 0.9008284546757217 0.051790519655138013 0.43107521074680444
0.15211138702609064 0.14718448915385043 0.065562125206687916 -0.10906377779440257 -0.17228972223774019 0.97898996112547321
0.66325421460612377 0.5073743249011109 0.017871053405552884 -0.61196587753061882 -0.0074635110779291145 -0.79084894938323658
0.41253576884745863 0.27646655732016939 0.093440518400512831 -0.059265523461689645 0.17534775394483113 -0.9827211012872954
0.57123749386279632 0.13711849757623706 0.059607399098234683 0.2378288833765814 -0.05606176335484573 0.96968783684307081
0.48318434944669308 0.49239957531787126 0.12180599581040513 0.21576026442693119 -0.12474579397576457 0.96844514309266727
0.20268071146822231 0.16732312232391333 0.072931414613467666 0.095328578364814454 0.1283084882981812 -0.98714203333541573
0.47320470824439087 0.49161295971827396 0.12392355471813077 -0.14692467466841649 0.11814848120258334 -0.9820662280941661
0.46847785088091853 0.49109860885631823 0.12418716609710018 0.18647876300962082 -0.12653595826220385 0.97427630691353029
0.46252087723329005 0.49048415233551673 0.12485213239824086 -0.12192185867421064 0.11733868784004557 -0.985579369058323
0.4595715462134205 0.49004492519629395 0.12546364316476222 0.17951626404999707 -0.12819505660442368 0.97536656617075013
0.12737272993694035 0.15180155541672802 0.063565290357478044 -0.11220533208158126 -0.17532740927250184 0.97809522185227682
0.13193610604207287 0.15188001417737376 0.064110763450310165 -0.11166580316178235 -0.17471209423762393 0.97826705583462104
0.16672907412884952 0.14150831587386881 0.066123574000693228 -0.10556457101780826 -0.16974185383884352 0.97981826090412238
0.50630965723510413 0.48742779368036754 0.11476296193648176 0.28561850111359 -0.12304632991498507 0.95041131754418773
0.51949581599934491 0.14016802018871927 0.069816223356386986 0.14508183674515759 -0.066623624093642364 0.98717402384750808
0.52322940306756582 0.14237841275060834 0.069388109840388582 0.15122935261193488 -0.066079121128476637 0.98628760139193838
0.52828289189322186 0.14197164496184306 0.068667628054053256 -0.16012188085521456 0.061489000515188928 -0.98518023025588142
0.53309225664043214 0.14242322528652013 0.067926070354632995 -0.1675847368570329 0.061132396212736549 -0.98396045962520673
0.5383858304130632 0.142123268849771 0.066883286310528131 0.1764481124543926 -0.063526684109923709 0.98225781952462976
0.54308842258627965 0.14224378919132355 0.066033088976698948 0.18554932183357831 -0.062516203636370754 0.98064426447616315
0.54770867148600288 0.1426679209276222 0.065163689535491162 0.19359221489655939 -0.061652206960722315 0.97914302311169876
0.2676540841513475 0.16262333692604955 0.076788551066337141 -0.069674577464803059 -0.13624067899427425 0.98822261188574334
0.44731069049607158 0.57722548780435168 0.13441275016642673 -0.11058040895119867 0.051569034599256637 -0.99252839144615224
0.44385555745038741 0.48648294856536517 0.12585163129521029 -0.10434351143158571 0.11880152853516408 -0.98742018838984402
0.56698494824354684 0.14259353583066375 0.060926940243186713 0.22958515836507612 -0.057714421976528277 0.97157588512395576
0.57180795291969311 0.1427154086671745 0.059702333560699108 0.23864470876619587 -0.056715297217393594 0.969449368476477
0.12850523992454849 0.14723273385150884 0.062217484553940855 0.12633466245387992 0.15204454899354664 -0.98026629452614222
0.50229588933303482 0.48757155979958727 0.11677736188518996 -0.25749127958741502 0.12561707071896019 -0.95808068161320492
0.49698899965249932 0.48729934214294296 0.11837354883710452 -0.23666577962865371 0.12595773317144859 -0.96339190270993647
0.4931483136345054 0.48722956333586415 0.11867702374706773 0.24623380804841646 -0.1277064742003621 0.96076009920337968
0.14743557249547934 0.15212647553962366 0.065922863534305862 -0.10926505069069656 -0.17190302255419429 0.97903549452218108
0.48296327769498087 0.48735097965721758 0.12099067871238028 0.21176505959360309 -0.12960503676142188 0.96868885302835417
0.63809339232855844 0.57784773764341724 0.038435631619363753 -0.6116739400787149 -0.020112481256037023 -0.79085427173804035
0.47171704742664317 0.48834023444520841 0.12319305563474453 0.18990020632008076 -0.12883807029201533 0.97331324006355757
0.51982876534284694 0.14900272254917113 0.070343328736471936 -0.14659779655319008 0.062608891196984678 -0.9872128508021123
0.52313310815603398 0.14692737971155759 0.069748726204101968 -0.15256909645581895 0.062105817093496697 -0.98633946402331696
0.52824368094210672 0.14712902500841532 0.068970653380322322 -0.16148522281005884 0.061684831740937904 -0.98494543216722308
0.53341293127360068 0.14724403742615066 0.068126257493793932 -0.16803910461084856 0.061435625220469241 -0.98386407764251371
0.53889826007633224 0.1473285431506858 0.06708707537089785 0.17923900523250746 -0.06354283172536962 0.9817513369176446
0.54334039451290761 0.14734433833370231 0.066388966345878944 -0.1890991012141563 0.060422683625847455 -0.98009725498210076
0.54808099748218886 0.14755756492297842 0.065555636993571489 -0.19928535662557664 0.059713814672682324 -0.97812044604529835
0.67486991659658135 0.32221179356740715 0.02550929002116694 -0.45562776484716366 0.026205090400356974 -0.88978459929214704
0.67465284286651939 0.31708475784797896 0.026120575839662385 -0.45180198098270291 0.028991328632234459 -0.89164705620791629
0.56261742266419401 0.14737654408626547 0.062575436999023779 -0.23487976067510594 0.057336564067879618 -0.9703319104544047
0.56684205494319795 0.14764418612770533 0.061188589116681256 0.2303600375053822 -0.058495175772063389 0.97134575076638607
0.52039909363133385 0.83031279368445887 0.10129860719462541 -0.29237369345902492 -0.10170173910994054 -0.95088084407834272
0.40748083663152257 0.73259107099860721 0.13742492316400223 -0.099624073305093361 -0.044637594225048045 -0.99402340475458695
0.6614286082520956 0.54909720681197938 0.017061149997190359 -0.62820900139230906 -0.017873320027868171 -0.7778393118124457
0.52380083044905634 0.77276917372094478 0.10516522997517905 -0.32964259422901515 -0.086257693904795124 -0.94015709874051978
0.66163066824383243 0.55748812487865473 0.016847339396652349 -0.62826033997518349 -0.018945787514057885 -0.77777246180983994
0.6592666958571145 0.56981465031245015 0.015901901829402074 0.75260581172732399 0.037831133989943054 0.65738367598784397
0.44732956429429915 0.48675167713264839 0.12559975324850786 -0.10617324334319875 0.11867392488884913 -0.98724046814819222
0.50626218783199062 0.48309507175542094 0.11399129293304884 0.28392123630851185 -0.1280024991868316 0.95026527442339559
0.50191426801128602 0.48240612118362836 0.11531047294842665 0.26950382812305979 -0.13023234816290824 0.95415261992984712
0.49704332142729846 0.48269697107352549 0.1168070031042044 0.25582596394419488 -0.13135310443174597 0.95775750486653266
0.49312458987178553 0.4821943628306245 0.11847734596715802 -0.2269047238648346 0.1304239862866044 -0.9651444607357671
0.51942654370052876 0.15190124994935392 0.070569622740369958 -0.14609801901317723 0.062823473100919569 -0.98727330565956417
0.52354811496361575 0.1520575489816508 0.069972368084403366 -0.15248800837718318 0.062540818328134531 -0.98632451725788883
0.52808955002001023 0.15238112891144984 0.069231404265496413 0.16121369948927952 -0.065673605113863498 0.98473200450088383
0.53303320326988268 0.15206220766499134 0.068469692269631094 -0.16800978904229968 0.061789855673915053 -0.98384690095652527
0.53784322083924152 0.15246315480801495 0.067567479389646953 0.17929870083554691 -0.064112141268561976 0.98170342223129947
0.54344190728104902 0.15191893307157292 0.066617784446372369 -0.18879837214872117 0.060714024564385863 -0.98013722605316256
0.5482821062846045 0.15242396033283528 0.065809380460481348 -0.19884726521581647 0.060120032720097909 -0.97818472017401958
0.5529125956465043 0.15236984622070321 0.064920969224826097 -0.20982416062022799 0.059515645502337247 -0.97592607791802399
0.55760964346684194 0.1524913280286376 0.063953369333995064 -0.22074525773237452 0.058845456814313378 -0.97355469461195776
0.15076817750645777 0.15719722397166624 0.067178612399963616 -0.10763927682252042 -0.16954748104388778 0.97962617245396078
0.56734104450688316 0.15279748386789452 0.061336498806895082 0.23356244892559463 -0.059037269497674454 0.97054787788245556
0.52206300448149467 0.76749989388672335 0.10624500724591053 -0.33241490641472177 -0.086143758146321747 -0.93919091931604615
0.57616314420394832 0.15302899557224356 0.059503619396465438 -0.27464362955622301 0.055343609100445633 -0.95995206217598239
0.65992311168181483 0.56723093130091062 0.015260932774010772 0.75355816491235672 0.037883288909793658 0.65628876915219159
0.4826261029252919 0.48216531543173397 0.12013939504387972 0.21196584198243404 -0.13474203367225399 0.96794373090306385
0.43291855833761328 0.73247228988128177 0.13528812269435156 -0.13868252139015863 -0.057043448691550182 -0.98869267379820447
0.46616835527638922 0.48394234173379874 0.12338465265011755 0.18343718584116125 -0.13202729238993363 0.9741250396714265
0.55300276226002809 0.78248642059808216 0.093731912401552819 -0.33956303368958912 -0.080834023874300331 -0.93710341304245182
0.64733146382869222 0.39750974080589924 0.036116847355350534 0.86671526718513825 0.041207466974687829 0.49709816967448633
0.67497929325747674 0.31198816796870893 0.026497292653341369 -0.447663049946253 0.032385550930685639 -0.89361567231317884
0.519368772602114 0.15480531677973691 0.07070685052169029 0.14240009580500071 -0.067509158606005787 0.98750429174714771
0.52332306702575171 0.15526665810120502 0.070164251729638027 0.15146763976072955 -0.066708008796131257 0.98620869782605813
0.52920932028985479 0.15599312681873784 0.069319746023397077 -0.16215032409217922 0.062424637309301603 -0.98478953947206582
0.53363930337525223 0.15734942096281265 0.068704406001740687 -0.17051362762844624 0.062135784205660897 -0.98339424805829279
0.5387611309738406 0.15719030682426507 0.067655245496784727 0.18335791040811197 -0.064819837743039316 0.98090685863935978
0.54331498846543858 0.15744095702234928 0.066976171231987278 -0.18806962476194899 0.061362430441495919 -0.98023694501493475
0.54846280861338836 0.15670874555286893 0.065739659262829028 0.20251462339909601 -0.062948596797331904 0.97725395955747818
0.55294469184581074 0.15735776959256492 0.065191982356400696 -0.20922423260100217 0.060228094184550968 -0.9760111665157416
0.55761605514577395 0.15734026201864235 0.064218210878573906 -0.21871637648688791 0.059640363991034714 -0.97396415418610915
0.65989215943453439 0.57218597089208367 0.014865057133543823 0.75336254377556144 0.037790098145258702 0.65651868680044978
0.56772027200218578 0.15749393852807034 0.061929957505432016 -0.25034967168303734 0.057827375804368981 -0.96642694317562139
0.548378307145855 0.78283309897426445 0.095419642701015425 -0.33782699865980731 -0.081450219938152976 -0.93767733290750566
0.57745564024444562 0.15779706180016459 0.05939603671389538 -0.27886498407198979 0.056030652557218445 -0.95869436559966348
0.64775008961671854 0.39234839340541172 0.035635996957225462 0.87455021775164576 0.043448546843782083 0.48298461715432789
0.5055555320471079 0.47906255742799952 0.11403036844574661 -0.27105982860131089 0.13320570201341961 -0.95330100716916277
0.53455651937908344 0.16177687910521432 0.068650042063630234 0.17576478839655971 -0.066547340417407674 0.98218032491151142
0.53824189600433014 0.16206608555329599 0.068160185121298456 -0.18130785077684627 0.062108030379269083 -0.98146322183212176
0.54331760686243724 0.16236822117616725 0.067087588915508797 0.19363712497863275 -0.064906084178521659 0.97892382955295343
0.54871976529360678 0.16268004724219876 0.066023207073755738 0.20250903595772934 -0.064141976504105774 0.97717751570818379
0.55315157071488419 0.16210440534859422 0.065441738735929539 -0.20964203380596291 0.060932002912962115 -0.97587781442284793
0.55773635677591682 0.16244613878837497 0.064096950391887106 0.2184750108890075 -0.062256222426519063 0.97385462589969141
0.6478479398576763 0.38819656695040533 0.035697906871163254 0.8810554844207783 0.045354014199524187 0.47083356588932473
0.55247032495140658 0.77753626732409653 0.094181801134918267 -0.34386741094414225 -0.079813785732836248 -0.93562009560374737
0.5494195651216407 0.77907346415499545 0.095244929724066091 -0.34143067943813149 -0.080508889343896634 -0.93645256680465572
0.57670648769042199 0.16253429706534114 0.059489264988037721 0.2485517608479455 -0.059347682293661254 0.96679877678126813
0.52297804828418659 0.79742988534186565 0.10344101837487932 -0.31189897710418657 -0.090797063593120481 -0.94576684300319436
0.28214385284561533 0.21779627399636853 0.085185986255749899 -0.065367318049911249 -0.13120145725835286 0.98919830739050829
0.53487526521547335 0.16722753842914861 0.06905608099894503 -0.17285125091243564 0.063399293878379462 -0.98290537418091739
0.5381461877478364 0.167199169203784 0.068472813617489969 -0.18021177464629021 0.063032552489840535 -0.98160613975537581
0.5434164191357217 0.16713263145547089 0.067577161380909981 -0.19039784431618348 0.062521300361184001 -0.97971411538310349
0.54851982036475655 0.16764720785731513 0.066372304947450639 0.20239532070494773 -0.064995965227181929 0.97714464572085147
0.55297861900797463 0.16712888093867898 0.06579206904806377 -0.21264975911847353 0.061761038647549123 -0.97517467873813823
0.55786898399285734 0.16741746187876816 0.064386491632637363 0.21905940146666178 -0.062951928644925478 0.97367860883812796
0.64803126996750438 0.38218278553802459 0.035881427244212484 0.88707631200065062 0.047247005067700507 0.45919858144321074
0.56758025586885208 0.16757575773190783 0.062147781031539083 0.23801311773355688 -0.061375470292207399 0.96932079696721785
0.64789440261338438 0.3844870687219798 0.035928718603837541 0.88490658907433573 0.046558340654322503 0.46343570161171332
0.57714352980325379 0.16733931626057519 0.059664516861802755 0.24948869456990283 -0.059918381848979567 0.96652220812478262
0.25744994128377574 0.18752854516993997 0.079543775376878512 0.07639769531874839 0.11849383728147757 -0.9900114154272639
0.64987153071073667 0.35676286011798014 0.035332728403834127 0.90647222913814052 0.053602256189875623 0.41884949078718636
0.52978494785130392 0.172237658320023 0.07010777807897807 0.16686563375334626 -0.069557050677538923 0.98352309427544016
0.53333492428201046 0.17227502604369679 0.069604746169836987 -0.17114343815074123 0.064679549242130388 -0.98312078580801976
0.53836274239009929 0.17213224589900886 0.06872418363221193 -0.18031533908018593 0.064142255583117411 -0.98151523143612374
0.54359834636411364 0.17223356554573049 0.067852559840448676 -0.19299508026696424 0.063596276287392769 -0.97913656485452816
0.54902144092496064 0.17200616415857906 0.066849373964786643 -0.20536834536371695 0.063079715864673744 -0.97664977969024347
0.55317199540532591 0.17244242402866644 0.065719767275699406 0.20860540740050057 -0.065227906270083166 0.97582227082952588
0.55798047473410206 0.17234665574468527 0.065054523661269126 -0.2251150191674347 0.062167962000384963 -0.97234683762840723
0.55770952120686157 0.77255910470622402 0.092410692790260859 -0.35039617672453954 -0.078074757847608131 -0.93334176565921589
0.5528098214706193 0.7726061572501487 0.094301022504375207 -0.34843824322976885 -0.078759230683254994 -0.93401700960803402
0.57241276654369444 0.17238608190785923 0.061621009203718873 -0.26581061272124412 0.059812368742892461 -0.96216796803371141
0.57710512873598874 0.17257559578663129 0.060005447444439586 0.25095030125046136 -0.061247410011071174 0.96606040239171298
0.65038431390424167 0.35256815476264231 0.034833380704921119 0.90853401160725189 0.054151466746824986 0.41428681900586872
0.58608412629102935 0.17300655656319885 0.057456962262651984 0.27067472754531102 -0.060132999765705471 0.96079093158056472
0.51783507828399467 0.76756586091850276 0.10778603590608363 -0.32692986927120038 -0.088190984991968091 -0.94092465731559094
0.53000512343713035 0.17565915281390207 0.070346476331398719 -0.166097483739364 0.065747640274428046 -0.98391507443162796
0.53386058961792104 0.17710453238794568 0.06982127990907358 -0.17172700288603326 0.065768087234082742 -0.9829467916328688
0.53865835980669075 0.17702580154120789 0.0688734924085872 0.18210616063622651 -0.069161425809792038 0.9808435366755951
0.54304775104930325 0.17724516312026656 0.06825467606378563 -0.19268073374074293 0.064803668022133429 -0.9791193080804842
0.54864063358919568 0.17692283699010464 0.067229776839197647 -0.2054776747595416 0.06418970605495973 -0.97655445665461482
0.55321898293962934 0.17729322839958303 0.066348921905431318 -0.21534383137915236 0.063566009820804292 -0.97446723735711527
0.55820023672969332 0.17742071628195261 0.064972741863390374 0.21937948818299774 -0.065799687425232983 0.97341822527591271
0.67580063502283927 0.30696483721574719 0.026449064483637395 -0.44440569114858253 0.035721169858480346 -0.8951131658615531
0.56759846942049363 0.17743029984554826 0.062813487371862681 0.23683427127396109 -0.064156182453678198 0.96942947768422139
0.65237467289871154 0.33567405886320839 0.03282247193921739 0.9164902335459274 0.055277113459348999 0.3962197528424522
0.57713244486924675 0.17742227460353008 0.060309534735688536 0.25401391667456708 -0.062803707712715345 0.96515937773674554
0.58230808366961162 0.17773345849355388 0.05886159348174437 0.26662277380719596 -0.062213792865836594 0.96179090267303091
0.58629541310574385 0.17754636728787734 0.057627333300104576 0.27676634749580736 -0.061630483386646145 0.9589588481323682
0.30722727773463548 0.10259149422263657 0.071224160965961666 0.088293429797214898 0.11762565086551367 -0.98912510660336017
0.53554910615972606 0.17973908496832647 0.069711161879863676 -0.17614100125606422 0.066371641302339829 -0.98212481534036433
0.5390548310926252 0.18157602720740679 0.069094746211501745 0.18148530994800427 -0.070240899314363836 0.98088189826124639
0.54365575182878945 0.18234653595156591 0.068298252819894684 0.18844128765490833 -0.069960290814349832 0.97958942359344181
0.54838276599500624 0.18221871003800402 0.067358999526330871 0.19912979195776728 -0.069223024723058899 0.97752519087901113
0.55341684620045506 0.18228506463830613 0.066355854297183547 0.20925497981078847 -0.068208654417691486 0.97547933493586347
0.55787838821502478 0.18252650277005691 0.065413642537252403 0.21987382369533062 -0.067316224475980277 0.97320297347259177
0.56304543377339722 0.18219944172752112 0.064535751623151449 -0.24174147354412051 0.063333670367112307 -0.96827160764247722
0.65270387625528192 0.32774036737617201 0.033200668451476005 0.9204074916047279 0.055399662672086097 0.38701540896159664
0.26159836574128875 0.18629349641254012 0.079744406635472206 -0.068699303051620003 -0.13453875102771407 0.98852401601181361
0.57695638840554508 0.18258702949013358 0.060986186790353412 -0.27874060370804338 0.060562707447188287 -0.95845492033331525
0.55821145456571086 0.80766317118626385 0.090410718847855745 -0.32315126261342586 -0.085954702719142503 -0.94243570101721663
0.54013336227368769 0.18572811972383027 0.069180874062059666 0.18453212430241658 -0.071162017691309434 0.98024683745398489
0.54363034954330114 0.18678102815870698 0.068596241372970101 0.18838717195359939 -0.071258755481847735 0.97950623439082984
0.54840072476979584 0.18718550033092587 0.067701869899722489 0.19870227378306279 -0.070710136014895161 0.97750574579293181
0.5532544159827435 0.18737785905413473 0.066974484864730163 -0.21673654954451987 0.066101014065066799 -0.97398969400661817
0.55833304681281648 0.18735962781892773 0.065893712207747812 -0.22639416823850045 0.065399401442205338 -0.97183774308193993
0.56307326089037013 0.18724841222577734 0.064844506254337853 -0.24274632361257045 0.064310122261603264 -0.96795579989340375
0.5677313885873827 0.18737439560428837 0.063719298998099153 -0.25475138464988889 0.063642918906572574 -0.9649100014467753
0.51290829847875352 0.76734916059640423 0.1095697918729632 -0.32110537950526807 -0.090166936560203331 -0.94274135307841789
0.576946490245549 0.18734796942417944 0.061271591790778762 -0.27807201942319593 0.061844321001568128 -0.95856728088004373
0.54367998400375039 0.73757120008405941 0.10029555658845149 -0.3709006971610615 -0.076005986204700324 -0.92555700143561637
0.54512307813924477 0.19256893105871173 0.068751275330457551 0.19252068853266074 -0.072862403573297096 0.97858410708146715
0.54843275117748447 0.19204996854309173 0.068063243065297055 0.20002386494306224 -0.072200049282353754 0.97712722116255946
0.55337499086089792 0.19213904324348852 0.067237733591300711 -0.21751471513786769 0.067585861589035748 -0.97371428048055253
0.55812695216002017 0.19217947210617123 0.06610697771259394 0.22302246570859932 -0.071033427311037067 0.97222180185063956
0.56327910068641085 0.19223340295875616 0.065120278973212778 -0.24623678782024958 0.065798882279810317 -0.96697360430091006
0.56810790741520378 0.19248265989815219 0.063951466841610752 -0.25507965334387211 0.064852160584124574 -0.96474274691108253
0.54810428532993838 0.73757562484780592 0.098430592553667901 -0.37405745253042977 -0.07460238379707386 -0.92440007926126844
0.57714715422460561 0.19259371514681284 0.061533369873603777 -0.2787735826963168 0.063079906493620372 -0.95828295142270792
0.51760910319157283 0.76268646077261093 0.10833627384910643 -0.32993482146617975 -0.087863825838566376 -0.93990582597039496
0.40268413925542107 0.81282157719574866 0.13234348250665012 0.20029611022110921 0.1671313484718657 0.9653748394215943
0.54500296503035861 0.19751134190544239 0.069137520745414779 -0.19978620092306124 0.071318224840692834 -0.97724059715420264
0.54861244981192403 0.19712129755312802 0.068471809212091658 -0.20702794412833037 0.070223006434806001 -0.97581153903674145
0.55412115434352016 0.19692504002861386 0.067375325036055783 -0.22037529716725246 0.069421756762140088 -0.9729415954138787
0.55812683123003104 0.1973827335252612 0.066527779637620091 -0.22833164017660901 0.069052439365063376 -0.97113151669173714
0.56325851848298492 0.19720821311535569 0.06541028314505197 -0.24477602169244639 0.067707330059360901 -0.96721270497272305
0.56770435285567078 0.19729088458119659 0.064349361035894601 -0.25567495838296883 0.066730880296144934 -0.96445700021865599
0.51349419608907709 0.76260779714473892 0.10983633486172338 -0.32481946794864852 -0.089513059615543039 -0.94153052281900085
0.57689044069473405 0.19767232567585719 0.061776309089919143 0.26649094193541212 -0.069939752186248372 0.96129652497577611
0.55322238299817683 0.76771182287871331 0.094386921564728749 -0.35317862368734415 -0.077745439888610546 -0.93231995921295163
0.58669391614585287 0.19774999644698299 0.058726740363844274 0.29219764525549735 -0.068026638460582864 0.95393548658538518
0.544218017403723 0.20226136136543588 0.069577044439758415 -0.19801741590703989 0.073086285920876029 -0.97746994726579217
0.54864087377316895 0.2020638836008963 0.068776570497616207 -0.20768817946350232 0.072374305933966224 -0.9755140080755953
0.55391853412618841 0.20220753786131834 0.067780520882039633 0.21499498977313355 -0.075310221267157654 0.97370710429016694
0.55840638641159701 0.20213135416489478 0.066848560333561929 0.22534740051118418 -0.074389476169838667 0.97143438014002204
0.56332920483135385 0.2022383369311494 0.065693940025089048 0.23378720551517412 -0.073741004506785252 0.9694873938281694
0.54289619603995409 0.7426191599773726 0.10019263595670896 -0.36720531256236472 -0.076727203915950754 -0.92696989951411912
0.3124819306449112 0.097125817362307978 0.071047356416393273 0.089379220730782721 0.1164260000990523 -0.98916952106425793
0.57748697093185364 0.20255304323609455 0.062023507674207952 -0.27910901534590804 0.066452860607577852 -0.95795729282140096
0.55374537443924043 0.76225241362690954 0.094480414386483691 -0.3579383497462249 -0.076802365020708752 -0.93058128850099653
0.5863120869179187 0.20234568498558875 0.059165435813294788 0.29400624330424296 -0.069831210767841934 0.95324914419097362
0.5436068909355366 0.20698787365145363 0.069927451917456265 -0.19598310170152181 0.076482644418747733 -0.97762008415854784
0.5487407998096373 0.20692365843493432 0.069176782254506172 0.20494410693050752 -0.077045428986816822 0.97573660119250116
0.55407790101282772 0.20743947819799069 0.068151130182733555 0.21641666574701021 -0.076608216681466779 0.97329081364401682
0.55828571430351348 0.20714190053221165 0.067242483793826816 0.2258525433593136 -0.076458121878415317 0.97115641595829183
0.56335019565173161 0.20725305767765365 0.066057344269226895 -0.24546233449764771 0.071138568373955186 -0.96679240089725005
0.56782488295939049 0.20704851015896292 0.064942023300151488 -0.25558569924721775 0.070333911389504081 -0.96422460622458928
0.54771316296121886 0.74255148192902976 0.098207187766694529 -0.37022309890172039 -0.075415015626045842 -0.92587657517496902
0.57716081202464908 0.20749812703010753 0.062435832691305516 0.27221854174241711 -0.073437875024144894 0.95942896769045383
0.64158081538012335 0.58829135870782323 0.035370521887171956 0.7436713042151144 0.036834957096705666 0.66752990736196582
0.58616807777545932 0.20786412080903768 0.059615234915606365 0.2952582469578155 -0.072211872193175 0.95268463466026054
0.54451970861053156 0.21130068175647271 0.070054365050240361 -0.19882425677959864 0.07867829930882303 -0.97687186474681087
0.54834858200317305 0.21202954037782026 0.069675141529981305 0.2064512009924637 -0.0782733872634616 0.97532106429373988
0.55379235457286469 0.21168967891966195 0.06857859659717469 0.21984264384747743 -0.078083614735400361 0.97240534812186463
0.55839688349472216 0.21222269828313489 0.06763237964642653 0.2287286371189251 -0.077860963764607327 0.97037151693738699
0.56361402013356598 0.21218511077127203 0.066305233158650556 -0.24624286423509439 0.073721616891854594 -0.96640031819952721
0.55252683971327909 0.74257919576632181 0.096214560041848238 -0.37242460303041258 -0.074419145616445248 -0.9250738920882795
0.57352770557090604 0.212208411681756 0.06383451607069883 0.26724454336709313 -0.076072142749409655 0.9606213526348597
0.57706583507211395 0.2125856503597833 0.062799605938791234 -0.27962106531699238 0.071053705170516498 -0.95747763984989831
0.58189513254893355 0.21275449999911758 0.061367727143783878 0.2860593874036213 -0.074577426216721324 0.95530530950955905
0.58711894496342809 0.21256432879597301 0.05960964236267826 0.29900733478456148 -0.073465136318996427 0.95141867098069111
0.22278887059984348 0.16758178486271896 0.074634071370549657 0.089072506558865394 0.12559199425050349 -0.98807527018719699
0.54571923000340283 0.2157521639373966 0.070108889684249068 -0.1993212565399434 0.08144314750465749 -0.97654393163639741
0.54931443097156629 0.21679871706852949 0.06988062901769615 0.21166362546950332 -0.079967022484727854 0.97406559582403529
0.55394756436735326 0.21719124802959772 0.068982114807002198 0.22268339962398986 -0.07993750217007696 0.97160799671406128
0.55843494553982276 0.21700049973581681 0.067989137779648573 0.23151362169009237 -0.079387949054559523 0.96958702369454575
0.56316062068480865 0.21728999520236478 0.066901975103019568 0.2402174702118485 -0.079062558403592123 0.96749402006611818
0.56827817145263826 0.21689950390937715 0.065618866829056058 0.25370333232590547 -0.077944236727404373 0.96413656456319163
0.57294938678999796 0.21753336549669189 0.064289394747119935 -0.26760177941207108 0.074988920874918819 -0.96060707336637308
0.57721090559628541 0.21753006193979543 0.063125979227753731 -0.28298216318791597 0.073451995326479655 -0.95630847517945095
0.3225805059662204 0.092656348001959599 0.071438880885461742 0.089978149124323628 0.11517938872058871 -0.9892611591961511
0.31762375836122597 0.092536314744972023 0.071012018763605897 -0.088522374123612524 -0.12799038588646483 0.98781691137586469
0.55793157585132946 0.81282858678883863 0.090167195780411033 -0.32024343012593015 -0.087107233795998912 -0.94332204219004012
0.55041269950232163 0.22104794938976025 0.069984966344589949 0.21613824569156109 -0.081683356680963895 0.97293992003139884
0.55371098277129194 0.22210012078161234 0.06939806136119453 0.22323022019097538 -0.081494697913184852 0.97135311962515847
0.55914947317300556 0.22189353491133623 0.068194256492417019 0.23348543454297754 -0.080844877375377447 0.96899363138177386
0.56348252345997163 0.22227291679860858 0.067062575944130495 -0.24615673350100828 0.079889400894124593 -0.96593195732250803
0.56861066070773103 0.22202683632064477 0.06591297170420217 0.25432450822134806 -0.079637938414949191 0.96383444806822827
0.57334769700444399 0.22236218551010264 0.064647428213537944 0.26804772203086819 -0.078941228746420816 0.9601659758177582
0.57751216060830368 0.22238812816529438 0.063432347197581854 0.27698739237612313 -0.078375795331181553 0.95767177006053616
0.52599004907673486 0.75735604508860865 0.10569131036820777 -0.34349802495059184 -0.083844336215698867 -0.93540324680834375
0.58692568238987919 0.22257869543481038 0.060385174601537091 0.29950394031766664 -0.076573591660245008 0.95101728417229181
0.54309889631304098 0.74750801609114825 0.099735888272677584 -0.36352618277677845 -0.07738275466498136 -0.92836448861220644
0.55430622320665857 0.22701324637733941 0.069394011102862641 -0.22058151517377395 0.086098364494496746 -0.97156104635530494
0.55834490555879535 0.22692883160493446 0.068569748383293369 -0.23072398648790579 0.084816620773727619 -0.9693155228818191
0.56335555418845507 0.22698538644601585 0.067443521936430745 -0.2459037722570861 0.083312893874134777 -0.96570714841718575
0.56823126820227776 0.22720579577803959 0.066262510146287548 -0.25970413792729935 0.082245619783485074 -0.9621795148359108
0.57332049606693769 0.22739762322530035 0.06494246333804557 -0.27259944926891388 0.080672141065747591 -0.95873956104572688
0.65947059146477982 0.58765064088221641 0.018959081966658384 -0.62421794013188359 -0.02036231106293615 -0.78098485228952086
0.64089593421356472 0.55798303684791861 0.035558540613017546 -0.61779527231256881 -0.019561426363208095 -0.78609563801542337
0.64326959501602565 0.5525730258951177 0.033421452393639951 -0.61954044955212773 -0.018957003632434591 -0.78473579208675537
0.64570079512577783 0.5469242066773784 0.031161300352701739 -0.62131999377536029 -0.017948047773341233 -0.78335134704429543
0.60170241435365435 0.2286823597874196 0.055291863356810377 0.32951542941655992 -0.077614122751678311 0.94095463744322316
0.55523676765931784 0.23165617974978933 0.069814895509007144 0.22703109307383876 -0.084006558630405098 0.97025758481177271
0.55863249401922077 0.23237344214772704 0.069130132531834573 0.2324895240759513 -0.083830864157084947 0.96897936376871008
0.56396115391777979 0.2318388567204499 0.0676958296183683 -0.24903577328094167 0.087181437543924933 -0.96456237775176479
0.56849152039675421 0.23216790086940658 0.066626587838633886 -0.26068128069906876 0.085932316510910725 -0.96159290080166571
0.57353915089487029 0.23234081518209174 0.065386795354556757 0.26892022210919125 -0.08208568415310144 0.95965819675437602
0.27259774642023454 0.18739782750499323 0.080534376058555693 -0.066988069984958876 -0.13349024454746078 0.98878357242136128
0.44295166126450863 0.46189342854777649 0.12236537219964226 -0.11487040050437707 0.1298058707247611 -0.98486304987716478
0.58724718481259663 0.2327309831161524 0.061032148775824635 0.3023783595033333 -0.080822541830240791 0.94975525501898217
0.6466253836378747 0.52685777657417576 0.032034693666310718 -0.61066161177381251 -0.011125945729227501 -0.79181349397281675
0.64676681482223541 0.52273891360657443 0.032731325938146878 -0.60530406662013325 -0.0085942476211506563 -0.79594794166512906
0.60319148077440232 0.23029620858754107 0.05554227039030981 -0.34359851856306106 0.074239471880155117 -0.93617763210633553
0.55537629707972347 0.23546503095125138 0.070126440796106138 0.22894383972097809 -0.085037114569942812 0.96971821030618655
0.55881996501618558 0.23683093241597714 0.069492497461127442 0.23548575696547197 -0.085162189902739285 0.96813938029468072
