# .PCD v0.7 - Point Cloud Data file format
VERSION 0.7
FIELDS x y z
SIZE 4 4 4
TYPE F F F
COUNT 1 1 1
WIDTH 1345
HEIGHT 1
VIEWPOINT 0 0 0 1 0 0 0
POINTS 1345
DATA ascii
0.23576024 -0.08894629 0.0068866359
0.23847935 -0.088635862 0.0085465545
0.59083754 -0.089395143 0.0083165942
0.59328753 -0.08887241 0.0073537524
0.23715855 -0.086025208 0.0074160676
0.59006643 -0.086052522 0.0088607576
0.59304917 -0.085507333 0.0075514098
0.23789059 -0.083024941 0.0077171405
0.589908 -0.083147697 0.0085298559
0.59259778 -0.082791045 0.0073900265
0.23678571 -0.07947012 0.0068657254
0.23859257 -0.078855187 0.007733536
0.58781284 -0.07951808 0.0088885184
0.58958244 -0.08040417 0.0079382258
0.59242839 -0.080012441 0.0071091643
0.23627418 -0.07689134 0.0065680193
0.23891507 -0.07628084 0.0076805581
0.58794677 -0.077235587 0.0083533358
0.58920783 -0.077109776 0.0073587648
0.59216821 -0.076672241 0.0068238233
0.23594512 -0.073848777 0.0065796371
0.23861921 -0.073602401 0.0075014485
0.24190935 -0.0728909 0.0087527363
0.58749849 -0.073937587 0.0081404755
0.58877659 -0.073817343 0.0073339413
0.59143877 -0.073467121 0.0065254313
0.23500445 -0.070729844 0.0066418531
0.2382457 -0.070419736 0.0075409152
0.24147828 -0.07016886 0.0087304618
0.58713144 -0.071744449 0.0081492383
0.58826506 -0.071120262 0.0072586061
0.59076047 -0.070789516 0.0062672668
0.23211567 -0.068346433 0.0056414134
0.23465909 -0.067534596 0.0065468173
0.23879333 -0.066793926 0.0078655304
0.2413201 -0.067048587 0.0088479584
0.58934009 -0.068447784 0.0064525898
0.23443229 -0.064820632 0.0063042692
0.23848249 -0.064343497 0.007654625
0.24117537 -0.063665211 0.008661842
0.58679128 -0.065029703 0.0072609847
0.23827609 -0.061445814 0.0072055035
0.2410423 -0.061085511 0.0082772439
0.58087349 -0.061404433 0.0094325328
0.58419663 -0.062361155 0.0080413632
0.58714402 -0.062338322 0.0068335882
0.58919084 -0.061844353 0.0058819167
0.2366956 -0.058374923 0.0061625615
0.23976891 -0.057937384 0.007147789
0.24235746 -0.05766191 0.0080758613
0.58359867 -0.059707638 0.0081235254
0.58670366 -0.059620086 0.006891387
0.5894689 -0.059198141 0.0058254823
0.23938212 -0.055060431 0.0063605695
0.24190389 -0.054661445 0.0071947011
0.5835104 -0.056805149 0.0080653802
0.58629531 -0.056330338 0.0070410878
0.24170624 -0.052035656 0.0066966615
0.2442808 -0.052144885 0.0079157269
0.58141899 -0.051538624 0.0079412591
0.58284259 -0.053548407 0.0078179901
0.58584535 -0.053041819 0.0065283584
0.24147758 -0.048939828 0.0064350306
0.24406812 -0.048691425 0.0075429305
0.57834631 -0.048569731 0.0092048161
0.58015066 -0.047912449 0.0074483743
0.58299696 -0.050520658 0.0067425612
0.24118368 -0.045373108 0.0060680322
0.24470119 -0.045220193 0.0072636297
0.24739042 -0.045057349 0.0084925517
0.57987058 -0.045153078 0.0068121147
0.24558519 -0.041867919 0.0070697037
0.24758132 -0.040620904 0.0079043526
0.57879901 -0.040615249 0.007191496
0.24812894 -0.037339892 0.0077563347
0.24944639 -0.038501617 0.0085337553
0.57763553 -0.037081286 0.0085650356
0.24592814 -0.033311658 0.0060531185
0.24868745 -0.035370559 0.0075887912
0.25090155 -0.034714408 0.0084788175
0.57731569 -0.033453386 0.0083493199
0.58060408 -0.035918254 0.0059972629
0.2484518 -0.032439608 0.0068161325
0.25047362 -0.031692009 0.0073844795
0.25318998 -0.030816859 0.0084565459
0.5773381 -0.030048868 0.0068832901
0.24806635 -0.02950643 0.0060151545
0.25068429 -0.029248685 0.0069134175
0.25335121 -0.028749179 0.0080079092
0.2555055 -0.027983252 0.0090689734
0.57130253 -0.028390391 0.0083694821
0.57359678 -0.027271992 0.0071208375
0.57614684 -0.027748005 0.0062524918
0.25049865 -0.026657762 0.0065067988
0.2531324 -0.026141122 0.007518678
0.2553415 -0.025804946 0.0087485136
0.5698511 -0.025352577 0.0083450656
0.57227594 -0.024911437 0.0070737074
0.57475793 -0.025625203 0.006019508
0.2502715 -0.023607612 0.0060509527
0.25390416 -0.022633908 0.0073234648
0.25789776 -0.020983934 0.0090734139
0.56963003 -0.022165319 0.0085051702
0.57234216 -0.021924507 0.0070049153
0.25003654 -0.02085414 0.0053710816
0.25275439 -0.020218931 0.0062090168
0.25660598 -0.018995104 0.0075175692
0.25944763 -0.018393213 0.0090286937
0.56716579 -0.018643418 0.0097559467
0.56914419 -0.018926768 0.0086770551
0.57152456 -0.018757051 0.0075396928
0.57450819 -0.019462802 0.0063183908
0.25239167 -0.017217867 0.0053256475
0.25545138 -0.01687438 0.0064795343
0.25870439 -0.015980856 0.0076892474
0.56880146 -0.016155981 0.0084469579
0.57145089 -0.016099615 0.0073859929
0.57294089 -0.016631452 0.0068200054
0.25232664 -0.014222219 0.004887762
0.25514534 -0.014070885 0.0059226062
0.25795305 -0.013346078 0.0069530657
0.26051021 -0.013960552 0.0081338501
0.26241738 -0.012483853 0.0089384653
0.56827217 -0.013503127 0.0079753194
0.57056123 -0.013048599 0.0070751673
0.25212303 -0.011340819 0.0044300975
0.25467721 -0.010648335 0.0055007637
0.25753596 -0.010073886 0.0065716244
0.25956616 -0.011071439 0.0072757793
0.26244792 -0.010494924 0.0085758688
0.56464577 -0.010620679 0.0085540842
0.567904 -0.010144137 0.0073690778
0.5706383 -0.010377128 0.0064694756
0.25225928 -0.0086080106 0.0041695018
0.25432324 -0.0078609409 0.0049782866
0.25715405 -0.0071930983 0.0060519837
0.25935197 -0.0074790311 0.0069522737
0.26192224 -0.0075137164 0.0077390792
0.26476029 -0.0075632064 0.0087790461
0.5594843 -0.00718641 0.0088970559
0.56134552 -0.0079305237 0.0086761313
0.5656659 -0.0076883216 0.0075282799
0.5684433 -0.0068930699 0.0064604892
0.25949603 -0.0042253295 0.0062808651
0.26200134 -0.0044148355 0.0071164966
0.26527056 -0.0039838017 0.0079766102
0.26773632 -0.0045784656 0.0088284686
0.27003866 -0.004003156 0.0095339073
0.55394071 -0.003406764 0.0097168935
0.55983937 -0.0053933044 0.0082298899
0.56392968 -0.005126921 0.0072721001
0.56629163 -0.0052180109 0.0066997441
0.56759828 -0.0042966586 0.0059921551
0.25782755 -0.0023054432 0.005215744
0.25934729 -0.0011430068 0.0053865109
0.26191723 -0.00094809587 0.0061552539
0.26527143 -0.0018640385 0.0073955427
0.26820296 -0.0018956305 0.0083435532
0.27114046 -0.00031625136 0.0093098246
0.55470759 -0.00032025346 0.0086994516
0.55789369 -0.0028467069 0.0079873335
0.56065565 -0.0023533087 0.0070180222
0.56311041 -0.0023150013 0.006397476
0.26169166 0.0020479078 0.0052011674
0.2654466 0.0013530974 0.0067525306
0.26874021 0.0013540022 0.0080164978
0.27105847 0.0019916331 0.0090143457
0.27402982 0.00057090219 0.010522724
0.55406415 0.0012434738 0.0085935891
0.55691659 0.00036776662 0.007694616
0.55926967 0.00026531043 0.0066566826
0.2645199 0.0046405601 0.0056477664
0.26839587 0.0041799201 0.0074146544
0.271911 0.005012624 0.0089456839
0.27435949 0.0057762191 0.0097716358
0.54811186 0.0058558513 0.0085421735
0.55024725 0.0055747982 0.0081445053
0.55324453 0.0043511782 0.008037746
0.55663365 0.0033842234 0.0072748153
0.26628906 0.006969973 0.0058231098
0.26781428 0.0059657083 0.006605533
0.27173185 0.0088145975 0.0072995154
0.27406159 0.0085999947 0.0085185636
0.54790545 0.0081393849 0.0079963449
0.55002105 0.0085517447 0.0072150389
0.55316979 0.0089421766 0.0066097099
0.55586183 0.0061797798 0.0069745383
0.27430129 0.010818782 0.0075249877
0.27677748 0.010669365 0.0089322338
0.54631823 0.010682942 0.0084423581
0.54926026 0.011477035 0.0065462175
0.55592054 0.009399184 0.006211163
0.27202722 0.012868742 0.0053496836
0.27428639 0.014521704 0.0057873661
0.27959082 0.013100484 0.0095525132
0.54535121 0.013861569 0.0085222544
0.54766852 0.013826371 0.006805269
0.27538285 0.01666639 0.0057967645
0.28035957 0.016169656 0.0091680987
0.28295508 0.016320158 0.010192415
0.54458636 0.017892128 0.0071367221
0.54614049 0.01703324 0.0065665958
0.27697861 0.020459464 0.005988399
0.27902156 0.018504739 0.007821315
0.28267175 0.018910022 0.0093647819
0.28539395 0.021247953 0.009517584
0.27984035 0.02210938 0.0071027307
0.28320584 0.022710973 0.0082908841
0.28734916 0.023113793 0.0094005838
0.5386197 0.022108063 0.008694849
0.28017908 0.025443075 0.0059688073
0.28365985 0.025720762 0.0073061599
0.28666976 0.026037516 0.0079658907
0.28992584 0.026653515 0.0087254075
0.53870875 0.02490996 0.0076578707
0.28429821 0.028194904 0.0065513942
0.28710607 0.028852405 0.0071737561
0.28934801 0.028259119 0.0078573879
0.29247165 0.028265571 0.008683919
0.29541865 0.028955137 0.0092667621
0.29677534 0.029655289 0.0093512209
0.53386503 0.029221017 0.0079951165
0.53520322 0.027132938 0.0082435245
0.53780037 0.027601676 0.0071480242
0.28613877 0.031118074 0.006140511
0.28909025 0.031430904 0.0067443918
0.29223225 0.031732909 0.0072564851
0.29534984 0.032041762 0.0079040388
0.52778763 0.032546971 0.0085598528
0.53502679 0.031156197 0.0065867966
0.29015622 0.034262538 0.0062210858
0.29252666 0.03458102 0.006676652
0.29615134 0.03484812 0.0075203152
0.29907098 0.034607276 0.0085756155
0.52525127 0.035578456 0.0084510054
0.25590754 0.036826815 0.0063886894
0.29327777 0.036739193 0.0061028241
0.29647538 0.037189897 0.0067289569
0.2988781 0.036938004 0.0075384658
0.30082726 0.037067488 0.0082766106
0.30319148 0.038961191 0.0082985843
0.52150905 0.0381491 0.0088709202
0.52440256 0.038358741 0.0079464093
0.52696592 0.037499212 0.0070429421
0.25823191 0.039316855 0.0074743652
0.295627 0.039382067 0.0055270046
0.30130136 0.040570676 0.0069018756
0.30592412 0.041629963 0.0079334099
0.30997464 0.040986188 0.0090361396
0.51721901 0.041135762 0.0086997831
0.52067608 0.040829103 0.0082564382
0.52406353 0.0412107 0.0074101542
0.52666122 0.040931009 0.006467626
0.52804703 0.041830156 0.0054767984
0.30190274 0.04324206 0.006171159
0.30442926 0.044134807 0.0066386177
0.31221816 0.044448655 0.0083087226
0.31495774 0.045171257 0.009046765
0.51431239 0.043118719 0.0087258304
0.51687622 0.043259613 0.0081709521
0.52060014 0.043599013 0.0075330492
0.52370709 0.044036862 0.0068494868
0.30153561 0.045543719 0.0055844127
0.30427203 0.046894338 0.0058670747
0.31410161 0.04826422 0.0075381063
0.31633458 0.0475467 0.0086880587
0.50262904 0.047729123 0.0093959793
0.5051831 0.047747627 0.0087511064
0.51427841 0.045805886 0.0080439253
0.5174008 0.046523105 0.0071834875
0.52002722 0.046833728 0.0066282363
0.5228498 0.046795316 0.006024519
0.30780831 0.048920389 0.0058445376
0.30983731 0.048460063 0.0062170378
0.31268397 0.04894473 0.0068166857
0.31644624 0.050128073 0.0078521306
0.3187817 0.050800793 0.0085350936
0.50194097 0.050363239 0.0085335122
0.50565279 0.050222304 0.0077468315
0.507559 0.048116244 0.0084174396
0.51081264 0.048278898 0.0079295039
0.51407391 0.048882686 0.0068096556
0.30762303 0.051107652 0.0050962046
0.30989185 0.051336229 0.0055709155
0.31229714 0.051670961 0.0061177034
0.31674391 0.05246393 0.0071521895
0.31920189 0.052057814 0.0082635274
0.32182372 0.052556612 0.0087839412
0.49831882 0.052875336 0.009166413
0.50143284 0.053479519 0.0077506355
0.50486624 0.053175338 0.0066545946
0.50707144 0.051016893 0.007185204
0.51033968 0.051168177 0.0064801672
0.31214437 0.054638535 0.0054676393
0.31613144 0.054525886 0.0065918327
0.31948879 0.05551368 0.007019686
0.32315508 0.054967083 0.0077241133
0.32611263 0.05526337 0.0081963288
0.49973339 0.056331217 0.0071298433
0.50143623 0.056030184 0.0067515802
0.31494597 0.057411354 0.0052939565
0.3175827 0.05756532 0.005803227
0.32003593 0.058662433 0.0054899235
0.32549259 0.058253814 0.0062318668
0.32809874 0.057520032 0.0077873897
0.33523518 0.060401659 0.0078519052
0.33721006 0.060124237 0.0087142996
0.49209234 0.059439693 0.0072308914
0.49741164 0.058640838 0.0065575661
0.49854136 0.057297267 0.00713991
0.33063418 0.059738636 0.0072689694
0.3340885 0.061532602 0.0065524708
0.33727586 0.062389899 0.0067168227
0.33959255 0.061294541 0.0084994584
0.47665316 0.062707558 0.0088665513
0.47876427 0.061495062 0.0086962152
0.4814238 0.062524676 0.0079817967
0.48474848 0.061417248 0.0077344035
0.48794168 0.060422488 0.0075888084
0.49020499 0.060979407 0.0064546708
0.34060189 0.064142287 0.0070056915
0.34273225 0.064164743 0.0078592049
0.34565598 0.063855961 0.0086619863
0.34898189 0.064399704 0.0086505339
0.35215324 0.065062374 0.0086105997
0.35489544 0.065122843 0.0089744199
0.46366075 0.066283822 0.0098854164
0.47247532 0.065675206 0.0089313211
0.47492713 0.064789936 0.0084982812
0.47800797 0.064689226 0.0079299984
0.48101771 0.065504618 0.0072053238
0.48579937 0.063489847 0.0064255209
0.34622574 0.066157684 0.0075104972
0.34870565 0.067007378 0.0074702427
0.35178047 0.067975536 0.0074834311
0.35453737 0.067811839 0.0077488092
0.35728914 0.068778984 0.0079500815
0.36101502 0.06650272 0.0096700117
0.36919224 0.06751585 0.009472128
0.38799581 0.069494575 0.010404957
0.4563871 0.069410317 0.0087996377
0.46063775 0.068449117 0.008826307
0.46354514 0.06834054 0.0087726535
0.46601078 0.067683488 0.0090643009
0.46914226 0.067403637 0.0088293953
0.47303304 0.067872889 0.0079095643
0.47565591 0.067349963 0.0075534214
0.47795838 0.067781389 0.0068923994
0.48041987 0.068239912 0.0064611956
0.34968588 0.069904037 0.0061332281
0.35638505 0.071789362 0.0063692592
0.35793066 0.071255259 0.0069467793
0.36028492 0.070611104 0.0079690563
0.36903328 0.070074283 0.0083452128
0.37227067 0.070508257 0.008064677
0.3754988 0.070962757 0.0081339246
0.37816897 0.071398139 0.008452951
0.38115981 0.071471155 0.0090590436
0.39094856 0.070945911 0.0099617252
0.42732367 0.071623243 0.0094955517
0.44644615 0.071392901 0.009283077
0.45135301 0.069637954 0.009297478
0.45399374 0.069973938 0.0087824501
0.45755813 0.070583627 0.0080868034
0.45993188 0.070900649 0.0078055942
0.4629001 0.070230499 0.0079101501
0.46593115 0.070157111 0.0079522394
0.46905789 0.070437178 0.0075470838
0.4717629 0.070547774 0.0070508108
0.47508553 0.070623942 0.0064214314
0.47749567 0.069880433 0.0062631704
0.35887814 0.072485574 0.0065478161
0.36092401 0.073616363 0.0065803095
0.36426204 0.071995497 0.0077475198
0.36761901 0.072735913 0.0073118047
0.37205693 0.073559068 0.0067274948
0.37648863 0.074222669 0.0071013672
0.38032642 0.073490076 0.0079986146
0.38371131 0.074205592 0.0079928916
0.39159033 0.073855683 0.0084962351
0.39423811 0.074845634 0.0084153656
0.39873776 0.073169127 0.0097584296
0.42178097 0.073449105 0.0092086727
0.42453948 0.074162841 0.0086339284
0.42755151 0.074293405 0.0087305857
0.43045601 0.074006312 0.0089304456
0.43749419 0.074108794 0.0087317685
0.44093373 0.073134623 0.0090338895
0.44603705 0.073952101 0.0078859776
0.44913444 0.0729381 0.0082341395
0.45117709 0.073759191 0.0074462318
0.45370403 0.072988495 0.0074002594
0.45699248 0.073119111 0.0070727766
0.46020645 0.072959587 0.007046436
0.46306574 0.073578916 0.0069046463
0.46624854 0.073096931 0.0069409655
0.46911287 0.073099568 0.0064271679
0.47126612 0.073149748 0.0060264776
0.37477851 0.077025861 0.0061821584
0.37745613 0.077549443 0.0065544001
0.38035351 0.077754356 0.0065485444
0.38338453 0.077802099 0.0059771584
0.38648021 0.076253079 0.0066690962
0.39138088 0.076600842 0.0070308321
0.39569655 0.076662183 0.0078678457
0.39811441 0.076670691 0.0083493395
0.40088111 0.076163754 0.0089691365
0.41055775 0.077741213 0.0084386794
0.41327554 0.076699026 0.0089482302
0.41560283 0.076754548 0.0085968971
0.41892764 0.077238075 0.0077327718
0.42172068 0.076339692 0.0079435026
0.42449638 0.077094376 0.0077387467
0.42756224 0.076660179 0.0080145672
0.43139359 0.076437928 0.0081313001
0.4337543 0.076529048 0.0079539083
0.43736449 0.077223375 0.0070119849
0.43967417 0.076243833 0.0072399392
0.44342011 0.075810574 0.0070318202
0.44536266 0.077062443 0.0062232753
0.44772261 0.074911378 0.007194649
0.45102718 0.076949336 0.006094004
0.45343673 0.075662501 0.0063535501
0.45898706 0.075590715 0.0061586029
0.46286198 0.075696014 0.0058113043
0.46661153 0.076781072 0.005051746
0.39246732 0.078704283 0.0062471945
0.3954193 0.079524413 0.0065082386
0.39789423 0.080119245 0.0066082748
0.40057299 0.079878561 0.0068373946
0.40341079 0.078582607 0.0076305522
0.40731922 0.078700721 0.0077466639
0.40967476 0.07920976 0.0073279375
0.41293064 0.080277912 0.006415356
0.41595885 0.07849586 0.0073039932
0.41928118 0.079113446 0.0068357764
0.42238259 0.07923615 0.0070669246
0.42510518 0.078719825 0.0073468625
0.42767915 0.07886412 0.0073742215
0.43078718 0.07885702 0.0071144262
0.43341151 0.078956313 0.0067456486
0.43981048 0.078540146 0.0059788297
0.40292579 0.080610469 0.0061394204
0.42131701 0.081670098 0.0060448521
0.42492166 0.081310071 0.0065934006
0.42806855 0.081445388 0.00634233
0.43209228 0.081606522 0.0056860941
0.42388627 -0.2787036 0.0084001152
0.39522633 -0.27618858 0.0094869155
0.42353991 -0.2767956 0.0092957346
0.42628717 -0.27660617 0.0093401829
0.42903069 -0.27620989 0.0091584483
0.43580785 -0.27691904 0.0087479297
0.43849871 -0.27641723 0.0086751319
0.38601661 -0.27411875 0.0089136781
0.38772994 -0.27426395 0.0091617471
0.39087355 -0.27459818 0.0099414503
0.39506987 -0.27458107 0.010338681
0.3973583 -0.27456537 0.0099425968
0.39943966 -0.27466369 0.00948219
0.40342972 -0.27355921 0.0091065047
0.40729478 -0.27319011 0.0094426405
0.41935834 -0.27454731 0.009666414
0.42124256 -0.27460089 0.0097897751
0.42443153 -0.27442178 0.010217483
0.42840317 -0.27356362 0.01056153
0.43183509 -0.27324229 0.01083173
0.43228248 -0.27567795 0.0092658959
0.43553892 -0.2752459 0.0096486462
0.43930346 -0.27424577 0.0095134443
0.4434177 -0.27354243 0.008876849
0.44633722 -0.27432698 0.0082830247
0.44884729 -0.27400187 0.0086671803
0.45438287 -0.27341452 0.0085813254
0.36201841 -0.27016941 0.0090123527
0.36733899 -0.26973116 0.0091499332
0.37425101 -0.27134901 0.0092545301
0.37704861 -0.27108383 0.009703693
0.37912905 -0.27117118 0.0098904837
0.38238391 -0.2710304 0.0099837268
0.38550192 -0.27172214 0.0097869607
0.38847685 -0.27127507 0.010575816
0.39157477 -0.27186522 0.011118535
0.39483485 -0.27241337 0.01101823
0.39783168 -0.27172914 0.010828343
0.40063286 -0.27126876 0.010360088
0.40319118 -0.2717641 0.009976659
0.40607473 -0.27102497 0.010490054
0.4093343 -0.27188566 0.010128747
0.41215336 -0.27078849 0.010780367
0.41542947 -0.27092192 0.010815523
0.41877124 -0.27200627 0.010459194
0.42184258 -0.27171102 0.010700963
0.42450348 -0.27131328 0.011017724
0.42805454 -0.2712625 0.011486927
0.43254876 -0.2710188 0.011851422
0.43653163 -0.27243897 0.010713941
0.43984655 -0.27056888 0.010629031
0.44313902 -0.27126017 0.0098633477
0.44577622 -0.27162793 0.0099748047
0.44902685 -0.27098629 0.010749573
0.45183691 -0.27055758 0.010583215
0.45450345 -0.27090615 0.0098151844
0.45817813 -0.27123159 0.0086967079
0.46097034 -0.27017286 0.0085136434
0.35696805 -0.268819 0.0091244653
0.3598499 -0.26830587 0.0095649706
0.36180684 -0.2679984 0.0097148307
0.365329 -0.26853201 0.0095713213
0.36737743 -0.2680423 0.0098922336
0.36980531 -0.26958847 0.0094246836
0.37639943 -0.26943988 0.010632159
0.37940419 -0.2691116 0.011106471
0.38318202 -0.26856112 0.011412431
0.38539159 -0.26864353 0.011111291
0.38823625 -0.26878101 0.011548982
0.39276996 -0.26889935 0.01217294
0.39733875 -0.26943257 0.011741395
0.40071914 -0.26901165 0.01133261
0.4039982 -0.26957357 0.011126095
0.40513706 -0.2684738 0.011905774
0.409839 -0.26913714 0.011848823
0.41228539 -0.26818472 0.012400763
0.41886526 -0.2681706 0.012048198
0.42157853 -0.2690289 0.011545795
0.42531651 -0.26872256 0.011642409
0.42794964 -0.2698707 0.011917526
0.43916604 -0.26929113 0.011454943
0.4428288 -0.26878524 0.01120472
0.4459537 -0.26917499 0.011605391
0.45548135 -0.26858681 0.010724895
0.4574149 -0.26863661 0.010040219
0.46090999 -0.26719561 0.0099263387
0.46769798 -0.26788923 0.0092631271
0.46961495 -0.2676473 0.0092707667
0.34725395 -0.26489994 0.0091733634
0.34939566 -0.26537097 0.0091697751
0.35266104 -0.26609212 0.0093497811
0.35557026 -0.26537678 0.010086458
0.35864726 -0.26533198 0.010547016
0.36159232 -0.26535499 0.010765756
0.36463508 -0.26581827 0.010656134
0.36837867 -0.26611593 0.010912896
0.37061223 -0.26581544 0.011473899
0.37486348 -0.26622319 0.01216398
0.37735429 -0.26628113 0.012497309
0.38999155 -0.26727593 0.012371452
0.39536172 -0.26740307 0.012614618
0.39896452 -0.2664611 0.012709102
0.40020543 -0.26731962 0.012211598
0.41025314 -0.26688772 0.013103018
0.42175663 -0.26560533 0.01297773
0.42448893 -0.26533785 0.012960662
0.44074741 -0.26604182 0.012908087
0.44236505 -0.2659193 0.012828859
0.45602128 -0.26694703 0.0112312
0.45788461 -0.26574191 0.011292368
0.4605222 -0.26515213 0.011137367
0.46342248 -0.26537761 0.010951824
0.46637058 -0.26624471 0.010235763
0.46962869 -0.26631108 0.0099684056
0.47281444 -0.26583827 0.0098214922
0.47550577 -0.26574343 0.0094702709
0.47809857 -0.26524106 0.0093533089
0.48192978 -0.26475543 0.0091218892
0.33501896 -0.2607775 0.0081878472
0.33705929 -0.26182169 0.0084734317
0.33946058 -0.26182467 0.0092210863
0.34302095 -0.262826 0.0094684111
0.3463445 -0.26262081 0.01000125
0.34901354 -0.26241183 0.010221011
0.35204282 -0.26257101 0.010272505
0.35542175 -0.26264939 0.010989448
0.35808778 -0.2628164 0.011550048
0.36247948 -0.2634204 0.011577197
0.36440274 -0.2622872 0.012087891
0.3675769 -0.26293015 0.012256078
0.46702629 -0.26278105 0.01196549
0.46903902 -0.26334748 0.011343012
0.47249475 -0.26297647 0.010824991
0.47558889 -0.26292282 0.010489883
0.47836959 -0.26224089 0.010267231
0.48120824 -0.26161656 0.01018832
0.48453081 -0.26247624 0.0090441322
0.33480039 -0.2585673 0.0092265951
0.33815092 -0.25908044 0.010069896
0.34039569 -0.25981143 0.010254847
0.34287065 -0.25995466 0.01055342
0.34601846 -0.2596091 0.010939433
0.34952018 -0.26004168 0.010862139
0.35229367 -0.25989434 0.011342212
0.35383043 -0.25962818 0.011827704
0.46766579 -0.25973105 0.012549797
0.46902639 -0.26038226 0.012125327
0.47166422 -0.26019666 0.011568716
0.47506645 -0.26016536 0.010941328
0.47809613 -0.25947544 0.010800282
0.48091489 -0.25910184 0.010656043
0.48411918 -0.25916269 0.0098208878
0.48678595 -0.26057199 0.008642314
0.33244357 -0.2559883 0.0093961228
0.33537412 -0.25627801 0.010336747
0.33767173 -0.25675386 0.010745157
0.34093919 -0.25656453 0.011111413
0.34234956 -0.25595644 0.011645194
0.34578621 -0.25714836 0.011860392
0.34931308 -0.25776428 0.011716246
0.35206184 -0.25792837 0.012106708
0.47105238 -0.25685668 0.012227101
0.47412151 -0.25656798 0.011720932
0.47517377 -0.25746551 0.011378488
0.47780544 -0.25665843 0.011346849
0.48105693 -0.25639161 0.011199639
0.48451969 -0.25626409 0.010512189
0.48678574 -0.25645408 0.0096924314
0.32922778 -0.25318381 0.0091746291
0.33246526 -0.25370589 0.0102397
0.33548641 -0.25447258 0.010897233
0.33695701 -0.25415826 0.011258594
0.34039629 -0.25299835 0.011994998
0.34439093 -0.25325811 0.012818233
0.47384378 -0.25395462 0.012538903
0.47595215 -0.25366065 0.012372378
0.48508322 -0.25382423 0.011415363
0.48713601 -0.25290403 0.011376667
0.48921546 -0.25489071 0.0096292486
0.49386099 -0.25326574 0.0094108675
0.49633297 -0.25228384 0.0099297864
0.50045156 -0.25186044 0.010093922
0.50241202 -0.25293392 0.0090981247
0.50425047 -0.25269458 0.0088153109
0.32218269 -0.24928951 0.0093994616
0.32632393 -0.24989277 0.010071807
0.32829642 -0.25051686 0.010268682
0.33143553 -0.2509703 0.010984493
0.33592239 -0.25091335 0.012043843
0.33894271 -0.25042495 0.012585531
0.48731682 -0.25102282 0.012522049
0.49059045 -0.25082156 0.011800072
0.49441999 -0.25031808 0.011463043
0.49705094 -0.24974605 0.011491128
0.49855611 -0.25038233 0.011151582
0.50214934 -0.24995628 0.010628604
0.5047785 -0.2502602 0.0096463785
0.32009026 -0.24719694 0.0098371152
0.32269207 -0.24698895 0.010614051
0.32488084 -0.24836306 0.01051526
0.32844824 -0.24817631 0.011463293
0.33224973 -0.24840209 0.012169539
0.33530623 -0.24821153 0.012768077
0.49423853 -0.2479122 0.012793346
0.50066227 -0.2462852 0.012280557
0.5023793 -0.24723087 0.011467661
0.50538599 -0.24820526 0.0099939676
0.50789541 -0.24580324 0.009592995
0.30897304 -0.24425961 0.0090407487
0.31036407 -0.24364382 0.0096347891
0.3134889 -0.2443146 0.0096984748
0.31606582 -0.24381466 0.010274888
0.31913117 -0.24474038 0.010481872
0.32197618 -0.2445102 0.011513253
0.32491317 -0.24505752 0.012050751
0.3273187 -0.24475788 0.012581391
0.5038358 -0.24414302 0.011435884
0.50548816 -0.24379675 0.011040035
0.50919139 -0.24314287 0.010405896
0.51121444 -0.24275695 0.010197263
0.30148298 -0.24145739 0.0078178737
0.30479151 -0.24082036 0.0095747635
0.31063247 -0.24219723 0.010351305
0.31363273 -0.24104053 0.011213074
0.31645969 -0.24149199 0.011290666
0.31921661 -0.24227524 0.01151767
0.32138517 -0.24251094 0.012016332
0.50636429 -0.24202001 0.011529071
0.5089826 -0.24270934 0.010651516
0.51169175 -0.241028 0.010918113
0.51388514 -0.24069795 0.010524403
0.51655263 -0.24063194 0.0094358306
0.30163911 -0.23837841 0.0094191115
0.30434561 -0.23762882 0.010778954
0.30749497 -0.23875566 0.011290133
0.31026107 -0.23885782 0.011728155
0.31275231 -0.23930401 0.011790476
0.50583738 -0.24026531 0.012389417
0.50837922 -0.23871219 0.012455356
0.51095241 -0.23914921 0.011852186
0.51493919 -0.23844339 0.011336144
0.51670504 -0.23799776 0.010879668
0.29990831 -0.23545088 0.0092427004
0.30171958 -0.23504075 0.010629868
0.3039189 -0.23482683 0.01147653
0.30654088 -0.23689209 0.011707332
0.30960301 -0.23649721 0.012362234
0.52295005 -0.23574449 0.010545742
0.52568287 -0.23512629 0.010135728
0.52772152 -0.23544964 0.0091225514
0.29917869 -0.2316875 0.010605223
0.30193397 -0.23371348 0.011123512
0.30572146 -0.23422129 0.012242233
0.52554244 -0.23175694 0.011493435
0.52869034 -0.23339798 0.0094571318
0.29585648 -0.22971547 0.0095188506
0.29730192 -0.22810048 0.010966406
0.52597904 -0.22894913 0.01181145
0.52972549 -0.23014377 0.009784325
0.53207785 -0.23042822 0.0091665508
0.53703409 -0.22930826 0.0091449767
0.54025525 -0.22883816 0.0091611547
0.29256603 -0.22649881 0.0095125725
0.29552442 -0.22637564 0.010783836
0.52817827 -0.2280484 0.011150932
0.53253931 -0.22708067 0.010160307
0.53656363 -0.22631884 0.0098763974
0.53872961 -0.22609739 0.0096604414
0.54044014 -0.22605547 0.0094700707
0.2896474 -0.22372185 0.0093777729
0.29248545 -0.22419579 0.010325547
0.29552543 -0.22317336 0.011847664
0.52942038 -0.22486356 0.01225327
0.53314257 -0.22409491 0.011213411
0.53617984 -0.22351095 0.010436993
0.53861111 -0.22307791 0.0099254204
0.5401997 -0.22353137 0.0095113264
0.28938159 -0.22077908 0.0099053355
0.53395706 -0.22053628 0.01244392
0.53600866 -0.22089657 0.01132913
0.53885907 -0.21979445 0.010369079
0.54034233 -0.22111697 0.0095442701
0.28924131 -0.21730477 0.010462454
0.53587782 -0.21879022 0.012183191
0.53861684 -0.21751089 0.011070889
0.54119796 -0.2167767 0.010247791
0.28529027 -0.21471223 0.0094067277
0.28872555 -0.21528074 0.010758665
0.54133457 -0.21427612 0.011072547
0.54403949 -0.21340415 0.010078858
0.54713017 -0.213052 0.0095285
0.27813044 -0.21135809 0.010041333
0.28182983 -0.21292417 0.010230839
0.28538623 -0.21323802 0.010291698
0.28852433 -0.21324342 0.011636147
0.54449141 -0.21144113 0.010853386
0.5464614 -0.21001014 0.010865184
0.27622476 -0.20731702 0.010927247
0.277587 -0.20938675 0.011029009
0.5460059 -0.20705985 0.01193325
0.55058861 -0.20880431 0.010401585
0.27280933 -0.20486224 0.0092176627
0.2749218 -0.20535849 0.010601549
0.54927927 -0.20673852 0.011392116
0.55296296 -0.20531729 0.010680182
0.55508393 -0.20630583 0.009635088
0.27190918 -0.20212056 0.0094621135
0.27472946 -0.20219247 0.011142978
0.55170333 -0.20329152 0.011662764
0.55409777 -0.20287855 0.010894298
0.55657768 -0.2028756 0.0099214017
0.26838225 -0.1990449 0.0087643042
0.2713508 -0.19898601 0.0098848231
0.27389544 -0.19862291 0.011046253
0.55140054 -0.20063202 0.012258928
0.55395657 -0.20018803 0.011309544
0.55688232 -0.19967975 0.010173865
0.26776177 -0.19612302 0.0094028646
0.27089319 -0.19571081 0.01032054
0.27324679 -0.1956699 0.011121906
0.55360258 -0.19695458 0.011678172
0.55659604 -0.19671986 0.010574304
0.56012529 -0.19625044 0.0094494307
0.2643185 -0.19377455 0.0089660026
0.26728395 -0.19348039 0.0098065929
0.27149963 -0.1928902 0.010976501
0.27378651 -0.1936429 0.01160506
0.55330038 -0.19423704 0.012150733
0.55668759 -0.19356792 0.011049739
0.55966747 -0.1930418 0.010203026
0.56170583 -0.19277295 0.0091182692
0.26369792 -0.19123693 0.0091400575
0.26685068 -0.19080994 0.0099949082
0.26975954 -0.19074509 0.01075362
0.27070084 -0.18947251 0.011354465
0.55910134 -0.1900786 0.010964632
0.56167483 -0.18946752 0.0098941317
0.26322028 -0.18800417 0.0092537533
0.26639625 -0.18755659 0.010235134
0.26922891 -0.18759711 0.011227936
0.55877012 -0.18732198 0.011728641
0.56223577 -0.18736903 0.010333163
0.56425756 -0.18633457 0.0099458164
0.56733924 -0.18577465 0.0092556728
0.26279551 -0.18473592 0.009493012
0.26609769 -0.18409328 0.010772601
0.26913491 -0.18382275 0.012049247
0.56093585 -0.18354937 0.011779573
0.56195086 -0.18499453 0.011176701
0.56409937 -0.18373215 0.010819371
0.56713182 -0.18316883 0.010074591
0.57007724 -0.18452461 0.0088175824
0.26285949 -0.18170498 0.010120972
0.26557794 -0.18158019 0.011197391
0.56284171 -0.18151009 0.011722564
0.56471938 -0.1812491 0.011217954
0.57029581 -0.18260533 0.0091011906
0.25611308 -0.17748851 0.009582703
0.25965166 -0.17880756 0.0099675711
0.26257256 -0.17922653 0.010750859
0.26521179 -0.17886201 0.01181326
0.56590617 -0.17858827 0.011174263
0.567487 -0.1770581 0.010796094
0.5700587 -0.17986093 0.0093948478
0.25384724 -0.17438525 0.0094756056
0.25621811 -0.17567511 0.010091471
0.25879335 -0.1753553 0.010902305
0.26153368 -0.17609835 0.011261716
0.56861997 -0.17598057 0.010528862
0.57204849 -0.17484817 0.0093633542
0.57384551 -0.17477888 0.0087102931
0.25233632 -0.17388697 0.0087620597
0.25586322 -0.17356682 0.010114134
0.25833192 -0.17213954 0.010823139
0.26114705 -0.17284657 0.011596235
0.56858307 -0.17341018 0.011143767
0.57182521 -0.17317662 0.0097501799
0.57432038 -0.17261295 0.0088405106
0.25649676 -0.17048657 0.010045084
0.26085812 -0.1701422 0.011456437
0.5696516 -0.1708964 0.011111027
0.57163721 -0.17050673 0.010322278
0.57409316 -0.17029834 0.0092140902
0.25156584 -0.16587909 0.0088730464
0.25452527 -0.16556945 0.0097018899
0.25721967 -0.16669509 0.010120993
0.25883424 -0.16641329 0.010780935
0.56822348 -0.16783759 0.011918858
0.57090449 -0.16703625 0.01093691
0.57351905 -0.16707629 0.0098653743
0.24895717 -0.1623666 0.0091167046
0.25116479 -0.16318981 0.0097109685
0.25440529 -0.1639047 0.010156017
0.25720999 -0.16395897 0.010892677
0.57118773 -0.16408677 0.011283679
0.57391024 -0.16399005 0.010235398
0.57658011 -0.16269711 0.0095247673
0.24865277 -0.15969899 0.009555839
0.25062835 -0.15946627 0.010534293
0.25391752 -0.16043708 0.011556047
0.57198614 -0.16100585 0.011710384
0.57359374 -0.16137929 0.011078748
0.5763461 -0.16045529 0.010265809
0.57972807 -0.16004878 0.0087288376
0.24819587 -0.15706947 0.0095644398
0.25021553 -0.15681653 0.010582074
0.25309211 -0.15651792 0.01216261
0.57444543 -0.15654476 0.011925084
0.57743883 -0.15760428 0.010268128
0.58006477 -0.15777412 0.0085988855
0.24762641 -0.15440258 0.009376795
0.24967986 -0.15360112 0.010359161
0.25253332 -0.15323001 0.012034372
0.5772146 -0.15431993 0.010296274
0.2504417 -0.15035108 0.010660081
0.57652116 -0.15140626 0.010610512
0.2488101 -0.14767271 0.0099922437
0.57600272 -0.14936437 0.011284664
0.57680136 -0.14863205 0.010796147
0.2483708 -0.14500375 0.010046266
0.25167987 -0.14547402 0.011754495
0.58005172 -0.14430934 0.010119658
0.58211225 -0.14391269 0.0089304363
0.24500561 -0.14133774 0.0095989183
0.24805628 -0.14179234 0.010621291
0.25091979 -0.1416346 0.012080522
0.57980025 -0.14176042 0.011326743
0.58242363 -0.14123215 0.010208576
0.24227455 -0.13922039 0.0090169087
0.24465574 -0.13894069 0.0098932488
0.24770598 -0.13860215 0.011304153
0.57905847 -0.1391132 0.012093575
0.58090097 -0.13886844 0.011417647
0.58438826 -0.1398467 0.0093979873
0.24424249 -0.13589033 0.010262865
0.24723354 -0.13542208 0.011654616
0.58056074 -0.13552293 0.011724072
0.58354747 -0.13639107 0.010542192
0.24409162 -0.13302657 0.010379991
0.24638112 -0.13281012 0.011463362
0.58194774 -0.13211338 0.011182788
0.58448648 -0.13202706 0.010135982
0.24461609 -0.13026483 0.010769917
0.58047193 -0.12978928 0.011484982
0.24285437 -0.12715356 0.0098954029
0.24552622 -0.126904 0.01136842
0.57998991 -0.12758203 0.011442346
0.58404988 -0.12751621 0.010094545
0.58650994 -0.12865315 0.0090939272
0.24226715 -0.12395196 0.010067729
0.24497439 -0.12369823 0.011451262
0.57736093 -0.12415397 0.012307622
0.58005011 -0.12381466 0.011178182
0.58342445 -0.12342604 0.010154597
0.58591276 -0.1245411 0.0093378704
0.23935916 -0.12189429 0.0091221333
0.24188426 -0.12127668 0.01021186
0.24438483 -0.12098926 0.011448028
0.57907385 -0.12021419 0.012061553
0.58035892 -0.12116973 0.011359709
0.58280087 -0.12010266 0.010763807
0.23901413 -0.11890489 0.009304041
0.24149071 -0.11858052 0.010245418
0.24410303 -0.1182928 0.011422013
0.58270848 -0.11747374 0.011592577
0.58517438 -0.11987183 0.0098695569
0.24108507 -0.11532031 0.0099034309
0.24402472 -0.11491399 0.01125911
0.585603 -0.11554453 0.010991556
0.24084267 -0.11218451 0.0094993273
0.2439339 -0.11177834 0.010912482
0.24598111 -0.11102193 0.011739399
0.58689159 -0.11274574 0.011177873
0.58987528 -0.11262203 0.0092054345
0.24483062 -0.10842505 0.010993001
0.5875299 -0.11057929 0.011098549
0.58918595 -0.1103743 0.010259281
0.24089664 -0.1068024 0.0088853249
0.24450086 -0.10588521 0.010684994
0.58324802 -0.10521565 0.012158078
0.58623844 -0.1068804 0.011472994
0.58960253 -0.10690319 0.010198412
0.59155196 -0.10574034 0.0091483193
0.24268687 -0.10306858 0.0099551752
0.24553354 -0.10285631 0.011541587
0.24691878 -0.10274699 0.012196899
0.58355057 -0.10317464 0.01155935
0.58666974 -0.10451584 0.010673857
0.58934081 -0.10337627 0.009520865
0.59195572 -0.10324503 0.0085859392
0.24189839 -0.09952946 0.010483376
0.2450245 -0.10077538 0.011659896
0.58207393 -0.10026056 0.011396476
0.58626246 -0.1019146 0.010079687
0.23971693 -0.09744174 0.0097519988
0.24216972 -0.096895255 0.011322511
0.580935 -0.096013434 0.011372113
0.58274823 -0.098858431 0.010720184
0.5852657 -0.098625414 0.0094424766
0.23837571 -0.094635345 0.0091967229
0.24157278 -0.094155781 0.011079759
0.58122951 -0.09322533 0.011182453
0.58242464 -0.095818326 0.010436527
0.58516157 -0.095458195 0.0093198651
0.23840159 -0.091929018 0.0089067044
0.24099705 -0.091303252 0.010401633
0.24426126 -0.091099493 0.011853153
0.58342999 -0.091584839 0.010384119
0.58741969 -0.092204578 0.0091511291
0.24069497 -0.088037744 0.0097349267
0.24380647 -0.087750725 0.011231733
0.58078164 -0.089401878 0.011653219
0.58370119 -0.088694826 0.010828793
0.58757895 -0.089543551 0.0095970742
0.58980519 -0.088698223 0.0088628707
0.24058774 -0.085007228 0.009580696
0.24354742 -0.084597372 0.010954597
0.24608293 -0.0842935 0.011999482
0.58115524 -0.086971201 0.011766401
0.58418649 -0.086681016 0.010997232
0.58710259 -0.086297959 0.010152728
0.24027523 -0.082259193 0.0091389529
0.24438652 -0.081621021 0.010861296
0.24638742 -0.08206708 0.011692232
0.58384877 -0.083556205 0.011393444
0.58638716 -0.083060183 0.010427305
0.24175581 -0.079383425 0.0094124936
0.24534841 -0.078654535 0.010373292
0.2476192 -0.078118019 0.011152937
0.58328408 -0.080737926 0.011845262
0.58554298 -0.079678901 0.010483628
0.24236429 -0.075674608 0.0089609846
0.2449989 -0.075368933 0.0096851569
0.24743538 -0.075008057 0.010587583
0.24948555 -0.07683152 0.011818208
0.58435172 -0.07649339 0.010660319
0.24460787 -0.072170228 0.0096647376
0.24952167 -0.073480099 0.011761155
0.58050799 -0.072594009 0.011873357
0.58333617 -0.074337386 0.010895189
0.24418703 -0.0694931 0.0098125236
0.24719946 -0.07191699 0.010645401
0.57815146 -0.069771811 0.011923041
0.5808906 -0.070123784 0.011141505
0.58332264 -0.07178843 0.010416183
0.2438525 -0.066842087 0.0097849304
0.24737282 -0.067438573 0.010861931
0.57759202 -0.066370793 0.011413825
0.57950604 -0.066831641 0.010847943
0.58411771 -0.069107607 0.0094434777
0.24469441 -0.063434228 0.0099714603
0.25042966 -0.065223984 0.011878356
0.57739222 -0.063344464 0.011162219
0.5813449 -0.065869533 0.0099090924
0.5833087 -0.066062309 0.0090718092
0.24304588 -0.060819749 0.0090174163
0.25023878 -0.062808722 0.011334843
0.57730377 -0.060476247 0.011286085
0.24538513 -0.05856147 0.0095145125
0.24872908 -0.059607238 0.010619628
0.25118449 -0.059206616 0.011353006
0.57714498 -0.057865996 0.011520553
0.58037627 -0.057303403 0.009717132
0.24534383 -0.054643981 0.0087760221
0.24826492 -0.055385824 0.010150335
0.25147784 -0.056112345 0.011527307
0.57680982 -0.054609332 0.011725969
0.57976836 -0.05409484 0.009778332
0.25103366 -0.053340096 0.011339365
0.57579684 -0.051450808 0.011743639
0.57760853 -0.051118243 0.010468708
0.57957983 -0.051292777 0.0090133687
0.24765241 -0.050876718 0.0095506748
0.25073361 -0.050614364 0.010947243
0.25303534 -0.049677342 0.011935887
0.57563686 -0.048656616 0.011368685
0.24737994 -0.047800951 0.0090281889
0.25036696 -0.047280215 0.010192355
0.2537913 -0.046517815 0.011562716
0.57563847 -0.04591633 0.01086621
0.25005221 -0.044486456 0.0095359497
0.25254324 -0.044146292 0.010533
0.25530422 -0.043532927 0.011391608
0.57487977 -0.042883337 0.010904087
0.57691503 -0.044358205 0.0092384089
0.24973069 -0.041721277 0.0090165557
0.25344044 -0.04111525 0.010423724
0.25726262 -0.03952226 0.011808219
0.57457942 -0.039528631 0.010806283
0.25181359 -0.038064752 0.0095152939
0.25392741 -0.037202302 0.010140105
0.25716332 -0.036858171 0.011351518
0.25959042 -0.036401551 0.012293605
0.57102764 -0.03728715 0.01180042
0.57444727 -0.036685575 0.010707766
0.25171804 -0.035450291 0.0089504384
0.25380674 -0.034157809 0.0094545996
0.25659609 -0.033709869 0.010550185
0.25937909 -0.034243669 0.011879916
0.56793708 -0.034380369 0.011487592
0.57095617 -0.034322709 0.011064268
0.57400763 -0.034028541 0.010420331
0.57599664 -0.03497215 0.0095805731
0.25392365 -0.032683779 0.0092093851
0.25644836 -0.030831257 0.010029198
0.25921771 -0.031395011 0.011366587
0.2619296 -0.032091212 0.012486156
0.56713146 -0.031800363 0.010865775
0.567972 -0.030767694 0.01031104
0.57053983 -0.031350814 0.0098455194
0.57329726 -0.031265952 0.0093093803
0.57594055 -0.031516291 0.0086727571
0.2541028 -0.027894182 0.0082973326
0.25651464 -0.028030679 0.0096631236
0.25863707 -0.028732238 0.01086492
0.26137277 -0.029475614 0.012056982
0.56385732 -0.028942736 0.011919436
0.56611478 -0.028136436 0.010712923
0.56773496 -0.028280916 0.0099177649
0.25631151 -0.025150666 0.0092284717
0.25892299 -0.026093621 0.010799472
0.26151183 -0.026254427 0.012024621
0.26388925 -0.026142847 0.012852732
0.56587958 -0.025329964 0.010846705
0.56759113 -0.025392111 0.0098008085
0.25709635 -0.023205072 0.0093125217
0.25938055 -0.022802997 0.010631002
0.2619552 -0.022374609 0.01180213
0.56600165 -0.022538058 0.010721883
0.56749415 -0.023718005 0.0097213769
0.26035172 -0.020414811 0.010360561
0.26274824 -0.019447567 0.011199677
0.56529635 -0.020240249 0.011041747
0.2614044 -0.015939083 0.0091018565
0.26310274 -0.016049139 0.010104117
0.26539126 -0.016245972 0.011167305
0.26710805 -0.015630743 0.011543569
0.56045967 -0.016210997 0.012071478
0.56236601 -0.017251646 0.011698641
0.5651114 -0.016275099 0.010077545
0.26330402 -0.013241632 0.009430835
0.26582974 -0.012917084 0.010420355
0.26791084 -0.014157671 0.011408952
0.27126676 -0.013007266 0.012058756
0.55963945 -0.013932226 0.011567168
0.56228864 -0.01288424 0.010116961
0.56479466 -0.013916282 0.0093958527
0.26500696 -0.010657849 0.0096616726
0.26833799 -0.010581044 0.010673383
0.27121857 -0.010247507 0.011582816
0.55375904 -0.0090810359 0.011623169
0.55608636 -0.010157752 0.01122709
0.55867517 -0.011494829 0.010919314
0.56192017 -0.010422577 0.0093743149
0.26608562 -0.0078018499 0.009251792
0.26860818 -0.0079591675 0.010141606
0.27127647 -0.0075625107 0.011114024
0.55506271 -0.0060970401 0.0099887736
0.55744106 -0.0060481206 0.0090770051
0.55842817 -0.0086193923 0.0097361086
0.26504689 -0.005771501 0.0082743121
0.26927483 -0.004547934 0.0094175786
0.27221358 -0.0041578147 0.0105358
0.27456006 -0.0046378002 0.011610807
0.55061489 -0.003586743 0.01123405
0.55214894 -0.0054286844 0.011128754
0.27112058 -0.0018335264 0.0094348704
0.27452883 -0.0020570683 0.011184937
0.54754657 -0.0014080494 0.01182851
0.5502888 -0.00052467978 0.010380587
0.27205113 0.00040373689 0.0095844017
0.27415761 0.00066091574 0.010504096
0.27705309 0.00097481383 0.011689214
0.54567379 0.0025280381 0.010906428
0.54750776 0.0017955569 0.010485576
0.55027646 0.002362841 0.0093502868
0.27149445 0.0033417256 0.0090522608
0.27499893 0.0037301041 0.010457975
0.27790508 0.0036895906 0.011489654
0.27935487 0.0046970691 0.011570884
0.54167652 0.0045197611 0.012228423
0.543998 0.0040471912 0.011098452
0.54670352 0.004717242 0.0094750412
0.27216583 0.0069535123 0.008285447
0.27589685 0.0074130059 0.0098756235
0.27849981 0.0072073168 0.010790694
0.28063813 0.006828777 0.011409561
0.28217798 0.0086027784 0.01146945
0.54163641 0.0071329442 0.011756063
0.54396856 0.0079405895 0.010186399
0.54603773 0.0077501 0.0090471618
0.27348578 0.0092770038 0.0078455722
0.27586454 0.00997221 0.0088097239
0.27878225 0.010629138 0.0098310029
0.28089055 0.010467947 0.010738593
0.28339145 0.0097230012 0.011892872
0.28543174 0.011741587 0.012172926
0.54249018 0.011514202 0.010895467
0.54376316 0.010505512 0.010220906
0.27655116 0.013364735 0.0076370668
0.27872369 0.013248784 0.0089356862
0.28155413 0.014295832 0.010014824
0.28331897 0.013869703 0.010927163
0.28569224 0.013487482 0.011820987
0.28876209 0.013989641 0.012827744
0.29129189 0.01495907 0.013348777
0.53988332 0.013123684 0.011711881
0.54186708 0.013445991 0.01080435
0.54351813 0.013437647 0.0098886127
0.27862898 0.015668781 0.0082698129
0.28134122 0.0170689 0.0092854043
0.28395599 0.017608799 0.010065161
0.28541279 0.016766073 0.010863406
0.28825155 0.016911954 0.011697535
0.29141238 0.017326774 0.01243269
0.53668022 0.016919822 0.011749778
0.53963822 0.01600601 0.010921438
0.54210418 0.015864287 0.0097295605
0.2790843 0.018999178 0.0076749143
0.28118169 0.019738721 0.0085094161
0.28323764 0.018889679 0.0094386665
0.28597748 0.01933392 0.010149544
0.28791928 0.020193309 0.010516938
0.29105046 0.020593204 0.011389458
0.29391178 0.02061687 0.012428965
0.53668165 0.019315878 0.010728554
0.53897196 0.019246077 0.0096850321
0.54071242 0.019581361 0.0085142227
0.28356785 0.020727307 0.0090758447
0.28572038 0.022539726 0.00914873
0.28978455 0.022516327 0.010409879
0.29350638 0.023399353 0.011463
0.29626408 0.024002396 0.012269468
0.52620989 0.023581546 0.011413462
0.52959126 0.0227529 0.011425773
0.53257316 0.022701386 0.010723072
0.53531367 0.021978622 0.010159897
0.28875315 0.025016176 0.0090903146
0.29202583 0.024894144 0.010197189
0.29642522 0.026280336 0.011237022
0.29931 0.024611577 0.012784168
0.30231649 0.025286548 0.013215682
0.52181065 0.025708411 0.01274592
0.52330112 0.025955562 0.011980727
0.52588671 0.026414806 0.010904604
0.52926648 0.026599457 0.010395852
0.53271365 0.024298865 0.01015221
0.53567713 0.024488145 0.0090812938
0.2990903 0.028630525 0.010859122
0.30193341 0.028041499 0.011871361
0.52297908 0.02877605 0.011537389
0.52553493 0.029177025 0.010586556
0.52806717 0.029387604 0.0097619314
0.53192937 0.028367583 0.0090986714
0.298769 0.030727245 0.0096274232
0.30124041 0.031830203 0.010336417
0.30521014 0.031920992 0.011678943
0.52359563 0.032233328 0.010510798
0.52720022 0.03163629 0.0091910278
0.52942234 0.030114876 0.009106026
0.30176792 0.034129683 0.0097066723
0.30501917 0.034954078 0.010291319
0.30685279 0.034539428 0.011071125
0.30980912 0.035351556 0.01181726
0.31265622 0.035852227 0.012637263
0.51144892 0.035492603 0.011793536
0.51484531 0.03472456 0.011457312
0.51865113 0.034469705 0.010891632
0.52153736 0.034734383 0.010189104
0.52375442 0.034635436 0.0095164208
0.30229294 0.038041931 0.0082626315
0.30425674 0.037510507 0.0090553155
0.30745697 0.037340999 0.010019652
0.31022224 0.0381786 0.010540302
0.31262285 0.039016578 0.011021029
0.50768107 0.037927702 0.011574869
0.51125258 0.037201568 0.011045587
0.51567793 0.037045255 0.010232139
0.51836556 0.037585322 0.0095720468
0.52055532 0.036740787 0.0095328875
0.3046661 0.041210476 0.0077027017
0.30760312 0.039384224 0.0090814745
0.31110716 0.040123276 0.0098662414
0.31381026 0.041204423 0.010294572
0.31675786 0.04120208 0.011424397
0.31933549 0.041478772 0.012162251
0.492039 0.042717371 0.013772121
0.4951869 0.043023475 0.013562174
0.5005874 0.041948669 0.012733415
0.50285733 0.041536372 0.011593748
0.50564325 0.041056454 0.010601459
0.50905937 0.039473012 0.010702277
0.51225048 0.039560165 0.010000177
0.51523995 0.039871659 0.0093665859
0.51763505 0.039283417 0.0090777278
0.30777705 0.042993926 0.0076169493
0.31091902 0.041756466 0.0088740215
0.31517106 0.042536456 0.010269536
0.31724283 0.044313032 0.010072281
0.31931412 0.043253962 0.011174866
0.32230818 0.043608677 0.011853292
0.32412431 0.043382872 0.012400034
0.32681844 0.043666054 0.012864442
0.49150118 0.044682853 0.013084766
0.50042093 0.044062268 0.01179451
0.50214553 0.044663779 0.010746606
0.50529569 0.044833891 0.0095039885
0.50845551 0.042082876 0.0099591557
0.51161468 0.042546518 0.0093540773
0.3164351 0.046201713 0.0090131601
0.31837404 0.047330413 0.0094368551
0.32204831 0.046485044 0.010970904
0.32521847 0.046048529 0.0117187
0.50102711 0.045539469 0.010911751
0.50794458 0.045293737 0.0091898097
0.51101559 0.04539337 0.0088694682
0.31637836 0.048696108 0.0082110735
0.31943083 0.048872437 0.0095075797
0.32535872 0.049297005 0.010805626
0.32892969 0.050035961 0.011492915
0.33129245 0.049740188 0.012006921
0.34013906 0.049254835 0.012576314
0.34325728 0.050046705 0.012901235
0.49054569 0.049752656 0.011921714
0.49544969 0.04963636 0.011134554
0.49936494 0.049291831 0.0099999085
0.32328293 0.052009329 0.0093512144
0.32611564 0.052322354 0.0098509919
0.32862988 0.052717194 0.010491761
0.33209175 0.053094722 0.011429611
0.33535919 0.053268388 0.011703938
0.33816168 0.052455075 0.011748444
0.34095341 0.051669069 0.011993261
0.34375656 0.05234424 0.012158249
0.49073511 0.051983178 0.011381555
0.49394107 0.052218616 0.010613715
0.49570251 0.052351464 0.010133085
0.32866398 0.055369928 0.0093170665
0.33233607 0.05520159 0.01078575
0.33507079 0.055572513 0.01120847
0.33800286 0.056091595 0.011026422
0.34064442 0.054152071 0.011396921
0.34383211 0.054616529 0.011506467
0.34699258 0.055193543 0.011749019
0.35015061 0.055807404 0.011748491
0.35281521 0.056142598 0.011986803
0.47956973 0.057283271 0.010625329
0.48112169 0.05606905 0.011096665
0.4842675 0.054824278 0.011524925
0.48861477 0.056348871 0.010222649
0.49072972 0.055257589 0.010307605
0.49449769 0.054957237 0.0095798327
0.49744081 0.055261664 0.0085797282
0.33156955 0.057823926 0.0092674
0.33465675 0.057217408 0.010330218
0.33828864 0.058796957 0.0096946247
0.34054777 0.056987949 0.010832721
0.3434138 0.057577923 0.010798736
0.34646389 0.057891864 0.010732944
0.34981301 0.058336191 0.010579883
0.35253581 0.058469146 0.010790881
0.35516062 0.058914695 0.011300865
0.35831359 0.059692726 0.011846002
0.47357646 0.060075313 0.011690915
0.47556171 0.059162226 0.011000221
0.47799143 0.059012495 0.010175326
0.48152673 0.058222122 0.0098586017
0.48535082 0.057302535 0.010256999
0.48762393 0.058177531 0.0094021522
0.49145937 0.057468481 0.0087708188
0.49299696 0.05669035 0.0089280969
0.34052643 0.06010012 0.0094463676
0.34287634 0.061498348 0.0092534972
0.34663188 0.06157551 0.0096571269
0.34923577 0.061082169 0.0096508311
0.35261968 0.061630543 0.0098024616
0.35543051 0.061790477 0.010441134
0.35795197 0.062616318 0.010706676
0.36099768 0.062674634 0.011098421
0.46933255 0.062879704 0.011501923
0.47610569 0.061055452 0.0097280629
0.47910616 0.06052155 0.0090550222
0.48196998 0.060018282 0.0088820141
0.35456479 0.063381009 0.0095516872
0.35895434 0.06448213 0.010145226
0.36479923 0.064228535 0.010663329
0.36704373 0.063706182 0.011000033
0.36976278 0.064861007 0.010699149
0.37289396 0.064710937 0.011209491
0.37637919 0.064606465 0.011911944
0.37869823 0.064765871 0.012082459
0.38388458 0.064723656 0.012323968
0.38482755 0.065218352 0.011990863
0.39411423 0.065777488 0.012194983
0.39679033 0.065823242 0.012341459
0.45182323 0.065331973 0.011452858
0.45678464 0.064098582 0.012077941
0.46119276 0.064369015 0.01147772
