# .PCD v0.7 - Point Cloud Data file format
VERSION 0.7
FIELDS x y z
SIZE 4 4 4
TYPE F F F
COUNT 1 1 1
WIDTH 347
HEIGHT 1
VIEWPOINT 0 0 0 1 0 0 0
POINTS 347
DATA ascii
0.068517633 0.039689988 0.74950004
0.074691996 0.038422059 0.74875003
0.081639886 0.039148256 0.74958342
0.067970172 0.045274258 0.74711257
0.075445622 0.045149133 0.7450695
0.084625013 0.045825865 0.74649149
0.0692349 0.051998943 0.74400002
0.075277314 0.054602299 0.742293
0.084892221 0.054706547 0.74217367
0.077740483 0.062887043 0.74365383
0.084847391 0.064384483 0.74280006
0.05945592 0.027766505 0.75937504
0.065538511 0.026426934 0.75839293
0.074825794 0.026974106 0.75772059
0.080898836 0.028544867 0.75800002
0.058202431 0.033768404 0.75803846
0.064735502 0.034877095 0.75439644
0.074485958 0.03291234 0.75275922
0.082495593 0.035223514 0.75298536
0.063711442 0.043483391 0.75280005
0.087881774 0.042396802 0.75387502
0.090096205 0.04638036 0.75175005
0.067902148 0.052448712 0.75637507
0.071048066 0.058514781 0.75462508
0.092335194 0.055774469 0.75662512
0.075009957 0.064277768 0.75545001
0.080925524 0.069979519 0.75825006
0.09147992 0.065662585 0.75637507
0.085924119 0.072141118 0.75487506
0.055621058 0.015952062 0.76708037
0.064776413 0.014713701 0.76627934
0.071950421 0.016138962 0.76687503
0.048953746 0.02221564 0.76833338
0.055008076 0.02412007 0.76369452
0.064934768 0.021680601 0.76130003
0.073905252 0.022292459 0.76137501
0.081969023 0.027246049 0.76800007
0.055808112 0.034203101 0.76502782
0.085799992 0.034665182 0.76462501
0.059124902 0.04139588 0.76587504
0.062125869 0.046573751 0.76572502
0.087847337 0.040285736 0.76075006
0.091040514 0.043947197 0.76662505
0.067032248 0.054705821 0.76571155
0.093814872 0.050789107 0.76875001
0.073529638 0.065663256 0.76587498
0.093662329 0.066644102 0.76750004
0.046532426 0.006153008 0.77780557
0.054625787 0.0047414955 0.77504283
0.063532487 0.0066747502 0.77308339
0.045319278 0.014337988 0.7752499
0.052418146 0.012037636 0.77136379
0.068707719 0.010487213 0.77000004
0.072492376 0.012807521 0.77441669
0.047471114 0.022758279 0.77520001
0.051083084 0.028626613 0.77516669
0.078236639 0.021498945 0.77262503
0.082011662 0.024995973 0.77637506
0.0541468 0.034926061 0.77553123
0.086417288 0.034055334 0.77025008
0.058183804 0.043618646 0.77562505
0.060591213 0.048593566 0.77387506
0.09494371 0.049700063 0.77800006
0.064830109 0.05587386 0.77397501
0.068608515 0.064205199 0.77603137
0.071673885 0.067707755 0.77250004
0.03759313 -0.012523144 0.78850001
0.04458892 -0.013149605 0.78816676
0.035951171 -0.0054780901 0.78774136
0.045160875 -0.0056119789 0.78517371
0.054408528 -0.0046184557 0.78422123
0.06156012 -0.0013188511 0.78625005
0.036317386 0.0039011342 0.78587502
0.043152411 0.0031472372 0.78162503
0.059364922 0.00039617228 0.78000003
0.065608688 0.0028873116 0.78418183
0.071392931 0.0072761066 0.78725004
0.039112881 0.011543735 0.78437507
0.04168155 0.015827147 0.78425002
0.075906873 0.015374681 0.78350002
0.046989303 0.02519222 0.7854445
0.080142185 0.020930843 0.78300005
0.052576877 0.035408009 0.78417861
0.087833598 0.032902442 0.78287506
0.090243436 0.037968926 0.78150004
0.057064254 0.044523798 0.78528577
0.093816794 0.044882417 0.78275007
0.059770834 0.051887635 0.7853334
0.025000548 -0.020556549 0.79937506
0.018878043 -0.013566384 0.79920006
0.02456517 -0.014526661 0.7965607
0.032324374 -0.012954534 0.79221439
0.047245678 -0.016611084 0.79862499
0.052853443 -0.012265183 0.79567862
0.01888513 -0.0083296895 0.79950005
0.025836561 -0.0057388279 0.79430771
0.031012787 -0.0062611373 0.79028571
0.058146503 -0.0076996251 0.79441673
0.062768303 -0.0035705734 0.79532146
0.028659828 0.00098532392 0.79583335
0.032933939 0.0053757601 0.79485714
0.067821823 0.00040594966 0.79925007
0.074088179 0.0090503665 0.79150003
0.093225375 0.0091447011 0.79975003
0.038319178 0.012938115 0.79640007
0.041754995 0.018187251 0.79387504
0.077617504 0.015408311 0.79216671
0.08129365 0.019495893 0.79425001
0.094443813 0.0115908 0.79970002
0.04536495 0.025725976 0.79517859
0.084572382 0.025223747 0.79241675
0.049200922 0.03167554 0.79500002
0.051532425 0.036586374 0.79610002
0.091089062 0.035208516 0.79637504
-0.00035276279 -0.022590578 0.80966669
0.0051887459 -0.023833198 0.80811369
0.014630537 -0.025140001 0.80606943
0.023483282 -0.024393087 0.80400002
-0.091484569 -0.010198155 0.80912507
-0.085909083 -0.010686551 0.80778569
-0.078102715 -0.010183976 0.80800003
0.0057706977 -0.01689099 0.80790007
0.014053287 -0.014957607 0.80281895
0.029394478 -0.018824374 0.80000001
0.055024832 -0.012771017 0.80387509
-0.10124794 -0.002242144 0.80937505
-0.094474331 -0.0045617637 0.80804628
-0.084957883 -0.0048756497 0.80597001
-0.077593006 -0.0054076053 0.80811769
0.017607041 -0.0069775521 0.80505002
0.022557126 -0.0031096824 0.80566669
0.066783354 -0.0048887795 0.80785006
0.074782386 -0.0047623678 0.80672437
0.084811956 -0.0044856472 0.80568534
0.093094364 -0.0027177692 0.80449998
-0.095368981 0.0040620267 0.80804169
-0.08564157 0.0025072435 0.80721879
-0.079846188 0.00041026689 0.80775005
0.028430155 0.0039327857 0.80575007
0.031980295 0.0077855708 0.80344999
0.069885299 0.001283826 0.80287504
0.075723149 0.003987405 0.80271882
0.084731825 0.00478752 0.80214578
0.095175333 0.004650576 0.80165899
0.10216149 0.0071358713 0.80354172
0.036576666 0.013804701 0.80412507
0.040091477 0.019735221 0.80400002
0.078195445 0.01224667 0.80256248
0.085230321 0.014993749 0.80357569
0.095258102 0.015890954 0.80144364
0.10374107 0.015617282 0.80175012
0.043254215 0.025007248 0.80395001
0.087938458 0.023670889 0.8073864
0.095187493 0.022802109 0.80585718
0.10341511 0.023733007 0.80323219
0.089213841 0.030239485 0.80300003
-0.021503095 -0.03145729 0.81940001
-0.014655555 -0.033512894 0.81711668
-0.0048086508 -0.033401385 0.81438893
0.004988933 -0.033403005 0.81440002
0.014413636 -0.032666024 0.81307691
0.023805546 -0.032107692 0.81382143
-0.030834466 -0.021976208 0.81975001
-0.023939174 -0.024488062 0.81814283
-0.014624338 -0.02542459 0.81540847
-0.0052002235 -0.025561191 0.81203032
0.0043012351 -0.029048273 0.810875
0.027538637 -0.027457463 0.81153572
0.033814833 -0.024824094 0.815139
0.067560829 -0.021016218 0.81725007
0.071986422 -0.02100336 0.81675005
-0.092801966 -0.011432203 0.81291676
-0.083309494 -0.012064321 0.81575006
-0.074033581 -0.011264473 0.81508338
-0.030834466 -0.019289101 0.81975001
-0.023748377 -0.017709065 0.8185001
-0.014648023 -0.017433953 0.81681675
-0.0044285241 -0.016864672 0.8140834
0.0045457855 -0.013576615 0.81334382
0.011195157 -0.010242269 0.81262505
0.0339408 -0.017165467 0.81462508
0.056415007 -0.015847696 0.81455004
0.064803243 -0.014852108 0.81469291
0.074733526 -0.014163734 0.81373399
0.083278783 -0.011866407 0.81555557
-0.10312941 -0.0013591086 0.81025004
-0.072574526 -0.0059876158 0.81342506
0.016076151 -0.005315573 0.81450003
0.02156771 -0.0019533352 0.81275004
0.065238968 -0.0084453356 0.8106001
0.070505492 -0.0084390854 0.81000006
0.08795651 -0.0084989918 0.81575
0.095055193 -0.0052383463 0.81554174
-0.093148619 0.0087098246 0.81337506
-0.085419156 0.0067951535 0.81458336
-0.078562967 0.00041280646 0.81275004
0.02595168 0.0035367503 0.81553119
0.030055854 0.0093533797 0.81800002
0.10441096 0.0050509935 0.81464994
0.035601676 0.015447679 0.8163572
0.089991547 0.028732993 0.81000006
0.095821649 0.025655305 0.81062508
-0.032482855 -0.030957539 0.82515001
-0.02510388 -0.033692047 0.82367104
-0.014838916 -0.037552606 0.8274501
-0.0048868847 -0.03759459 0.82837504
0.0014531401 -0.037656993 0.82975006
0.015876163 -0.035621263 0.82460004
0.024910586 -0.034575514 0.82540005
0.035629801 -0.031383466 0.82685006
0.043521963 -0.030744623 0.82915002
-0.04192508 -0.02260402 0.82631254
-0.035126742 -0.024590326 0.82223964
-0.028470298 -0.027674472 0.82050008
0.038883451 -0.027077327 0.82500005
0.044679698 -0.026866276 0.82848221
0.059324764 -0.021266945 0.82700002
0.062744327 -0.021200513 0.8244167
-0.096666992 -0.01127441 0.823125
-0.070339985 -0.01213457 0.82050002
-0.065949984 -0.010891726 0.82332146
-0.054468561 -0.011810994 0.8247143
-0.044885423 -0.014305213 0.8237856
-0.035695162 -0.015290241 0.8224436
-0.026355682 -0.014146493 0.82483345
-0.014140867 -0.013346013 0.82621878
-0.0051262644 -0.011935857 0.82466072
0.0037526046 -0.011139893 0.82274997
0.055774849 -0.019483227 0.82800007
0.076779321 -0.019300865 0.82025003
0.087267131 -0.012179568 0.82333344
0.0917136 -0.010404545 0.82550001
-0.1040103 -0.0040841782 0.82425004
-0.0994431 -0.0085823406 0.82375002
-0.072626576 -0.0025046344 0.82353133
-0.065186232 -0.0049783248 0.82341993
-0.055734791 -0.0064300513 0.8247875
-0.046519808 -0.0076011769 0.82594448
-0.0018066363 -0.0078869415 0.8264001
0.0050514913 -0.007691694 0.824875
0.013339901 -0.0046223099 0.8242501
0.096273452 -0.0072502727 0.8258751
0.10179726 -0.0022898638 0.82675004
-0.082534671 0.0076257801 0.82453579
-0.075622901 0.004557908 0.82637918
-0.067223884 0.0014523353 0.82632154
0.018919839 0.0010236636 0.8265
0.02423358 0.0055646803 0.82584625
-0.094958037 0.014828212 0.82391667
-0.085466787 0.014545267 0.82571745
-0.079345226 0.011867273 0.82708335
0.028091595 -0.041768614 0.83950007
0.034452628 -0.041691493 0.83795005
-0.035017647 -0.032374553 0.83385003
-0.026501765 -0.037230648 0.83375001
-0.012285227 -0.039886482 0.83850002
-0.0086219683 -0.039910264 0.83900005
0.0059956238 -0.037688192 0.83043754
0.015192392 -0.037955765 0.83633333
0.026033543 -0.038155727 0.83731252
0.035240997 -0.036984131 0.83493757
0.045034714 -0.034898017 0.83211851
0.053255521 -0.03231211 0.83215398
-0.042638749 -0.02541226 0.83441669
-0.038480815 -0.028599313 0.83000004
0.048663422 -0.024979224 0.83025002
0.055464908 -0.026212281 0.83348447
0.064680688 -0.023571208 0.83391672
0.073236383 -0.02273006 0.8309375
-0.093020238 -0.014101603 0.83075005
-0.085418381 -0.0141985 0.83645838
-0.075572215 -0.014237399 0.83875006
-0.063127473 -0.012302797 0.83187503
-0.055136025 -0.015085764 0.83487499
-0.048756912 -0.018735029 0.83500004
-0.033042032 -0.010463363 0.83016664
-0.023990966 -0.011081588 0.83119446
-0.015694087 -0.011001566 0.83171433
-0.009440463 -0.010464413 0.83025002
0.054192126 -0.019565584 0.83150005
0.079938225 -0.019636175 0.83450001
0.085447013 -0.015629807 0.83480006
-0.060390271 -0.0013951726 0.83175004
-0.056916017 -0.0026140751 0.83416671
-0.044685971 -0.0064202305 0.83562505
-0.034931615 -0.008667253 0.8319
-0.024962528 -0.0086830538 0.8334167
-0.014976004 -0.0087011131 0.83515006
-0.0054747672 -0.0076064318 0.83570004
0.0053902543 -0.0033666999 0.83783931
0.012032197 -0.002126504 0.83364999
-0.064191088 0.001334263 0.83387506
-0.011520583 -0.051563416 0.84975004
-0.0050100139 -0.051500212 0.84870839
-0.04124273 -0.040409736 0.84950006
-0.033887923 -0.042439535 0.84881943
-0.02449223 -0.044069208 0.84842008
-0.015261897 -0.045286953 0.8471635
-0.0047813947 -0.045180198 0.84672052
0.0051742131 -0.04482412 0.84513336
0.015055318 -0.044559889 0.84422064
0.023871388 -0.045027725 0.84460938
0.032064106 -0.044012204 0.84737504
0.043344874 -0.040780727 0.84441668
-0.043397486 -0.034219693 0.84846872
-0.036272898 -0.036310494 0.84621674
-0.02901414 -0.038349092 0.84500003
-0.015071501 -0.039981619 0.84050006
0.021698212 -0.03999351 0.84075004
0.048649013 -0.03838313 0.84575003
0.056244481 -0.035273556 0.84875005
0.06086706 -0.031090999 0.84850001
-0.05343689 -0.023377432 0.84891671
-0.046735667 -0.026512604 0.8480193
-0.070258163 -0.014275592 0.84100002
-0.063881196 -0.016017428 0.84385425
-0.055892009 -0.018463656 0.84630358
-0.025285229 -0.0041811033 0.84388542
-0.015104915 -0.0041727573 0.84233761
-0.0056120837 -0.0037086937 0.84128749
-0.024769848 -0.050189037 0.85800004
-0.015371017 -0.052003354 0.85700005
0.0024450992 -0.052155055 0.85950005
0.024054831 -0.050262161 0.85925007
-0.044516064 -0.042003028 0.85167503
-0.035578255 -0.046331111 0.85216671
-0.020898269 -0.049911186 0.85325003
-0.018982034 -0.049779568 0.85100001
0.025775872 -0.048094589 0.85408336
0.036882084 -0.04423511 0.85166669
0.044014394 -0.04251397 0.85450006
-0.052841656 -0.033898309 0.8524822
-0.04771091 -0.035924383 0.85072219
0.051831968 -0.038689468 0.85250002
-0.061876509 -0.02254054 0.85225004
-0.055756684 -0.026991516 0.85171682
-0.065471701 -0.018154059 0.85050005
-0.032454628 -0.050466891 0.86275005
-0.024950957 -0.051548295 0.86500001
-0.015501967 -0.05341959 0.86475003
-0.0051009287 -0.054350272 0.86454171
0.0071558715 -0.052230906 0.86075002
0.01286851 -0.052478682 0.86483335
0.026047183 -0.050481513 0.86300004
-0.037246529 -0.04868006 0.86450005
0.028862601 -0.048567444 0.86250007
0.033691328 -0.04683597 0.86533338
