# .PCD v0.7 - Point Cloud Data file format
VERSION 0.7
FIELDS x y z
SIZE 4 4 4
TYPE F F F
COUNT 1 1 1
WIDTH 396
HEIGHT 1
VIEWPOINT 0 0 0 1 0 0 0
POINTS 396
DATA ascii
0.0030226347 -0.0063190698 0.76750004
-0.0014714637 -0.012047919 0.77633333
0.0013555052 -0.011446871 0.77400005
-0.0013980761 -0.0078564472 0.77406257
0.0034437289 -0.0052690916 0.7728824
0.0064078397 0.0074949348 0.77121437
-0.0026661474 0.015942138 0.77667105
0.0045014247 0.014546058 0.77454466
-0.01056816 0.029354518 0.77950001
-0.0048826858 0.0255043 0.77900004
0.0056981742 0.025303036 0.77877277
0.012866395 0.028914535 0.77912503
-0.011250282 0.032420944 0.77950007
-0.0040761386 0.034547333 0.77356023
0.0057989596 0.035357017 0.7748971
0.014803351 0.034969371 0.77852678
0.024367744 0.035299517 0.77912492
0.031587895 0.036634989 0.77954543
0.009892093 0.041291885 0.77975005
0.028650431 0.041291885 0.77975005
0.030355735 0.041291885 0.77975005
-0.0044550789 -0.013634547 0.78753853
0.0065007145 -0.012257976 0.78255004
0.014755782 -0.012390099 0.78613889
-0.011350018 -0.0064991578 0.7894063
-0.0055774515 -0.004950189 0.78805357
0.0080991611 -0.0051833927 0.78243339
0.015110763 -0.0056051915 0.78487509
0.024287246 -0.0049910434 0.78806442
0.033936083 -0.0029332147 0.78896677
0.041108076 -0.001324722 0.78975004
-0.0014932412 0.0015474373 0.78783339
0.0051149447 0.0028149819 0.78459108
0.015015154 0.0045497953 0.7861467
0.024645504 0.0038466668 0.78796655
0.034829296 0.0028742801 0.78868484
0.041099399 0.0021267042 0.78958338
-0.04347723 0.019364571 0.78890002
-0.038341902 0.019385437 0.78975004
-0.018476345 0.019382369 0.78962505
-0.008020428 0.019155314 0.780375
0.0094999708 0.01578542 0.78250003
0.0117201 0.010732369 0.78800005
-0.051047873 0.026918892 0.78925008
-0.045109924 0.025343198 0.78725833
-0.035590921 0.02530577 0.78620148
-0.025232138 0.025261372 0.78486121
-0.015028863 0.025087982 0.7833001
-0.0044659339 0.024934771 0.78105217
0.0056032385 0.025047874 0.7811501
0.015228805 0.0251042 0.78348917
0.024542689 0.026110722 0.784675
0.034841098 0.026116958 0.78474164
0.045327142 0.025978811 0.78559673
0.055294894 0.026128544 0.78680825
0.064947776 0.026096495 0.78801924
0.07188312 0.026566526 0.78945833
-0.050400183 0.031446438 0.78925002
-0.044330671 0.03372075 0.7878235
-0.035167694 0.035090741 0.78510165
-0.025173809 0.03548044 0.78303474
-0.015454375 0.035894193 0.78183055
-0.0066953287 0.03753233 0.78257143
0.0022284025 0.03121236 0.78337502
0.017571591 0.039600588 0.78000003
0.024397597 0.03534301 0.78008336
0.035994899 0.03479116 0.78073013
0.044986874 0.035433866 0.78208327
0.055413634 0.035539739 0.78438902
0.064733714 0.034438875 0.78773862
0.070447721 0.0314564 0.78950006
-0.037449338 0.040063862 0.78912503
-0.022757357 0.041746419 0.78833336
-0.015263074 0.042259619 0.78716671
-0.0020623335 0.041666985 0.78683335
0.0061089732 0.042341359 0.78737503
0.0149761 0.04461075 0.78586966
0.023462763 0.043554362 0.78426474
0.035508398 0.043064356 0.78298336
0.045027483 0.044095345 0.78605443
0.053971767 0.042942978 0.78727269
0.061769456 0.040627837 0.78891677
-0.041444618 -0.020562977 0.79962504
-0.033539254 -0.022286808 0.79875004
-0.025488138 -0.021856334 0.79669654
-0.018658835 -0.02050833 0.79750001
-0.042712461 -0.014781134 0.79878759
-0.035189692 -0.014392325 0.79654163
-0.02578084 -0.014751974 0.79454553
-0.015088057 -0.015197149 0.79295844
-0.0071062343 -0.016760141 0.79310006
0.018151129 -0.014618299 0.79300004
0.024348393 -0.013237146 0.79235947
0.035164461 -0.012578595 0.79200006
0.045729514 -0.012785229 0.79400003
0.054672439 -0.012754815 0.79585874
0.063473769 -0.011334001 0.7985
-0.040557414 -0.0074545369 0.79937506
-0.034644712 -0.0050514252 0.79794568
-0.025154382 -0.0053971345 0.79417187
-0.016104048 -0.0054015252 0.79114294
0.02696437 -0.0096156076 0.79030001
0.035898574 -0.0075832591 0.7909286
0.04546877 -0.0055254442 0.79184085
0.055196114 -0.0048006782 0.79360992
0.06438157 -0.0048894086 0.79738468
-0.030642888 0.00098829169 0.79916674
-0.024309112 0.002975852 0.79751319
-0.01490895 0.0044931308 0.79427946
-0.005320577 0.0053815739 0.79360002
0.018660728 0.0090332152 0.79000002
0.024725644 0.0090394095 0.79054171
0.035453562 0.0079822326 0.79103845
0.045695599 0.0047602868 0.79197586
0.054890405 0.0048398743 0.79565328
0.062508807 0.0021508974 0.79835004
-0.053431291 0.018991724 0.79396433
-0.045186259 0.017979691 0.79303581
-0.035084698 0.017753096 0.79413474
-0.025445642 0.018563068 0.79152089
-0.013459253 0.016654516 0.79477268
-0.0067359814 0.013169493 0.79666674
0.015361941 0.015261271 0.79186207
0.024807222 0.015137421 0.79314584
0.035277709 0.015164554 0.79454869
0.044929512 0.015195848 0.79622501
0.052652221 0.015905086 0.79722512
0.065288454 0.018097995 0.79396671
0.075729854 0.017037297 0.79385227
0.084761277 0.015492615 0.7959196
0.09178111 0.017652513 0.79816669
-0.062427726 0.02562291 0.79587507
-0.056007534 0.025085835 0.79264289
0.016954806 0.021144696 0.79100007
0.02476906 0.021169201 0.79191667
0.035261244 0.021229347 0.79416674
0.044760417 0.021207515 0.79335004
0.055860098 0.021138012 0.79075003
0.064472146 0.021126874 0.79033345
0.076304078 0.024875352 0.79054171
0.084565997 0.025509305 0.79233342
0.092211425 0.024573592 0.79673535
-0.062332541 0.030937254 0.79837501
-0.054421078 0.034666773 0.79420662
-0.046311107 0.037492111 0.79144448
0.068232052 0.037830539 0.79049999
0.075184427 0.035153918 0.79231894
0.084385805 0.034788407 0.79608333
0.090516843 0.031834912 0.79900002
-0.051054731 0.040590603 0.79950005
-0.043501187 0.041499909 0.79456258
-0.034806404 0.043682992 0.79703861
-0.025550285 0.044744816 0.79322356
-0.014980909 0.046583787 0.79498696
-0.007911467 0.043433577 0.79820842
0.0062435204 0.046340071 0.79322505
0.012797284 0.048443999 0.79080003
0.025891582 0.047647581 0.7909584
0.034631822 0.04757889 0.79117858
0.046128523 0.048568536 0.79121429
0.055814475 0.047233131 0.79360718
0.064842746 0.044278298 0.79323077
0.074756399 0.042578496 0.79580003
0.082667142 0.040571563 0.79912508
0.0083364034 0.050722167 0.79400003
0.014382374 0.051489104 0.79243755
0.02478444 0.051484559 0.79237503
0.035236407 0.051568896 0.79366678
0.044192761 0.051423691 0.79474998
-0.062303234 -0.031424489 0.80933338
-0.055699777 -0.032454122 0.80852509
-0.046242408 -0.031337772 0.8071
-0.064601935 -0.025196925 0.80809551
-0.054935209 -0.025107061 0.80509174
-0.045356244 -0.025310121 0.80329424
-0.03627998 -0.0261438 0.80273342
-0.025054445 -0.025160531 0.80700004
-0.015331503 -0.021310205 0.80583334
-0.0082947947 -0.020755846 0.80712503
0.067795813 -0.020813707 0.80937505
-0.06221329 -0.017248781 0.80815011
-0.054763887 -0.014678737 0.80432767
-0.047756441 -0.014031938 0.80098444
-0.0021115835 -0.018052042 0.80450004
0.0022841494 -0.014505565 0.80287504
0.014638229 -0.01545242 0.80650002
0.028537508 -0.015337462 0.80050004
0.034730643 -0.015365245 0.8019501
0.041779503 -0.015378974 0.80266666
0.055164691 -0.017204199 0.80599999
0.066100612 -0.015537542 0.80245471
0.0742855 -0.013759538 0.80585867
0.081059128 -0.010199731 0.80925006
-0.052789714 -0.0072419909 0.80820841
-0.04503566 -0.0051519447 0.80378127
-0.038292382 -0.0019262861 0.80075008
0.06966769 -0.0044026575 0.80037504
0.075105168 -0.0050071715 0.80386466
0.081034079 -0.0075441627 0.80900002
-0.041777633 0.00040937803 0.80600005
-0.03456717 0.002712022 0.80232817
-0.025965061 0.0067201713 0.80225003
-0.018819459 0.0091947261 0.80412507
0.05922991 0.0091618523 0.80125004
0.065975577 0.005684651 0.80382955
0.073221348 0.0021745458 0.80672503
0.086771175 0.0087111862 0.80596435
0.094875544 0.0068669785 0.80633336
0.1015926 0.0080642374 0.8083334
-0.061383583 0.019854885 0.80887502
-0.055948105 0.018045317 0.80700004
-0.043833148 0.015625315 0.80731255
-0.034900188 0.015195126 0.80570012
-0.025039215 0.016272694 0.80655015
-0.015638305 0.014393205 0.80462509
0.057298396 0.014423831 0.8017813
0.064597495 0.013328056 0.8062222
0.07458283 0.013403699 0.80628133
0.085570276 0.010920775 0.80183333
0.096170627 0.014636027 0.80241358
0.10408711 0.015074681 0.80688643
-0.064707212 0.025064141 0.80625004
0.097781189 0.025360791 0.80234623
0.10224581 0.024870124 0.80575007
0.088706046 0.037670713 0.80237502
0.093825765 0.032857634 0.80428845
-0.082227252 -0.033737548 0.81774998
-0.075160541 -0.035182253 0.81437004
-0.065659769 -0.035357974 0.81210572
-0.0553146 -0.034892488 0.81595004
-0.045490596 -0.033074439 0.81731254
-0.082559511 -0.027192941 0.81709617
-0.074991271 -0.0253314 0.81251681
-0.069471993 -0.025266035 0.81037503
-0.034833204 -0.029279193 0.81516671
-0.026975214 -0.027075443 0.81150007
-0.015992561 -0.023252374 0.81743753
-0.0057022711 -0.020958357 0.81500006
0.064739838 -0.020971214 0.81550002
0.07173644 -0.020929426 0.81387502
-0.073251493 -0.01710223 0.81656832
-0.065780789 -0.014047748 0.81352288
-0.05886554 -0.010218637 0.81075007
-0.0021387925 -0.019189095 0.81550002
0.014775421 -0.016482359 0.81381249
0.021911398 -0.017385634 0.81450003
0.047686506 -0.017367845 0.81366664
0.061332949 -0.019239098 0.81762505
0.077691764 -0.017366059 0.813375
0.082374319 -0.013815621 0.81350005
-0.061639 -0.0079072909 0.8161667
-0.055170372 -0.0049114046 0.81257695
-0.048241448 -0.0019505817 0.81100005
0.079730213 -0.0013649794 0.81375003
0.082429364 -0.0058064577 0.81406254
-0.044896059 0.0011247104 0.81455004
-0.033760805 0.0070448434 0.81632143
-0.025870271 0.0090105589 0.81387502
0.075583361 0.0069045732 0.81406248
0.083780251 0.0053674234 0.81665283
0.095453255 0.0026764236 0.81536371
0.10560171 0.0045762663 0.81322122
0.11001822 0.0039711213 0.81400001
-0.064323388 0.019943865 0.81250006
-0.053081632 0.016431477 0.81455004
-0.045877695 0.013791597 0.81637502
-0.031965304 0.013147461 0.81600004
-0.025288614 0.012868073 0.81418329
-0.019851213 0.011038813 0.81050003
0.074202217 0.011719031 0.81165624
0.10899938 0.013998252 0.81083339
-0.067199282 0.024943592 0.81145841
0.10639339 0.023078784 0.81350005
0.10065136 0.030512506 0.81025004
-0.08242932 -0.041034743 0.82475007
-0.075268306 -0.041065838 0.82537502
-0.066408075 -0.041168455 0.82743752
-0.090373687 -0.032862619 0.82318753
-0.086112916 -0.035508245 0.82192653
-0.061442669 -0.039077811 0.82150006
-0.055993408 -0.036346346 0.82062507
-0.042009745 -0.033053987 0.82800007
-0.033763766 -0.030252807 0.82562506
-0.085640676 -0.023994984 0.82488632
-0.024366954 -0.027172191 0.82341671
-0.014777599 -0.023879074 0.82350004
-0.0093466556 -0.02293469 0.82200003
0.068727814 -0.022892838 0.82050002
0.075814337 -0.022259001 0.82190627
0.080930449 -0.021241231 0.82600003
-0.082452059 -0.018879354 0.82800007
-0.075476117 -0.014656806 0.82490915
-0.068629116 -0.01035413 0.82150006
0.0059538987 -0.015822446 0.82581252
0.0573502 -0.019404793 0.82466674
0.08168944 -0.019400869 0.82450002
-0.065315343 -0.0073922612 0.82500005
-0.05709682 -0.0027283756 0.82362503
0.084387109 -0.0024636711 0.82445002
0.097351916 -0.0013879038 0.82741666
0.10436632 -0.002063862 0.82559383
-0.052809641 0.0041584494 0.82873446
-0.045745943 0.0061476766 0.82571745
-0.037547838 0.0079564266 0.82145011
0.085630648 0.0016749786 0.82252502
0.093014538 0.00071787165 0.82375002
0.10996664 0.00042004421 0.82700002
-0.063509196 0.018445019 0.824875
-0.052903708 0.013393064 0.82849997
-0.045729771 0.011919972 0.82556254
-0.037174817 0.012081016 0.82115638
-0.086924002 -0.041457649 0.83325005
-0.093137041 -0.034248061 0.83504999
-0.089817502 -0.039708097 0.83475006
-0.060372122 -0.039553497 0.83150005
-0.053708952 -0.036528442 0.83158332
-0.048797153 -0.036102921 0.83575004
-0.031549145 -0.03073374 0.83875006
-0.091168322 -0.026362153 0.83600003
-0.088822365 -0.023264587 0.83400005
-0.023237664 -0.027914133 0.83662504
-0.016819129 -0.025152221 0.83600003
-0.0058471248 -0.022387497 0.83500004
0.065063864 -0.022277804 0.83100003
0.077523634 -0.025212396 0.83800006
0.083759218 -0.024587037 0.83741671
-0.082359716 -0.015100843 0.83629173
-0.077087954 -0.0115692 0.83525002
-0.00036227534 -0.019565584 0.83150005
0.053385243 -0.019603822 0.83312505
0.08652848 -0.015947931 0.83206248
-0.081118502 -0.0059918771 0.8391875
-0.075433128 -0.0050615119 0.83716005
-0.065892234 -0.0034225686 0.8335278
-0.058448013 -0.0013922371 0.83000004
0.087900691 -0.0047778361 0.83335716
0.095583551 -0.0040824828 0.83511662
0.10414422 -0.0064635379 0.83663225
0.11049853 -0.0013939145 0.83100003
-0.073397957 0.0027597751 0.83865911
-0.064886838 0.0047700531 0.83445591
-0.057083722 0.0058702268 0.83089286
0.098061599 -0.061319441 0.84600002
0.10513325 -0.061527867 0.8463251
0.11074098 -0.060633417 0.84675002
0.095826857 -0.054784257 0.84451032
0.10505397 -0.055013135 0.84568
0.11164057 -0.055069186 0.84654999
-0.091640443 -0.041027866 0.84312505
-0.063219011 -0.042054698 0.84525001
-0.0595043 -0.040195677 0.84500003
0.094926544 -0.044865109 0.84609032
0.10487524 -0.045360796 0.84700936
0.11080638 -0.047707807 0.84725004
-0.094392441 -0.038258325 0.84300005
-0.05579178 -0.038337748 0.84475005
-0.044513822 -0.035415374 0.84112501
-0.039037164 -0.032692857 0.84200007
0.0866668 -0.033320505 0.84509104
0.093861535 -0.035364285 0.84784085
0.10184137 -0.038564663 0.84975004
-0.092720285 -0.02430304 0.84455001
0.064112484 -0.022582887 0.84237504
0.073883809 -0.025781214 0.84470004
0.086786635 -0.027580902 0.84194458
0.092075787 -0.028667852 0.84537506
0.10623699 -0.021800548 0.84775007
-0.09176328 -0.019315282 0.84708339
-0.086385012 -0.01420549 0.84247369
0.099359371 -0.014343115 0.84445
0.10471274 -0.015237887 0.84295017
0.11100255 -0.017189316 0.84875005
0.11331481 -0.062467918 0.85925007
0.091491461 -0.052955747 0.85725003
0.11573109 -0.054913834 0.85858339
-0.084262364 -0.044273198 0.8524
0.089878015 -0.040897317 0.85975003
0.1083937 -0.041368499 0.85012507
0.11212334 -0.044061653 0.85731256
0.087920994 -0.037107281 0.85900003
0.098284058 -0.032732867 0.85518754
0.10473201 -0.034783971 0.85618484
0.11040659 -0.035210006 0.85854995
0.095000267 -0.025795514 0.8571251
0.10456249 -0.025623919 0.85625964
0.11105003 -0.024838159 0.85629177
0.097596951 -0.0635719 0.86150002
0.10498059 -0.065359935 0.86025
0.11373798 -0.064111292 0.86243755
0.092340909 -0.055644255 0.86525005
0.11751948 -0.050861735 0.86950004
0.090256967 -0.045790154 0.86337501
0.11407857 -0.043997243 0.86500001
0.08544068 -0.034895781 0.86243755
0.08085113 -0.029762236 0.86375004
0.089251578 -0.041480035 0.87200004
