# .PCD v0.7 - Point Cloud Data file format
VERSION 0.7
FIELDS x y z
SIZE 4 4 4
TYPE F F F
COUNT 1 1 1
WIDTH 391
HEIGHT 1
VIEWPOINT 0 0 0 1 0 0 0
POINTS 391
DATA ascii
0.016429944 0.017171113 0.79916674
0.023890853 0.017988352 0.79924995
0.017570941 0.021805499 0.79937506
0.024131104 0.021954481 0.79949999
-0.030204425 -0.046094391 0.80300003
-0.026038604 -0.04636072 0.80456674
-0.044489138 -0.033500664 0.80727786
-0.046003323 -0.029019667 0.80804163
0.0060846582 -0.022425206 0.80949998
0.014432091 -0.022477804 0.80933815
0.023671025 -0.021319672 0.80939293
0.0070830458 -0.018341379 0.80954999
0.01527758 -0.01623874 0.80911463
0.025422128 -0.014738073 0.8087858
0.032099251 -0.014623185 0.80937505
-0.02512905 -0.0013573474 0.80920011
-0.01538905 -0.0013568021 0.80887502
-0.0083190659 -0.0013578505 0.80950004
-0.030439517 0.0039476212 0.80925006
-0.025071744 0.0048187869 0.80729997
-0.015326017 0.0048056785 0.80550718
-0.0047556525 0.0048058042 0.80575699
0.004565136 0.0057574864 0.80537492
0.01413912 0.0076455879 0.80312496
0.024450703 0.0084910002 0.80422509
0.034883939 0.0092104487 0.80550003
0.042043407 0.0092352228 0.80766672
-0.023507532 0.012372101 0.80752778
-0.014863663 0.014618703 0.80585831
-0.0047500799 0.015355989 0.80454183
0.0049153026 0.015321723 0.80285835
0.013159484 0.013904346 0.80071431
0.025845593 0.013325426 0.80102384
0.035192408 0.015532938 0.80161369
0.044873603 0.015095403 0.80371964
0.053889826 0.015669856 0.80701923
-0.010964721 0.021619182 0.80875003
-0.0041517909 0.023806373 0.8079375
0.0049369358 0.025088146 0.80648011
0.014093078 0.025435733 0.80250001
0.025446679 0.02618587 0.80161911
0.034955136 0.024828592 0.80249047
0.044556804 0.025047546 0.80519629
0.052408502 0.023131531 0.80750006
0.0070798085 0.031180566 0.80920011
0.014664431 0.031306423 0.80785418
0.025595931 0.031498767 0.80753845
0.034713503 0.032047082 0.80744648
0.041649468 0.030893426 0.80862504
-0.031994525 -0.04459352 0.81730014
-0.023327138 -0.043144714 0.81796062
-0.015153162 -0.043375105 0.81876326
-0.0059991158 -0.042065699 0.81780779
-0.050308395 -0.031673633 0.81575006
-0.0476541 -0.034363553 0.81612504
-0.032753922 -0.036326185 0.81794453
-0.024060542 -0.03546194 0.81798208
-0.014642047 -0.035271898 0.81647003
-0.0048110308 -0.035194431 0.81465
0.0045561292 -0.034534428 0.81309527
0.013534809 -0.032501061 0.81410009
-0.05088729 -0.025127485 0.81550008
-0.044178668 -0.024150459 0.8165769
-0.039069101 -0.029340724 0.81700009
-0.020759609 -0.028554861 0.81835014
-0.014301862 -0.025864728 0.81581491
-0.0047981148 -0.02532587 0.81223613
0.0043118917 -0.026905477 0.81056589
0.014951651 -0.027750468 0.81075001
0.025556462 -0.025690999 0.81141007
0.034948029 -0.023301698 0.81381953
0.042541966 -0.021909827 0.81725001
-0.050489552 -0.016578494 0.81868756
-0.045089763 -0.014782821 0.81815845
-0.035783052 -0.012822574 0.81736368
-0.026656341 -0.01106835 0.81732142
-0.011668007 -0.018621234 0.81666666
-0.0043121469 -0.015102742 0.81475794
0.0045444421 -0.013915135 0.81164008
0.013536607 -0.011400254 0.81083339
0.020904612 -0.010209184 0.81000006
0.035868581 -0.014656414 0.81117707
0.043985184 -0.014481568 0.81555361
-0.044874195 -0.0050901831 0.81687504
-0.035014603 -0.0049179066 0.81267512
-0.024970043 -0.0059318598 0.81235725
-0.016012879 -0.004569679 0.81378341
-0.0039327745 -0.0048019039 0.81804174
0.0050034435 -0.0049389983 0.81712008
0.014806848 -0.0049266042 0.81570011
0.025308285 -0.0050383331 0.81418985
0.034832671 -0.0054019922 0.81373864
0.043319151 -0.0067204898 0.81632704
-0.042600263 0.0016041686 0.8161667
-0.03542072 0.0046064132 0.81321436
0.0064976788 0.0010105121 0.81745833
0.015198688 0.002555629 0.8175751
0.023830079 0.0035644844 0.81705767
0.035866614 0.0068500023 0.81281257
0.045307897 0.0078676371 0.81250012
0.054909896 0.00842766 0.81505001
0.060597464 0.0093733892 0.81975001
-0.031970028 0.012336885 0.8182084
-0.026062451 0.015758267 0.81621665
-0.017405983 0.019224148 0.81210005
0.058541086 0.014898443 0.81195837
0.061693303 0.015198009 0.8152501
-0.021834688 0.020982411 0.81837505
-0.014622966 0.023802163 0.81532812
-0.0056878538 0.027829025 0.81230557
0.049308769 0.028768467 0.81100005
0.055366866 0.025839752 0.81435722
0.061222471 0.021817012 0.81612504
0.0028395713 0.031622596 0.81145
-0.032906711 -0.05107668 0.82681257
-0.024723973 -0.053208917 0.82481253
-0.014794828 -0.051529128 0.82540005
-0.0094319349 -0.050334632 0.82950002
-0.035175353 -0.042954102 0.82693756
-0.020986954 -0.049773335 0.82025003
-0.014175286 -0.048358947 0.82057506
-0.0053552547 -0.045568988 0.82347232
0.0020545952 -0.041800857 0.82800007
-0.052001484 -0.033073127 0.82850003
-0.047335058 -0.036589675 0.82612503
-0.03310759 -0.031693324 0.82669449
-0.027945524 -0.031339247 0.8226251
0.0068709948 -0.038714331 0.8265
0.015251455 -0.034385905 0.82375002
0.023036234 -0.031051297 0.82287502
0.085318126 -0.032490656 0.82806247
0.094814613 -0.034251828 0.82550013
0.10411501 -0.03417084 0.82635587
0.11027691 -0.032201584 0.82933336
-0.056080766 -0.025474966 0.82950002
-0.040883545 -0.023885204 0.82362509
-0.03497415 -0.024776574 0.82802892
-0.025164293 -0.024491847 0.82518524
-0.017716585 -0.021712476 0.82108337
0.035779379 -0.027558921 0.82606256
0.045577899 -0.022992285 0.82387501
0.05386984 -0.021703746 0.82643753
0.061318204 -0.021331236 0.82950002
0.085611455 -0.025287593 0.82848758
0.09448684 -0.024852168 0.82609183
0.10371413 -0.025853321 0.82599998
0.11026583 -0.02857347 0.82925004
-0.052579068 -0.013446656 0.82335013
-0.034542006 -0.017948499 0.82273227
-0.024150269 -0.015786024 0.82369828
-0.015075962 -0.01441995 0.82206494
-0.0088804197 -0.011685112 0.82043755
0.049414627 -0.015221988 0.82117862
0.055257887 -0.015386748 0.82578462
0.061307121 -0.015890224 0.82935011
0.087596066 -0.018606283 0.82925004
0.092319936 -0.018885329 0.82825011
-0.05288171 -0.0060099424 0.82401788
-0.048881266 -0.0013783986 0.82175004
-0.014044088 -0.0078785717 0.82071882
-0.0084299557 -0.007649763 0.82025003
0.036585119 -0.0013820679 0.82393754
0.045979556 -0.0047223787 0.82407141
0.052072026 -0.0077093216 0.82668757
-0.044332385 0.0049990071 0.82457697
-0.038937584 0.0084854439 0.82050002
0.026955292 0.0034052907 0.82041669
0.034372929 0.002730557 0.82329762
0.044465832 0.0044640135 0.82415628
0.055585403 0.0058283703 0.82510006
0.06520839 0.0070703551 0.82560939
0.07252185 0.0052096513 0.82825011
-0.04027174 0.011297588 0.82950002
-0.034767363 0.0145332 0.82437497
-0.029077113 0.01835278 0.82075006
0.065772317 0.013382261 0.8239001
0.070112951 0.011253324 0.82625002
-0.042717107 -0.063255318 0.83788896
-0.035118338 -0.064462543 0.83636254
-0.026509369 -0.064083748 0.83633828
-0.043030098 -0.055560455 0.83496594
-0.035548989 -0.055879403 0.83217716
-0.0258619 -0.057985481 0.83286375
-0.014367026 -0.054032695 0.83529168
-0.00858567 -0.051604316 0.83537507
-0.042745829 -0.045124356 0.83795309
-0.037433598 -0.045722473 0.83358335
-0.0049151992 -0.04778859 0.83250004
0.0050870399 -0.041320827 0.83050007
-0.072701417 -0.033170104 0.8385278
-0.064826943 -0.034034304 0.83446437
-0.056201704 -0.034418035 0.83411109
-0.04700169 -0.038862199 0.83618754
0.0088062454 -0.039898373 0.83875006
0.014854208 -0.036087111 0.83533335
0.0264323 -0.031216241 0.83533335
0.079531111 -0.030422278 0.83025002
0.089597069 -0.038099483 0.83950007
0.092686109 -0.039078251 0.83424997
0.10797317 -0.039022438 0.83962506
0.11311002 -0.032864057 0.833
-0.073207289 -0.02681822 0.83730561
-0.064987592 -0.025039671 0.8323167
-0.058465619 -0.02437426 0.83025002
0.036288805 -0.028874969 0.83800006
0.041811824 -0.027059816 0.83850002
0.054175831 -0.023192775 0.83125001
0.066564992 -0.021748791 0.83155
0.076224595 -0.024076417 0.83192861
0.081724703 -0.023531383 0.83040011
0.10338426 -0.021401955 0.83225006
0.11222576 -0.027927537 0.83712506
-0.062860198 -0.017543621 0.8363542
-0.057058096 -0.015496772 0.83285934
0.057724766 -0.010461262 0.83000004
0.065587558 -0.015842987 0.83188754
0.074739985 -0.017679382 0.8330695
0.084374212 -0.017964009 0.83100003
0.094279647 -0.017762505 0.83225006
0.10061292 -0.019753829 0.83950007
-0.056669958 -0.0043613468 0.83384383
0.046706315 -0.0020036709 0.83304173
0.053554025 -0.0064242962 0.83568752
0.077664159 -0.0020042595 0.8329584
0.08359395 -0.0030494502 0.83637506
-0.05197984 0.001030243 0.833
-0.047368418 0.0055747195 0.83199996
0.046084996 0.0022423454 0.83279175
0.064538501 0.0034707941 0.83608335
0.076798357 0.0032775963 0.83158922
0.082869641 0.0016363099 0.83337504
-0.043366183 -0.081785791 0.84862512
-0.03708997 -0.081478551 0.84800005
-0.05211712 -0.073516823 0.84807503
-0.04476402 -0.075354137 0.84578001
-0.035259016 -0.075415127 0.84484613
-0.028501673 -0.073651284 0.84511119
-0.05138547 -0.066989988 0.84652776
-0.045665104 -0.066708222 0.84233826
-0.035281785 -0.069348991 0.84025002
-0.024608482 -0.066952422 0.84490633
-0.018937424 -0.060794536 0.84900004
-0.074349493 -0.051840048 0.84920841
-0.067212619 -0.051517904 0.84900004
-0.047845829 -0.054124288 0.84421438
-0.020781929 -0.058904499 0.84850001
-0.017439622 -0.057785451 0.84840012
-0.083199784 -0.044165846 0.84791672
-0.074939936 -0.04460049 0.84497786
-0.065173663 -0.044660106 0.84497434
-0.055908758 -0.042258952 0.84489721
-0.047028396 -0.045273039 0.84216666
-0.0012920514 -0.046611637 0.84412503
0.005168254 -0.042895228 0.84362507
0.096456125 -0.041696325 0.84737504
0.10133201 -0.04206714 0.84550005
-0.082406923 -0.036241885 0.84612507
-0.076669663 -0.035444744 0.84180558
-0.052753568 -0.038144864 0.8405
-0.04814411 -0.039969724 0.84025002
0.017212328 -0.036545709 0.84600008
0.023778107 -0.033907421 0.84937501
0.0320003 -0.030990234 0.84575003
0.08429338 -0.035617135 0.84155005
0.10802113 -0.039957833 0.84000003
0.1150231 -0.034481723 0.84081256
-0.076220736 -0.025176084 0.84363896
0.038610529 -0.029245382 0.84875005
0.04746512 -0.02530767 0.84116668
0.055158339 -0.024537828 0.84631252
0.064282194 -0.02356665 0.84464997
0.1085024 -0.023076613 0.84375006
0.11424879 -0.02727597 0.84533334
-0.071236722 -0.019273557 0.84533334
-0.06539689 -0.015514408 0.84150004
0.066319421 -0.011044493 0.84705007
0.076892689 -0.012948006 0.8478334
0.084506989 -0.013283032 0.84564477
0.095257066 -0.013547654 0.84356254
0.10399834 -0.015406844 0.84567851
-0.061352301 -0.0069525987 0.84500009
-0.046430685 -0.091605425 0.85956252
-0.054293398 -0.085278794 0.85686374
-0.045781761 -0.086581372 0.85577631
-0.035994843 -0.085743181 0.85724992
-0.055497661 -0.077023871 0.85343343
-0.02656333 -0.075586177 0.85541672
-0.053315111 -0.063185491 0.85312504
-0.021754809 -0.066458762 0.85025001
-0.01803026 -0.061794899 0.85000002
-0.090561301 -0.051193982 0.85912502
-0.084327713 -0.054139413 0.8561945
-0.076452538 -0.055084314 0.85308337
-0.069862939 -0.053986177 0.85875005
-0.052425668 -0.057398122 0.85680562
-0.013433561 -0.058307242 0.85331249
-0.0078356853 -0.053631205 0.85308337
-0.090548128 -0.047431495 0.85900009
-0.086031929 -0.047325414 0.85147232
-0.061733488 -0.049735699 0.85025007
-0.05430188 -0.045096777 0.85037506
-0.048750505 -0.047910307 0.85083342
-0.0040918216 -0.049764946 0.85075003
0.0033700794 -0.045396037 0.85600007
0.10529092 -0.042546023 0.85512507
0.11159107 -0.040588118 0.85325003
-0.084618226 -0.034953158 0.8522501
0.012657113 -0.038621392 0.85100001
0.079751275 -0.03121925 0.85200006
0.08401721 -0.03666814 0.85750008
0.11706313 -0.036819477 0.85233337
-0.081344746 -0.027571654 0.85441667
-0.076828763 -0.021928623 0.85266668
0.042486094 -0.02842588 0.852
0.055446725 -0.025595997 0.85075003
0.07428968 -0.026797149 0.85355008
0.10940354 -0.020018546 0.85075003
0.11606263 -0.023366734 0.85344052
-0.072129384 -0.017259652 0.85225004
-0.055476557 -0.10112828 0.86875004
-0.047872365 -0.10206719 0.86866671
-0.061914496 -0.0941649 0.86577499
-0.054902479 -0.095316999 0.86375004
-0.045249302 -0.096530728 0.8631022
-0.038073812 -0.092664197 0.86192858
-0.061108131 -0.085083336 0.86329168
-0.05809797 -0.089215815 0.86066669
-0.032975234 -0.08737953 0.86425006
-0.028645003 -0.08053942 0.86175007
-0.061123949 -0.077327847 0.86800003
-0.058927123 -0.074106291 0.86362505
-0.022984423 -0.071102835 0.86150002
-0.057065908 -0.064692684 0.86404175
-0.021106457 -0.067357101 0.86175007
-0.017321145 -0.063529946 0.86091667
-0.090811647 -0.054159056 0.86150002
-0.08819858 -0.057127535 0.86362505
-0.074026667 -0.056802083 0.86350006
-0.0646438 -0.052449029 0.86441666
-0.054551505 -0.052312419 0.86493188
-0.090996124 -0.042946637 0.86325008
-0.088953376 -0.040992457 0.86175007
-0.054561637 -0.047193777 0.86240917
-0.0003748014 -0.048440747 0.86025006
-0.087716684 -0.035454195 0.86440009
-0.06246838 -0.1114784 0.87800008
-0.055512339 -0.11236266 0.87678134
-0.048262917 -0.11055461 0.87575006
-0.063386135 -0.10443997 0.87487507
-0.055192698 -0.10604677 0.8732751
-0.045197409 -0.10521921 0.87514591
-0.065578736 -0.095354281 0.87679994
-0.0380265 -0.097103745 0.87525004
-0.063476041 -0.08361271 0.87425005
-0.028226167 -0.082060337 0.87800002
-0.062682591 -0.075215749 0.87650007
-0.05949004 -0.071004696 0.87187505
-0.023349846 -0.073186442 0.87512505
-0.084420532 -0.060629629 0.87335002
-0.078794353 -0.060709469 0.87450004
-0.059856784 -0.064730458 0.87725002
-0.093252793 -0.055150677 0.87735003
-0.073068053 -0.057851572 0.87462509
-0.063428834 -0.054651685 0.87364286
-0.058609836 -0.055835322 0.87293756
-0.065501213 -0.11316627 0.88875008
-0.051704284 -0.11565563 0.88550007
-0.047758363 -0.11257859 0.88412505
-0.065892868 -0.1092921 0.88100004
-0.042865817 -0.10695868 0.88291669
-0.036330469 -0.09661822 0.88837504
-0.066251874 -0.086648792 0.88580006
-0.031176191 -0.088014282 0.88000005
-0.063118294 -0.072844997 0.88262504
-0.077782974 -0.061421044 0.88475007
-0.062479515 -0.06546925 0.88725007
-0.073808663 -0.059403546 0.88350004
-0.065988094 -0.058325946 0.88666672
-0.06466718 -0.11625216 0.89508337
-0.056134097 -0.11877757 0.89443761
-0.046570532 -0.11440968 0.89850003
-0.068643287 -0.1047727 0.89169997
-0.041320514 -0.10666835 0.89125001
-0.039316144 -0.1026289 0.89000005
-0.068924271 -0.095413797 0.8953501
-0.034794312 -0.095796406 0.89887506
-0.066622101 -0.081303202 0.89075005
-0.066400714 -0.074293859 0.8943125
-0.041992769 -0.11038312 0.90575004
-0.038947172 -0.10424548 0.90400004
-0.069397695 -0.090164632 0.90150005
