# .PCD v0.7 - Point Cloud Data file format
VERSION 0.7
FIELDS x y z
SIZE 4 4 4
TYPE F F F
COUNT 1 1 1
WIDTH 410
HEIGHT 1
VIEWPOINT 0 0 0 1 0 0 0
POINTS 410
DATA ascii
-0.00031783507 0.068920337 0.72950006
0.00590258 0.068266079 0.729325
0.012127414 0.068287276 0.72955
-0.00031701039 0.075099267 0.72760719
0.0052550207 0.075124256 0.72783941
0.012120853 0.073984571 0.72913337
-0.00031743571 0.08316461 0.72858334
0.0044641919 0.082839921 0.72873211
0.010850017 0.080079608 0.72950006
0.0059374105 0.055727936 0.73643577
0.014882124 0.055200048 0.73642689
0.024100959 0.056216482 0.73786658
-0.0003192783 0.065223247 0.73281258
0.0050342744 0.063829057 0.73161548
0.015319942 0.064570814 0.73151618
0.023483457 0.064319767 0.73527002
0.016616384 0.074788354 0.73188162
0.021128431 0.071630441 0.73550004
-0.00031957784 0.087733492 0.7335
0.0056318059 0.086667143 0.73223215
0.012701066 0.082352512 0.73394448
0.0028903738 0.090187438 0.7339167
0.0095083341 0.039689988 0.74950004
0.015592542 0.038884562 0.74834096
0.024230834 0.038354218 0.74857146
0.030827526 0.039703224 0.74975002
0.0079230946 0.046138421 0.74440002
0.015124438 0.045056816 0.7435832
0.02491094 0.045105457 0.7443682
0.031817846 0.045284986 0.74729174
0.0045633288 0.050848071 0.74500006
0.01909804 0.050506804 0.74000001
0.025924373 0.051370353 0.74080002
0.030585963 0.053214185 0.74387503
0.027189311 0.066762462 0.74617863
0.019143205 0.078182429 0.74175006
0.022962594 0.074411198 0.74455011
0.0077799438 0.089438565 0.74100006
0.016817953 0.082777053 0.74662507
-0.0003259498 0.092751279 0.74812508
0.0039573302 0.095056936 0.74894243
0.018247444 0.027900238 0.75850004
0.025522459 0.026142458 0.75734788
0.032833852 0.02689397 0.75820005
0.0096225105 0.038509034 0.75850004
0.01573305 0.033822551 0.75409263
0.025593637 0.033093624 0.7525714
0.034852367 0.034767307 0.75520957
0.0063057248 0.045143846 0.75858337
0.03535869 0.044866282 0.75387508
0.0021384638 0.054614179 0.75200003
0.032713898 0.055221956 0.75538898
-0.00032883621 0.063059054 0.75475001
0.029447367 0.068160772 0.75641662
0.031125624 0.062421814 0.75700003
-0.0019823061 0.075533703 0.75583339
0.025583854 0.075475432 0.75400007
-0.0019832677 0.084666684 0.75620002
0.016643981 0.087285332 0.75366187
0.022551853 0.085541047 0.75811672
-0.00074422662 0.095663726 0.75506258
0.0074419538 0.096043497 0.75043327
0.01532951 0.095049538 0.753389
0.022588283 0.093631983 0.75747913
0.019227302 0.018259751 0.76666671
0.026183365 0.01557567 0.766366
0.034955386 0.015727026 0.76696163
0.041973997 0.017187802 0.76870841
0.016713727 0.024359565 0.76352632
0.025163038 0.021381356 0.76157695
0.036474526 0.023577528 0.76227885
0.042328775 0.024625331 0.76497918
0.0096795987 0.036233678 0.76300001
0.011894542 0.032043606 0.76241666
0.039698336 0.035394534 0.7626667
0.042102057 0.032472335 0.76591665
0.0063424376 0.043770105 0.76341671
0.038618986 0.045408819 0.76325005
0.058572125 0.04748043 0.7695834
0.064781509 0.046047602 0.76856488
0.072761305 0.047445342 0.76901925
0.0021757195 0.053885967 0.76499999
0.036275119 0.054050922 0.76469445
0.058546752 0.053343713 0.76925004
0.06440372 0.054976933 0.76702029
0.073526226 0.054600798 0.76753575
-0.0011726653 0.065717988 0.7665
0.032136749 0.064958006 0.76534998
0.065713406 0.062735245 0.76636368
0.072252057 0.061202299 0.76591665
-0.0020004464 0.070394821 0.76275003
0.028840819 0.076519161 0.76469451
0.031570204 0.076732188 0.76781255
0.027451402 0.084244415 0.76289999
0.031557355 0.081736252 0.76750004
0.037999529 -0.0013068997 0.77912503
0.025002275 0.0052353339 0.77433628
0.034377828 0.0046172086 0.7742222
0.04271679 0.0055787833 0.77764475
0.018103966 0.015622848 0.77450007
0.023143444 0.011366031 0.77257502
0.036465928 0.011058029 0.77070832
0.043365624 0.013398407 0.77407819
0.014128887 0.024212193 0.77837503
0.04556182 0.025030062 0.77733344
0.067483149 0.029002422 0.77920008
0.072926469 0.029338829 0.77908343
0.0089385519 0.036614712 0.77100003
0.011452382 0.030679453 0.77000004
0.042759143 0.036698777 0.77275002
0.057617359 0.036603473 0.77767307
0.06493035 0.035113331 0.7752015
0.075150818 0.035134353 0.77563888
0.0056084357 0.044543318 0.77700007
0.040722638 0.044797845 0.77303571
0.057255112 0.043817397 0.77250004
0.063319989 0.041548565 0.77047229
0.075690091 0.043611065 0.77101094
0.037939806 0.057256114 0.7744
0.040548518 0.051466297 0.77900004
0.057583418 0.05404859 0.77325004
0.079135716 0.052777249 0.77316666
-0.0011912899 0.064998239 0.77787507
0.035821673 0.064897731 0.77673209
0.059326869 0.060016565 0.77950001
0.063576594 0.06643907 0.77496433
0.073402315 0.063915119 0.77512503
0.03446693 0.073543347 0.77621877
0.046118595 -0.0018940432 0.78666669
0.051471114 -0.0030505685 0.78975004
0.018575102 0.0081296619 0.78637505
0.021574227 0.002969624 0.78587502
0.046715721 0.0030601837 0.78620458
0.018424517 0.01062341 0.78000003
0.047821701 0.015011462 0.7865417
0.065432891 0.018023845 0.78830773
0.074632674 0.017621053 0.78809714
0.080781892 0.019373162 0.78925002
0.013390297 0.025240485 0.7845
0.047940772 0.022802075 0.78850007
0.057534359 0.025833432 0.78608334
0.065095313 0.024698444 0.7832917
0.07521043 0.024768373 0.78329313
0.080336653 0.024406666 0.78490007
0.0090660714 0.035428211 0.78200006
0.045251861 0.035344094 0.78375
0.056396499 0.032281201 0.78328133
0.082394712 0.038291365 0.7881667
0.042557277 0.045838982 0.78462505
0.05624016 0.046659339 0.7840001
0.082319796 0.045143686 0.78745008
0.0022205794 0.053279832 0.78062505
0.041073378 0.055581614 0.7890833
0.057208452 0.054465413 0.78556252
0.080308512 0.057841785 0.78462505
-0.0003424515 0.060517024 0.78600001
0.059631303 0.062036727 0.78350002
0.01884822 -0.012674601 0.79793757
0.025131509 -0.014149121 0.79705143
0.034860648 -0.014671559 0.79566658
0.043354172 -0.011936653 0.79634094
0.018810723 -0.0048173154 0.79635
0.024652168 -0.0048691146 0.79432142
0.036072075 -0.0090042111 0.7929644
0.045260694 -0.0064155902 0.7968958
0.052368112 -0.0013255607 0.79025006
0.018750783 0.0030020648 0.79381257
0.021038754 0.00097961165 0.79283333
0.04983449 0.0047268514 0.79118752
0.054409113 0.0056773489 0.79327017
0.064283125 0.0078400942 0.79410726
0.0740605 0.0084227808 0.7935313
0.016442619 0.015436783 0.79408336
0.054480109 0.015189017 0.79592353
0.063977182 0.013420565 0.79213053
0.074712098 0.012611802 0.79161769
0.081575125 0.016949497 0.79700005
0.012636291 0.026349807 0.79150009
0.048069969 0.02718251 0.79062504
0.052964743 0.022763319 0.79716665
0.083283305 0.028258018 0.79666668
0.0083390279 0.036852699 0.79425001
0.010085558 0.03167554 0.79500002
0.04662662 0.037783183 0.79550004
0.055038475 0.037584681 0.79137504
0.082821585 0.033295095 0.79224998
0.0057262871 0.043740276 0.79325002
0.044558678 0.046144351 0.7947917
0.055356659 0.043895386 0.79595006
0.019091815 -0.021668732 0.80825007
0.025211792 -0.0235247 0.80509001
0.034864772 -0.023346128 0.80506259
0.041433856 -0.021937007 0.80729175
0.018434582 -0.018368354 0.80541676
0.021534503 -0.018836139 0.80050004
0.038190108 -0.018847905 0.80100006
0.043951206 -0.016458202 0.80382502
0.04867037 -0.0083401082 0.80050004
0.052006464 -0.0048628277 0.80462503
0.066902377 -0.0031260592 0.80927777
0.071329013 -0.0031262345 0.80929166
0.017302748 0.0092304591 0.80725002
0.057679381 0.0021641168 0.80408335
0.067816749 0.00041121923 0.80962503
0.071347423 0.00041115575 0.80950004
0.016337076 0.014444693 0.80312502
0.012849216 0.025029507 0.80475003
0.05216359 0.027517444 0.80037498
0.084049918 0.023243183 0.80399996
0.0084571447 0.035614427 0.80550003
0.048925731 0.033830807 0.80470002
0.052556414 0.034158371 0.80471885
0.016442236 -0.033756938 0.81721669
0.024714222 -0.033650782 0.81558335
0.033885598 -0.032311011 0.81683344
0.0150022 -0.026025148 0.81365001
0.025312267 -0.028943224 0.81186372
0.03524882 -0.028937722 0.81395006
0.042047802 -0.02558155 0.81465006
0.01643276 -0.015572507 0.81280559
0.048432589 -0.014820856 0.81328577
0.05534387 -0.013784062 0.81607294
0.0646253 -0.01461713 0.81563562
0.072514951 -0.013115145 0.81600004
0.017490296 -0.0049324431 0.8160001
0.056576539 -0.0053811115 0.81217092
0.063779324 -0.0060861781 0.81083339
0.074629381 -0.0052159424 0.81064713
0.017466718 0.0039704861 0.81490004
0.059082031 0.00041204458 0.81125003
0.065279581 0.0030715861 0.81109375
0.07386639 0.0021883738 0.81189996
0.015619102 0.016372563 0.81150001
0.08356484 0.015935548 0.81212503
0.013078054 0.023687927 0.81912506
0.010323425 0.030644309 0.81375003
0.0079763532 -0.042685546 0.82880002
0.015006102 -0.042936698 0.82663894
0.022714099 -0.041624058 0.82749999
0.0062149228 -0.034503024 0.8272047
0.013319628 -0.037115455 0.82304996
0.02554586 -0.038073074 0.82400006
0.034849837 -0.034456309 0.82550001
0.04122591 -0.030294031 0.82675004
0.0072735953 -0.026483025 0.82688898
0.010896788 -0.022526745 0.8235625
0.046472382 -0.02501612 0.82627088
0.054733321 -0.023953496 0.82600003
0.064433448 -0.023265133 0.8229444
0.070898131 -0.02211374 0.82487506
0.014443556 -0.015811047 0.82540005
0.049033392 -0.018427601 0.82125008
0.053298067 -0.018823629 0.82174999
0.069625027 -0.019306747 0.82050002
0.075512536 -0.015184854 0.82380557
0.078645036 -0.0076577133 0.82100004
0.0158621 0.01392515 0.82412505
0.08543323 0.014856978 0.82587504
-0.0017892029 -0.043658189 0.83661121
0.0041302154 -0.044611104 0.83313334
0.01427885 -0.047117457 0.83675003
0.024102619 -0.043731719 0.83490002
-0.0025800467 -0.035990912 0.83538169
0.0019091017 -0.035893612 0.83090633
0.028785242 -0.039624851 0.83300006
0.03524733 -0.036984805 0.83500004
0.04574782 -0.034118995 0.8357842
0.054945894 -0.034459885 0.83559996
0.062933184 -0.032456331 0.83587503
-0.000365543 -0.028909426 0.83900005
0.004565571 -0.025115272 0.83485001
0.047777258 -0.02862085 0.83062506
0.055084094 -0.02864095 0.83120841
0.065508507 -0.027935384 0.83335716
0.072558634 -0.023257514 0.83358335
0.0087773716 -0.01967147 0.83600003
0.012898213 -0.015430996 0.83239287
0.078018673 -0.015971558 0.83350009
0.01608392 -0.0050498666 0.83565009
0.081738777 -0.0032246439 0.83425003
0.016077826 0.004982464 0.83533341
0.079507165 0.0040491782 0.83000004
0.081653476 0.0049564112 0.83029169
-0.055151917 -0.061545998 0.84912509
-0.048688434 -0.060848244 0.84975004
-0.062028926 -0.0559837 0.84920007
-0.05510211 -0.055186208 0.84834987
-0.046795994 -0.05523774 0.84914285
-0.055150509 -0.049667459 0.84908336
-0.04867411 -0.04969183 0.84950006
-0.01398335 -0.041816011 0.84872222
-0.0069161491 -0.043325868 0.84386367
0.0079862513 -0.049669892 0.84912503
0.015360005 -0.049210399 0.8465001
0.025319202 -0.045879416 0.8476429
0.035613779 -0.043047775 0.84763241
0.044469256 -0.044260647 0.84492499
0.054308135 -0.042575747 0.84457505
-0.013564677 -0.037058432 0.84833336
-0.0073341676 -0.034357913 0.84469235
0.037394114 -0.038224287 0.84225005
0.043770574 -0.03862391 0.84093755
0.051087167 -0.039969724 0.84025002
0.063606039 -0.03498821 0.84181249
-0.0018514127 -0.027698275 0.84685004
0.002962824 -0.023240857 0.84630001
0.069669999 -0.029038638 0.84275001
0.074533977 -0.02451496 0.84562504
0.0070448969 -0.019330969 0.84775001
0.012612894 -0.013772372 0.84791678
0.079142839 -0.018047333 0.84550005
0.080896147 -0.014335004 0.84450006
0.082718559 -0.0078750886 0.84425002
-0.063254468 -0.061456904 0.85825002
-0.050844248 -0.063074172 0.85475004
-0.047381148 -0.061564315 0.85975003
-0.065457031 -0.054583002 0.85544646
-0.042963598 -0.054223903 0.85134381
-0.038167544 -0.052259821 0.85356253
-0.0022436997 -0.050042801 0.85550004
0.027624466 -0.052708197 0.85827082
0.034713391 -0.053335179 0.85579175
0.043370802 -0.051855315 0.85460007
-0.062905081 -0.048991323 0.85350001
-0.056054354 -0.048122596 0.85460007
-0.044159081 -0.047278561 0.85421884
-0.035446554 -0.044666212 0.85422587
-0.024842432 -0.042644046 0.85239065
-0.017107131 -0.04292706 0.85033339
-0.0045844596 -0.048172861 0.85549998
0.003352613 -0.049823444 0.85175008
0.026518289 -0.047985084 0.85214293
0.034245703 -0.048276413 0.85179168
0.045531254 -0.049149375 0.85083336
0.053586148 -0.046046648 0.85075003
-0.031688482 -0.038329735 0.85487509
-0.024171351 -0.037334058 0.85352087
-0.015852343 -0.034788668 0.85287505
-0.0087572103 -0.031219248 0.852
0.066189334 -0.036102317 0.85737503
0.07082738 -0.031393301 0.85675001
-0.0039426517 -0.025895715 0.85518187
0.0021155823 -0.020697998 0.85325003
0.076026291 -0.025798628 0.85731256
0.011534817 -0.012207787 0.85060006
-0.063909926 -0.063355342 0.86283344
-0.055061512 -0.065511897 0.86225003
-0.046656866 -0.061855052 0.86387503
0.014289562 -0.060080335 0.86543757
-0.072104245 -0.05472507 0.86454993
-0.068149805 -0.05599815 0.86083341
-0.041029528 -0.058134455 0.86462504
-0.03555477 -0.053119622 0.86375004
-0.003222466 -0.051682744 0.86731255
0.0059717284 -0.054383498 0.86507142
0.014805864 -0.055402823 0.86269063
0.023021435 -0.055727184 0.86078566
0.035547923 -0.056728147 0.86475003
0.044157989 -0.054478411 0.86656255
0.051783167 -0.050730117 0.86725003
-0.07061547 -0.048877146 0.86800003
-0.064584181 -0.044625305 0.8647126
-0.054973774 -0.044064086 0.86226189
-0.046607025 -0.042859867 0.86146164
-0.031484149 -0.048546329 0.86212504
-0.024540422 -0.047857538 0.86475015
-0.015530176 -0.047828443 0.86612511
-0.0092027513 -0.04807074 0.86483335
0.056241192 -0.046330988 0.86295003
0.061709952 -0.040921103 0.86025006
-0.063248381 -0.037925079 0.86819446
-0.055641778 -0.037588872 0.86707145
-0.046564408 -0.038691275 0.86446428
-0.035253312 -0.037866931 0.86208344
-0.026748886 -0.035325799 0.86133337
-0.015458997 -0.032532118 0.86212504
-0.071893595 -0.06148953 0.87200004
-0.063661635 -0.066630244 0.87691671
-0.050264109 -0.06665156 0.87725002
-0.045725971 -0.062733538 0.87608337
0.0091947177 -0.06079625 0.87575006
0.024472833 -0.06066782 0.87390006
-0.075820975 -0.053999681 0.87110007
-0.034966242 -0.055612613 0.8785001
-0.027254671 -0.05134432 0.8777501
-0.011920532 -0.051432066 0.87925005
-0.0056577697 -0.052733909 0.87693757
0.0053555318 -0.058178026 0.87475008
0.032269627 -0.059050556 0.87825006
0.049147036 -0.05285288 0.87100005
-0.073750749 -0.045760695 0.87418747
-0.068915084 -0.042359564 0.87050009
-0.073943347 -0.063388884 0.8851667
-0.069865093 -0.065121911 0.88250005
-0.055383127 -0.06897898 0.88250005
-0.04307241 -0.062556744 0.88712502
0.0073833661 -0.061664023 0.88825005
0.015165063 -0.063648082 0.88885003
0.030443935 -0.061160713 0.88100004
-0.0792685 -0.055574715 0.88405007
-0.022521842 -0.05149056 0.88025004
-0.016756041 -0.051516153 0.88068759
-0.0029527822 -0.055569988 0.88383341
0.0025214686 -0.058541231 0.88500005
0.036324088 -0.059392344 0.88333338
0.044105176 -0.057553094 0.88466674
0.053670622 -0.052601613 0.88275003
-0.064809904 -0.068795189 0.89262503
-0.045401972 -0.065062843 0.89500004
0.023986898 -0.063842319 0.89156258
