# .PCD v0.7 - Point Cloud Data file format
VERSION 0.7
FIELDS x y z
SIZE 4 4 4
TYPE F F F
COUNT 1 1 1
WIDTH 389
HEIGHT 1
VIEWPOINT 0 0 0 1 0 0 0
POINTS 389
DATA ascii
-0.032959774 0.067085095 0.74947733
-0.026802124 0.065133847 0.7494328
-0.033211518 0.073632859 0.74933338
-0.027996123 0.073886096 0.74942654
-0.030650066 0.049410205 0.75625008
-0.025165854 0.048619632 0.75713468
-0.034539293 0.055649322 0.7525894
-0.024884842 0.055305481 0.75215691
-0.035412565 0.06332089 0.75053132
-0.022174207 0.064239055 0.75073081
-0.03439616 0.076695554 0.7536667
-0.024305725 0.073912971 0.75608331
-0.032226548 0.048189595 0.76750004
-0.023842342 0.044948936 0.76474994
-0.040530499 0.057288919 0.76583338
-0.037237402 0.052349623 0.76700002
-0.018669447 0.057021946 0.76225001
-0.0404897 0.063086972 0.76506257
-0.038889453 0.068231635 0.7665
-0.020356487 0.068750508 0.76300001
-0.018704146 0.064649023 0.76366669
-0.036909692 0.07514824 0.76025003
-0.022922259 0.074381143 0.76525009
-0.033071008 0.085100554 0.76411366
-0.027584447 0.084358595 0.76516062
-0.033281215 0.047238387 0.77250004
-0.029170029 0.04445624 0.77550006
-0.019091943 0.048091888 0.77950007
-0.040936243 0.054483596 0.77350003
-0.038367629 0.051905982 0.77287507
-0.019004179 0.05295274 0.77591676
-0.041240551 0.068511821 0.77925003
-0.038448982 0.0748621 0.77450001
-0.023296783 0.026995042 0.78839076
-0.017717851 0.02650243 0.78882152
-0.02347756 0.035496596 0.78362513
-0.018298276 0.034565777 0.78545457
-0.034025036 0.046074226 0.78579998
-0.024896454 0.041998371 0.78100002
-0.019108273 0.04301849 0.78016669
-0.042403329 0.054467123 0.78732151
-0.039026763 0.051079292 0.78612506
-0.017420646 0.057571694 0.78100002
-0.043170713 0.06373693 0.78334999
-0.017419716 0.064398296 0.78095841
0.038455792 -0.025920408 0.79439592
0.042956747 -0.023972722 0.79690391
-0.013059357 -0.010802708 0.79775
-0.0044532018 -0.01170087 0.79799992
0.0046461127 -0.011693446 0.79907149
-0.022630995 -0.0032752352 0.79738891
-0.014985263 -0.0046933424 0.79544842
-0.0046941065 -0.0048126043 0.79554993
0.0041068043 -0.0051775179 0.79837495
-0.030053968 0.0073900651 0.79900002
-0.024616353 0.0051297653 0.79456025
-0.015085429 0.0047322083 0.79292339
-0.0048146471 0.0046259584 0.79548573
0.0025644049 0.0015693931 0.79879171
-0.030006951 0.019581808 0.79775006
-0.025344942 0.014992015 0.79215008
-0.01505496 0.015102459 0.79145145
-0.0071835658 0.013963494 0.79434377
-0.025109287 0.022201592 0.79170001
-0.013810525 0.023958681 0.79184717
-0.009025435 0.021218209 0.79375005
-0.015987307 0.03455719 0.79491669
-0.042933539 0.044684637 0.79480213
-0.037855469 0.045460254 0.79312503
-0.017733853 0.044712555 0.79504174
-0.044575848 0.053054508 0.79306257
0.026110072 -0.031324182 0.80675
0.034847837 -0.032568961 0.80478132
0.046572406 -0.033370249 0.80744654
0.055338949 -0.034040723 0.80840629
0.064677551 -0.033700638 0.80730563
0.074448705 -0.033567049 0.8061071
0.085185528 -0.033075981 0.80644447
0.094987884 -0.032638267 0.80433339
0.10501702 -0.032055117 0.802975
0.11408921 -0.031844124 0.80502778
-0.0032172943 -0.021384481 0.805875
0.0053958567 -0.023307687 0.80535537
0.014586932 -0.024110271 0.80519843
0.025152661 -0.025081707 0.80429161
0.034018908 -0.024439109 0.80251044
0.046889294 -0.025730923 0.80351478
0.055075772 -0.025087675 0.80454874
0.065347925 -0.025076484 0.80425018
0.074919119 -0.025064787 0.80389822
0.084865086 -0.025050981 0.80340981
0.09525308 -0.025010169 0.80210418
0.10487273 -0.025003048 0.80187511
0.11464693 -0.025033318 0.80277795
0.12496463 -0.024774434 0.80272073
0.13427041 -0.022656204 0.80358332
0.14053491 -0.020707628 0.80525005
-0.01443739 -0.013316927 0.80512506
-0.0049731159 -0.016954001 0.80278951
0.0051256791 -0.01688431 0.80118757
0.014558448 -0.014486005 0.80179864
0.025023496 -0.014647855 0.80406415
0.034956925 -0.016351428 0.80361366
0.044538178 -0.01725523 0.80264294
0.055392265 -0.017292986 0.80538231
0.064465113 -0.017474608 0.80603844
0.074887298 -0.017876564 0.80582708
0.085046619 -0.017183851 0.805125
0.09564469 -0.016805204 0.80392504
0.10523531 -0.014803492 0.80465519
0.11447347 -0.014905934 0.80326527
0.12495542 -0.015487429 0.80230182
0.13487183 -0.015269443 0.80418265
0.14294569 -0.015352475 0.80758339
-0.024114646 -0.0053103836 0.8049376
-0.019594042 -0.0083348984 0.80000001
0.0080577713 -0.0034419172 0.80080003
0.013825219 -0.0059547098 0.8051191
0.021744084 -0.008420852 0.80825007
-0.052594736 0.0092590451 0.80975002
-0.048157353 0.0092571396 0.80958337
-0.030185618 0.0056687277 0.80250001
-0.028350849 0.0021552499 0.80025005
-0.00034996713 0.0091847209 0.80325001
0.0041983137 0.0045150272 0.80474997
-0.055032462 0.015574951 0.80831909
-0.04576404 0.015766496 0.80809098
-0.034570556 0.014560712 0.80925006
-0.0036732128 0.014874975 0.80519444
-0.054919932 0.024952993 0.80702072
-0.045292038 0.025063414 0.80589175
-0.037699237 0.025361452 0.80834383
-0.028492561 0.026773311 0.80425
-0.010910491 0.027669907 0.80475003
-0.0085596973 0.023261972 0.80441672
-0.052893333 0.032340694 0.80677778
-0.045053285 0.034532666 0.80381447
-0.038192689 0.034699749 0.80481249
-0.028628364 0.034845505 0.80808336
-0.014688659 0.034623664 0.80299997
-0.03448154 0.042511582 0.8028056
-0.028492561 0.04083176 0.80425006
0.006813976 -0.030037533 0.81975001
0.016350629 -0.032313146 0.81500006
0.024763385 -0.033049311 0.8120001
0.031874008 -0.035368554 0.81875002
0.055063747 -0.038885154 0.81745005
0.065427013 -0.037500974 0.81316668
0.076030701 -0.036859002 0.81216669
0.098190561 -0.035071567 0.81187505
0.10488872 -0.035232481 0.81560004
0.11764274 -0.033528067 0.81750005
0.12520453 -0.031617817 0.81431252
-0.0024883854 -0.024486188 0.81375009
0.0049917479 -0.027721221 0.81480008
0.014864249 -0.02950461 0.81210715
0.13519263 -0.027646298 0.8170715
0.14238121 -0.022763362 0.81583339
-0.042468257 -0.010327346 0.81937504
-0.036870759 -0.010999911 0.81943744
-0.020958852 -0.011218532 0.81912506
-0.013695329 -0.016489459 0.81381255
0.029826211 -0.010231241 0.81175005
0.03596301 -0.011324337 0.81400001
0.045523673 -0.012424937 0.81626242
0.054829478 -0.012306291 0.81726563
0.065184131 -0.01242967 0.816625
0.074991181 -0.01293912 0.815
0.084943458 -0.011950165 0.81576562
0.094413236 -0.011809997 0.81375003
0.10238029 -0.010695444 0.81343752
0.11763124 -0.010224938 0.81125003
0.12480953 -0.010231766 0.81179172
0.13538435 -0.010225989 0.81133342
0.14611477 -0.012487828 0.81134093
-0.051539686 -0.0025599897 0.81641674
-0.044861943 -0.004794809 0.81672925
-0.035201654 -0.0049457084 0.81713337
-0.027540004 -0.0054877019 0.81777495
0.016185256 -0.0026348266 0.81446427
0.025017079 -0.005820212 0.81566668
0.032548405 -0.0078039728 0.81765002
0.045337923 -0.0085367598 0.81937504
0.078525297 -0.0085406657 0.81975001
0.083865002 -0.0085367598 0.81937504
0.095416747 -0.008528077 0.81854171
0.10551403 -0.0076967133 0.8167727
0.11495163 -0.0075144661 0.81456816
0.12510127 -0.006698105 0.81368059
0.13503358 -0.0070857741 0.8145715
0.14363131 -0.0075791725 0.81281251
-0.053494398 0.0046851137 0.81242049
-0.044753883 0.004630357 0.81208611
-0.035419676 0.0046073166 0.81277275
-0.028731694 0.0004119176 0.81100005
0.0064694607 0.0054495647 0.81362504
0.010350383 0.0013100965 0.81587505
-0.058811087 0.011032004 0.81000006
-0.041699659 0.011625624 0.81025004
-0.035957936 0.015575309 0.81101865
-0.003322066 0.017006099 0.81325006
0.0014194276 0.011038813 0.81050003
-0.034011241 0.025240785 0.81398869
-0.0080987327 0.026904007 0.8170417
0.025005899 -0.041221317 0.82850003
0.055744864 -0.04117405 0.82755005
0.06216003 -0.041227542 0.82862508
0.076726675 -0.041264854 0.82937503
0.0068537872 -0.031108443 0.82437503
0.014055345 -0.033767987 0.82325006
0.02515885 -0.037319634 0.82514292
0.030801333 -0.036706313 0.82200003
0.048149828 -0.03847922 0.82150006
0.066168673 -0.03910635 0.82210004
0.075391069 -0.039227653 0.82464999
0.085026413 -0.037607208 0.82200003
0.09518753 -0.037407387 0.82425004
0.10113701 -0.037611607 0.82875001
0.11400726 -0.035573747 0.82350004
0.12067239 -0.033876676 0.82600003
-0.0327898 -0.022217808 0.82389301
-0.024777662 -0.024331551 0.82706749
-0.014687958 -0.024751173 0.82753134
-0.0067565395 -0.025562963 0.82642323
0.0023355756 -0.028310735 0.82162505
-0.044014104 -0.013570977 0.82196432
-0.034744475 -0.015801635 0.82114828
-0.024986601 -0.015213564 0.82223475
-0.016568512 -0.017582331 0.82359999
0.15224108 -0.013072823 0.82331252
-0.052293181 -0.0060662343 0.82450008
-0.048821781 -0.0085510854 0.82075006
-0.026360547 -0.0085432716 0.82000005
0.018481283 -0.0013760922 0.82037503
0.024223933 -0.0019778844 0.82249999
0.035016485 -0.0058164145 0.82457691
0.044955142 -0.0072979429 0.8241787
0.054721165 -0.0083015366 0.82570839
0.065828316 -0.0081285229 0.82353127
0.073116533 -0.007970647 0.82283336
0.086333111 -0.007291534 0.82342863
0.094734199 -0.0067546121 0.82040006
0.10577706 -0.0055718035 0.82249999
0.1146415 -0.0030823145 0.82620591
0.12495688 -0.0024978882 0.82675004
0.1356819 -0.0025360715 0.82740915
0.14368579 -0.0050098188 0.82850003
0.1511988 -0.0085953642 0.82500005
-0.060009088 0.0058382601 0.82650006
-0.058411241 0.0047330661 0.82440007
0.0074731647 0.0082465382 0.82645828
0.01385065 0.0042039892 0.82638645
0.11646613 0.0017389946 0.82879549
0.12464914 0.0022323108 0.82841671
0.13352065 0.0018151081 0.8289808
-0.061442669 0.015675614 0.82150006
-0.0010773262 0.016954746 0.82250005
0.0052187494 0.01502305 0.82665628
-0.00036532516 -0.041718859 0.83850002
0.0059217168 -0.042233903 0.83832157
0.014869824 -0.042491298 0.839275
0.024716305 -0.042669494 0.83916682
0.049103018 -0.041681543 0.83775002
0.05047917 -0.041308388 0.83025002
0.066963553 -0.041395459 0.83200008
0.072360784 -0.041362289 0.83133334
0.080105864 -0.041606914 0.83625007
-0.022499129 -0.031088157 0.83187503
-0.014691799 -0.032536667 0.83206248
-0.0045236424 -0.034622137 0.83430481
0.0047654686 -0.035803631 0.83518279
0.014666474 -0.037839785 0.83593059
0.021543363 -0.039708097 0.83475006
0.04635261 -0.039850801 0.83775008
0.086010091 -0.03955052 0.83143753
0.093345277 -0.039577279 0.83200008
0.1059567 -0.037713721 0.83099997
0.12352573 -0.03494399 0.83716673
0.1342058 -0.031376351 0.83150005
-0.040769372 -0.021594822 0.83975005
-0.035813808 -0.023195473 0.83131254
-0.023356922 -0.028602185 0.83008337
-0.018513618 -0.028599313 0.83000004
-0.0049005225 -0.028605774 0.83018756
0.13978668 -0.028676841 0.83225006
0.14600301 -0.024105076 0.831375
-0.051757671 -0.010577849 0.83925003
-0.046236735 -0.016075991 0.83900005
0.15145817 -0.018654101 0.831375
-0.055629849 -0.0046044718 0.83543754
0.026934901 -0.0013957317 0.8320834
0.036222152 -0.0023880438 0.83263642
0.045275833 -0.0032235694 0.83471674
0.055464506 -0.0040119276 0.83401084
0.064952172 -0.0038244952 0.83344454
0.075594425 -0.0038786216 0.83327276
0.084951386 -0.003440314 0.83221883
0.095135309 -0.0032120198 0.83173621
0.10479658 -0.0030800679 0.83108938
0.1458756 -0.002908807 0.83149999
0.15269624 -0.0068604532 0.83316666
-0.058923341 0.00042499637 0.83675003
0.017974267 0.006934524 0.83145833
0.025181791 0.0049862713 0.834225
0.11438781 0.0063875187 0.83179998
0.12505484 0.0076885363 0.83111674
0.1355814 0.006617534 0.83131814
0.14523184 0.0051250379 0.83316123
0.046786986 -0.05131311 0.8456251
0.054981373 -0.052114058 0.84362495
0.065215491 -0.05218086 0.84470844
0.07540977 -0.052205313 0.84510005
0.080991939 -0.051305525 0.84550005
-0.0049987179 -0.041197907 0.84662503
0.0042604418 -0.044005711 0.84725004
0.015735652 -0.04510738 0.84187502
0.02306352 -0.045019425 0.84025002
0.046319377 -0.046043225 0.84382504
0.054873656 -0.046492357 0.84196252
0.065031581 -0.046514198 0.84234357
0.075187162 -0.046528738 0.84261245
0.08450745 -0.04554309 0.8444773
0.094455533 -0.044308927 0.84767497
0.1014219 -0.040255141 0.84625006
-0.022608323 -0.03413805 0.8474167
-0.015165029 -0.036899161 0.84560001
-0.0095740678 -0.038212944 0.84200007
0.11252633 -0.038405821 0.84625006
0.12830521 -0.034471367 0.84050006
0.13326691 -0.034029596 0.84475011
0.14028741 -0.031008556 0.84625006
-0.035416022 -0.025382742 0.84358335
0.14411649 -0.029185083 0.84700006
0.15758425 -0.013374612 0.84224999
0.046524923 -0.053928543 0.85783339
0.055588305 -0.055479474 0.85860002
0.062596276 -0.055911597 0.85950005
0.085053019 -0.051798388 0.85368752
-0.00037436571 -0.044628985 0.85925007
0.0058455248 -0.045534089 0.85275006
0.017423388 -0.04823662 0.85662502
0.022034958 -0.04807942 0.85383338
0.044699665 -0.040849749 0.85875005
0.08712776 -0.049794197 0.85125005
0.096322834 -0.047877647 0.85025007
0.10302017 -0.043081317 0.85510713
-0.028553592 -0.031475745 0.85900003
-0.013422272 -0.038689468 0.85250002
0.11709087 -0.03900148 0.85937506
0.12425166 -0.036740098 0.85050005
-0.043502051 -0.022049315 0.85741669
-0.034102492 -0.02765183 0.8568334
0.1486066 -0.027479349 0.85150003
0.15339823 -0.022846393 0.8522501
0.15824226 -0.018212758 0.85325003
0.04196167 -0.052208014 0.86037505
0.067413829 -0.056009173 0.86100006
0.075133726 -0.056149036 0.86315
0.084166817 -0.054781619 0.86387503
0.094982237 -0.050503451 0.86337507
0.10037634 -0.050847113 0.86925006
-0.0060227322 -0.04282571 0.86075002
0.012807049 -0.048492361 0.86116672
0.041003112 -0.048426665 0.86000001
0.099365935 -0.048454821 0.86050004
0.10586946 -0.045071311 0.86760008
0.11247344 -0.041254085 0.86725008
-0.024343774 -0.035483927 0.86516666
-0.016397653 -0.039114937 0.86187506
0.12391728 -0.038756646 0.86437505
0.13700399 -0.035291623 0.86050004
0.1426287 -0.032466356 0.86037505
0.14820924 -0.029633023 0.86000001
0.046686415 -0.05714757 0.87850004
0.052157648 -0.056830447 0.87362504
0.087494776 -0.05491345 0.87350005
0.09366376 -0.053252365 0.87758344
-0.012823929 -0.041634634 0.87525004
-0.0061127227 -0.044420905 0.87362504
0.005976303 -0.047818828 0.87175006
-0.023264559 -0.037668861 0.87200004
-0.019483911 -0.039642524 0.87350005
0.022814414 -0.05170992 0.88400006
0.041956674 -0.055322077 0.88000005
0.05764598 -0.059470784 0.88450003
0.065370217 -0.059457339 0.88430005
0.075101443 -0.059507765 0.88505
0.08472272 -0.058689803 0.88440007
0.097879693 -0.053459689 0.88100004
