# .PCD v0.7 - Point Cloud Data file format
VERSION 0.7
FIELDS x y z
SIZE 4 4 4
TYPE F F F
COUNT 1 1 1
WIDTH 1439
HEIGHT 1
VIEWPOINT 0 0 0 1 0 0 0
POINTS 1439
DATA ascii
0.37585524 0.21535945 0.074241117
0.38280594 0.21335796 0.073780365
0.38690001 0.21277766 0.073459007
0.39693177 0.2084673 0.074323297
0.40481594 0.20769128 0.075675406
0.40818387 0.20995632 0.074020579
0.41384521 0.21312724 0.073335186
0.42130616 0.21439326 0.072102211
0.42602766 0.21588176 0.073944271
0.43582711 0.21615657 0.07281632
0.44400251 0.21649534 0.075955316
0.45153928 0.2171174 0.075315304
0.45726714 0.21685036 0.074633785
0.46820047 0.21633793 0.073146455
0.47363859 0.21612869 0.073787726
0.48160025 0.21524416 0.073692977
0.49004015 0.21372193 0.073545463
0.49637395 0.21094587 0.073162958
0.50128561 0.20728186 0.073500566
0.50430328 0.20414239 0.073623717
0.52394801 0.2056704 0.071545884
0.52766991 0.20806968 0.073724233
0.53397101 0.21040429 0.073873661
0.54012722 0.21313462 0.073281914
0.54758722 0.21449666 0.073437423
0.55445695 0.21508317 0.074047901
0.5595507 0.21596016 0.073382504
0.5627805 0.21766356 0.074460886
0.2899825 0.22017126 0.073840126
0.29267004 0.21693057 0.073610291
0.29539761 0.2162205 0.073046662
0.29682222 0.21290278 0.074008994
0.30410904 0.2144254 0.0731062
0.31148562 0.21710646 0.073139109
0.31687778 0.21845204 0.073498011
0.32554764 0.21944882 0.07445056
0.3329525 0.21952061 0.07494273
0.33996046 0.21994753 0.074738637
0.34691685 0.21949753 0.074614547
0.35376462 0.21843417 0.074344561
0.36008742 0.21808991 0.073947005
0.3673698 0.21747956 0.073952436
0.3760604 0.21622911 0.073332921
0.38161254 0.21462937 0.073757149
0.38842216 0.21287827 0.073624119
0.39426419 0.20993929 0.073428981
0.40473774 0.20978013 0.074085519
0.41030437 0.21183647 0.074474014
0.4169203 0.21418342 0.073279552
0.42357448 0.21515884 0.072862491
0.43071017 0.21534641 0.073153228
0.43749252 0.2159095 0.073470093
0.44434977 0.21636346 0.073232345
0.4511205 0.21673928 0.073822096
0.45923537 0.21657485 0.074039713
0.46596095 0.21603537 0.073958851
0.4719567 0.21560508 0.073702127
0.4791581 0.21493664 0.073981203
0.48862451 0.21440798 0.075977407
0.49475345 0.21284309 0.073815644
0.49902123 0.20950666 0.07430736
0.53176177 0.20952475 0.071919762
0.53476965 0.21103498 0.073062003
0.54254013 0.21375655 0.073008701
0.54831767 0.21444926 0.074926004
0.5547387 0.21496101 0.074815728
0.56204104 0.215672 0.073262572
0.56776643 0.21709916 0.07368689
0.28950149 0.22094908 0.071441762
0.29237702 0.22089036 0.07281518
0.29152009 0.22118355 0.073677845
0.29692078 0.21354692 0.073988348
0.30510274 0.21610941 0.074019454
0.31159639 0.21741006 0.073783502
0.31879765 0.21880828 0.073484488
0.32450792 0.21934487 0.0732648
0.33199152 0.21967806 0.072554052
0.33977872 0.22019723 0.073183924
0.34757587 0.21926004 0.074103251
0.35353026 0.2183845 0.073726624
0.36070731 0.21784189 0.07331787
0.36776862 0.21739203 0.073318973
0.37418303 0.2169857 0.073427126
0.37947488 0.21528609 0.071247987
0.40581086 0.2100576 0.072925828
0.4106288 0.21156058 0.073301613
0.41717887 0.21392024 0.07481686
0.42397413 0.21427615 0.075287148
0.42885095 0.21446632 0.073911339
0.43864375 0.21476948 0.077004746
0.44537947 0.21537791 0.075489044
0.46144351 0.21494099 0.075463243
0.46256945 0.21500678 0.07506337
0.48800728 0.21236363 0.075403854
0.5051592 0.212401 0.075360693
0.5290094 0.21189742 0.072618686
0.53273213 0.21147373 0.076921649
0.55520582 0.21306078 0.072875075
0.56177706 0.21356048 0.073666185
0.56748486 0.21420738 0.075482532
0.28464118 0.23296396 0.0748026
0.28389442 0.22951616 0.073646992
0.28738067 0.22571775 0.07347317
0.30756748 0.21806052 0.075530708
0.3078464 0.21845876 0.075739145
0.41434604 0.21538565 0.073227964
0.43167752 0.21415032 0.073869973
0.43818516 0.21447827 0.073865399
0.44417956 0.21532062 0.072861962
0.45197523 0.2154506 0.07231798
0.45642471 0.21529527 0.073762015
0.46440101 0.21527334 0.071964823
0.47265166 0.21413818 0.071999475
0.47988182 0.21316519 0.072461985
0.48697042 0.21255641 0.073298916
0.49556425 0.21271878 0.072980151
0.5026257 0.21300285 0.072657481
0.50895613 0.21232525 0.072959431
0.5145843 0.21092319 0.074087046
0.52038342 0.21206136 0.073699288
0.52662951 0.21271299 0.073098421
0.53385377 0.21213943 0.073195346
0.54262161 0.21168903 0.073617719
0.54919326 0.21261978 0.07388062
0.55485916 0.21311469 0.074094392
0.55847442 0.21353991 0.073914431
0.55752242 0.21602739 0.074172191
0.28178573 0.23640615 0.073344558
0.28294286 0.23197171 0.072181769
0.28822103 0.22038856 0.073338345
0.29584572 0.219308 0.072892167
0.30309814 0.21948707 0.073026381
0.31074882 0.21992335 0.073236383
0.31790298 0.21928594 0.072855592
0.32396838 0.21972978 0.071446806
0.33111456 0.21924958 0.071038023
0.33894831 0.21859784 0.070397511
0.3462505 0.21865915 0.070313692
0.35282168 0.21839672 0.071063004
0.3602559 0.21802264 0.070614897
0.36744982 0.21736756 0.070453681
0.37598529 0.21725518 0.072067164
0.38462773 0.21716453 0.072849222
0.38826454 0.21746691 0.072763443
0.39885148 0.21837954 0.075227953
0.4022797 0.21917602 0.071436748
0.27691635 0.24066886 0.073475093
0.50806093 0.19759853 0.079178803
0.51010907 0.19738118 0.081073992
0.5138585 0.19653602 0.081874736
0.36064997 0.21127069 0.085155152
0.39565378 0.20619759 0.078275435
0.39711428 0.20563623 0.078177728
0.40046805 0.20496227 0.07784006
0.40347341 0.20608595 0.078645095
0.50560057 0.19939667 0.078702174
0.50856084 0.19776265 0.079980306
0.51438481 0.19622336 0.080621831
0.52013451 0.19914976 0.079746529
0.52528191 0.20180373 0.079648405
0.29499972 0.20742051 0.078952625
0.29817444 0.20783029 0.078571878
0.30136812 0.20787469 0.077323191
0.30156496 0.20879623 0.076492295
0.32441354 0.21324113 0.084189765
0.32592782 0.21340397 0.084101364
0.35580018 0.21300393 0.084369883
0.36171374 0.21286581 0.083198756
0.36832613 0.21269958 0.081054449
0.38414255 0.20961815 0.082078904
0.39264959 0.20645908 0.081858374
0.39674312 0.20535865 0.080185615
0.40111464 0.2055773 0.07992997
0.40460786 0.20668817 0.079517014
0.40972301 0.20953417 0.076453075
0.4252032 0.2148836 0.083609283
0.46704119 0.2153019 0.080943882
0.4797172 0.2150155 0.079106763
0.49537086 0.21127805 0.077000082
0.50511873 0.20341384 0.080208361
0.50864983 0.20051858 0.079273008
0.5145582 0.2006589 0.078818433
0.52051568 0.20273741 0.080145255
0.52417445 0.20556177 0.079992674
0.54565585 0.21268409 0.081363119
0.55122942 0.21364953 0.079334207
0.55943453 0.21145202 0.081632763
0.56104892 0.21200269 0.081375964
0.29465443 0.20893078 0.077318162
0.2979548 0.21014921 0.080607973
0.30089766 0.20958307 0.07998392
0.30143625 0.20908384 0.077409476
0.3277055 0.21762475 0.082786307
0.33270469 0.21735422 0.082325503
0.33920327 0.21773925 0.079844922
0.34959754 0.21614857 0.082979061
0.35411227 0.21715032 0.078369185
0.3616114 0.21531811 0.08095248
0.36928326 0.21587835 0.079096399
0.37463698 0.21528371 0.079692505
0.38391444 0.21257442 0.080867559
0.38734937 0.21220711 0.080253951
0.39643016 0.20867805 0.081182018
0.40315574 0.20727523 0.079086751
0.40956694 0.2114075 0.079726003
0.41322851 0.21281157 0.080414467
0.42397884 0.21504354 0.080409937
0.42652369 0.21557377 0.079784505
0.43762559 0.21631393 0.081002288
0.44487533 0.216711 0.081230618
0.45056018 0.21682875 0.079893574
0.45871603 0.21618892 0.080480471
0.46732977 0.21495785 0.082830988
0.47375393 0.2148948 0.081144989
0.48193726 0.21500503 0.080946647
0.48895526 0.21454178 0.080959901
0.4960379 0.21255437 0.079881169
0.50212568 0.20842466 0.080454111
0.50601155 0.20519346 0.079641037
0.51322573 0.20261033 0.081391148
0.52406782 0.20716736 0.079627104
0.52732599 0.20825452 0.080206141
0.53367901 0.21101744 0.080746926
0.54002041 0.21316336 0.079394609
0.54805583 0.21428055 0.08067169
0.55387586 0.21467258 0.080664851
0.56004626 0.2157388 0.081491679
0.56241554 0.21561936 0.081819691
0.5640595 0.21254939 0.082818091
0.28965288 0.22022355 0.081225701
0.29283187 0.21875496 0.079708047
0.29459569 0.21653123 0.079907253
0.29717731 0.21478201 0.080435775
0.30488694 0.21409613 0.080352604
0.31130567 0.21654035 0.080429338
0.31822717 0.21841265 0.080869891
0.32570431 0.2184826 0.080733113
0.33269563 0.21773584 0.080876291
0.34005606 0.21751252 0.081235729
0.34672162 0.21696097 0.080942355
0.35365558 0.21663702 0.080566518
0.3604328 0.21630266 0.081020012
0.36754954 0.21615966 0.081398375
0.37523016 0.21554112 0.081238784
0.3814356 0.21466342 0.080519304
0.38879609 0.21281074 0.080358826
0.39456937 0.21009019 0.081213117
0.40304983 0.20969245 0.080464371
0.4104315 0.21205924 0.080073141
0.41637042 0.21405171 0.079916537
0.4228346 0.21488182 0.080017895
0.43040004 0.21522766 0.080656767
0.43732819 0.21579698 0.08053159
0.44465482 0.21649209 0.080696486
0.45149884 0.21639255 0.080491997
0.45886073 0.21539995 0.080568865
0.46602172 0.21508357 0.080370232
0.47272599 0.21439838 0.080669858
0.47907487 0.21439511 0.080942817
0.48738831 0.21455818 0.080415197
0.49383983 0.21364756 0.080760844
0.4996008 0.21021681 0.080284841
0.5252142 0.20806201 0.082166597
0.52888316 0.20908916 0.081004538
0.53458375 0.21124476 0.080223314
0.54073662 0.21323016 0.079687417
0.54998136 0.2144741 0.079228848
0.55313832 0.21469209 0.077574797
0.56188816 0.21569833 0.080749072
0.56372589 0.21862832 0.081861801
0.28903607 0.22128181 0.07876382
0.29245767 0.22052948 0.07916487
0.29073769 0.22109473 0.08050108
0.2974256 0.21511619 0.081033424
0.30450341 0.21645455 0.080188625
0.31186596 0.21796891 0.080109075
0.31738797 0.21843016 0.080499947
0.32390681 0.21865551 0.079858683
0.33334404 0.21768007 0.080113441
0.33798262 0.21766372 0.07993909
0.34768122 0.21678156 0.079685628
0.35355639 0.21624954 0.080274023
0.35976735 0.21615769 0.080507688
0.367475 0.21595722 0.079912513
0.37373528 0.21624096 0.078393251
0.3778578 0.21531224 0.077474318
0.40536839 0.21064143 0.085076675
0.41106078 0.21224821 0.083580121
0.41788119 0.21382955 0.081270777
0.42376068 0.214075 0.080617674
0.42877692 0.21446115 0.078641184
0.43791676 0.21467938 0.080265269
0.44542208 0.21536952 0.077737667
0.45895305 0.21384642 0.083263181
0.47334138 0.2133072 0.077834733
0.50103581 0.21314168 0.083040573
0.55139256 0.21286798 0.083182462
0.56209499 0.21389835 0.080480263
0.56087565 0.21410067 0.083788037
0.28596264 0.23094366 0.082299225
0.28559968 0.23017322 0.079674184
0.28746995 0.2255044 0.080499277
0.35549265 0.21552433 0.079917878
0.35751539 0.21522456 0.081638381
0.39974397 0.21739449 0.081252545
0.41925821 0.21387844 0.07942763
0.42014545 0.21394858 0.07862065
0.43212527 0.21433628 0.081460759
0.43651173 0.21452552 0.080187708
0.4442789 0.21509829 0.078905642
0.45282593 0.2148048 0.079896696
0.45717165 0.21423601 0.080512449
0.46511286 0.21379368 0.078260161
0.47095832 0.21347561 0.076774195
0.48117989 0.21247876 0.077427186
0.48726127 0.21214719 0.078486115
0.49570495 0.21263249 0.07871262
0.50336796 0.21385519 0.079792559
0.50977671 0.21356611 0.080785461
0.51456809 0.2121307 0.081611797
0.52023071 0.21336989 0.081561714
0.52695876 0.21215144 0.080505073
0.53389001 0.21168864 0.080462024
0.54278773 0.21167338 0.080670111
0.54944676 0.21255693 0.080610998
0.55462962 0.21332693 0.080736481
0.55881512 0.21394838 0.08106152
0.55850184 0.21576118 0.0819543
0.28101811 0.23601283 0.080498956
0.28122753 0.23093064 0.078420304
0.28922597 0.22016148 0.079481103
0.29615262 0.21914396 0.080115646
0.30304602 0.21982263 0.080145307
0.31130698 0.2202297 0.080280967
0.31660166 0.21982844 0.079239413
0.32371414 0.21865214 0.079383403
0.33109671 0.21794038 0.078966618
0.3384406 0.21753351 0.078058757
0.34578815 0.21735011 0.077135466
0.35357201 0.21782324 0.075642914
0.3602649 0.21759215 0.076868363
0.36968288 0.2174252 0.077869222
0.37784666 0.21805324 0.07843782
0.38571253 0.21746036 0.079597421
0.38915029 0.21763104 0.079733044
0.39219353 0.21784724 0.083264254
0.40012431 0.21771319 0.079621404
0.40197283 0.21866654 0.07956253
0.28393403 0.22803608 0.078761429
0.30663627 0.20279147 0.089180566
0.30695438 0.20272171 0.088932976
0.51427287 0.19645034 0.084019378
0.30424428 0.20458625 0.088889629
0.36012131 0.21133043 0.085673511
0.39486551 0.20682104 0.087259375
0.39757806 0.20597617 0.086747363
0.40185642 0.20633769 0.085995682
0.40472785 0.20710684 0.086746141
0.41285411 0.21052411 0.087066054
0.50571901 0.1994358 0.087136649
0.50810248 0.19850641 0.087174788
0.51480705 0.19609891 0.087408915
0.51983631 0.19869453 0.087912925
0.52443409 0.20079914 0.088970847
0.53025848 0.20366547 0.090218566
0.29563525 0.20809893 0.08570227
0.29848295 0.20800114 0.086933643
0.30112761 0.20929591 0.088404
0.32451898 0.2132542 0.085448578
0.32620391 0.21317829 0.084899224
0.34834066 0.21328834 0.088830635
0.35365993 0.21304123 0.08650516
0.35916519 0.21311316 0.085559756
0.37015209 0.21222761 0.085768409
0.37738743 0.21126319 0.086554192
0.38101858 0.21064454 0.086865738
0.39277667 0.20674014 0.086407751
0.39656532 0.20539287 0.087078795
0.4018577 0.20644787 0.087504841
0.40532988 0.20761497 0.087729432
0.42254317 0.21466553 0.086002022
0.42614582 0.21550032 0.08804252
0.43246439 0.21651895 0.088898182
0.49838886 0.21077625 0.089734368
0.50547737 0.20487796 0.087280616
0.50736004 0.20303996 0.087790318
0.51348573 0.2010621 0.08790499
0.52125132 0.20254467 0.085057393
0.52378172 0.20568328 0.087521993
0.53213888 0.20874676 0.091177218
0.54268563 0.21279129 0.087255165
0.54561818 0.21280873 0.08668793
0.55858791 0.21370597 0.091825016
0.56189418 0.21325275 0.087811805
0.29155102 0.2140556 0.08952567
0.29855454 0.21073793 0.086963527
0.30023926 0.21028723 0.085567929
0.30303696 0.21357283 0.087944493
0.32771391 0.21690947 0.087127998
0.33045226 0.21675788 0.085806772
0.34937498 0.21468458 0.090159655
0.35270241 0.2145699 0.089333721
0.36065182 0.21440044 0.086677387
0.36927283 0.21468911 0.087383278
0.37509838 0.2146385 0.088173047
0.38386545 0.21316852 0.085596628
0.3875829 0.21324453 0.086763032
0.3962141 0.21039228 0.087024994
0.40116608 0.20779845 0.087904528
0.41046777 0.21147949 0.088062078
0.41392317 0.21326134 0.087568715
0.42179522 0.21428168 0.088008799
0.42709863 0.21591486 0.089964837
0.43742508 0.21653964 0.087935477
0.4440378 0.21675351 0.087436087
0.45117 0.21645083 0.088141784
0.45752746 0.21567594 0.088453323
0.46700644 0.21406209 0.087780334
0.47288424 0.21381952 0.087818258
0.48034695 0.21392222 0.087543145
0.4883965 0.21455774 0.086992547
0.49670109 0.21295102 0.087816544
0.5022642 0.20957637 0.087523013
0.50602311 0.20666285 0.088183835
0.51201713 0.20351022 0.083988316
0.52750504 0.20951191 0.087376893
0.53386223 0.21149841 0.085946828
0.54043365 0.21333894 0.087732583
0.54763359 0.21358749 0.087977722
0.55467379 0.21468979 0.088078409
0.5612449 0.21582159 0.088349707
0.56258065 0.21545933 0.087604359
0.28959137 0.2202007 0.087621681
0.29140794 0.21896446 0.088415191
0.29499766 0.21640943 0.087589502
0.29721674 0.21521062 0.087193839
0.3048504 0.21462637 0.088063113
0.31124765 0.21660542 0.087964877
0.31832689 0.21789011 0.088067174
0.3252984 0.21777968 0.087939903
0.33267322 0.21708071 0.087751843
0.33963123 0.21620578 0.087384686
0.34686622 0.21543871 0.087569445
0.35381109 0.21528779 0.087939672
0.36049646 0.21527049 0.087558724
0.36749315 0.21528895 0.087696455
0.37499297 0.21573047 0.087911777
0.38159102 0.21481991 0.087462038
0.38867116 0.21328206 0.08747945
0.39469117 0.21075509 0.08724609
0.40236852 0.21031092 0.088014357
0.40976179 0.21224467 0.089637525
0.41675085 0.21414953 0.089118138
0.42356169 0.21498035 0.088084564
0.43015778 0.21523999 0.087791324
0.43705922 0.21590148 0.087837979
0.4444896 0.21611834 0.087405339
0.45195162 0.21623695 0.087661132
0.45894358 0.21483615 0.088140316
0.46528864 0.21377189 0.088154182
0.47268912 0.21319084 0.087703131
0.47963479 0.21302889 0.08781226
0.486449 0.21349254 0.087997295
0.49429494 0.21373326 0.087786123
0.499621 0.2112688 0.087042309
0.52531415 0.20824564 0.084868148
0.52894264 0.20971803 0.088073045
0.53545976 0.21204193 0.088244729
0.53947252 0.21269973 0.086607106
0.56243598 0.2154021 0.087946057
0.56829387 0.21687949 0.087205134
0.28832567 0.2240016 0.088869564
0.29126883 0.22126168 0.088858604
0.28962857 0.21812804 0.087299637
0.29731607 0.21544866 0.087254375
0.30452231 0.21636567 0.087315187
0.3114444 0.21696632 0.087708093
0.31777358 0.21853496 0.087544896
0.32578737 0.21763381 0.08585383
0.33040905 0.21701075 0.085942507
0.33703393 0.216456 0.087071687
0.34786502 0.21507327 0.087422572
0.35334113 0.21507815 0.087408029
0.36011893 0.21497037 0.086819403
0.366182 0.2147622 0.087667823
0.37629619 0.21560338 0.08996895
0.37809399 0.21555734 0.090831064
0.40452695 0.21049549 0.086552165
0.41042277 0.21172805 0.086383142
0.4172357 0.21314535 0.08687564
0.42332029 0.21389711 0.085409097
0.42974058 0.21431682 0.084607601
0.43846259 0.21451345 0.087561212
0.44680011 0.21497087 0.090084583
0.45063287 0.21514748 0.089007609
0.45842433 0.21381947 0.08384338
0.47923964 0.21154237 0.089154318
0.49347025 0.21179007 0.08444424
0.50398159 0.21367484 0.085515089
0.50866169 0.21367119 0.087209016
0.5125314 0.21206947 0.089149989
0.52343887 0.21218936 0.090961576
0.55096906 0.21281296 0.085290365
0.5557459 0.21338485 0.090404496
0.56198549 0.21307121 0.087603174
0.56261557 0.21054749 0.087625943
0.28590637 0.23099336 0.087766699
0.28625926 0.22893488 0.088879123
0.28714624 0.22501771 0.087810405
0.30235866 0.2183893 0.090692438
0.34717903 0.2149471 0.086364679
0.35175917 0.21508887 0.084346116
0.35822949 0.21484797 0.082478397
0.37162974 0.21444099 0.089496009
0.37547594 0.21490654 0.089707218
0.39869589 0.21675117 0.085237511
0.40920579 0.21455398 0.088411823
0.41399381 0.21389131 0.089191385
0.41995993 0.2133294 0.090118133
0.42983598 0.21382289 0.088160254
0.43641451 0.21486053 0.087738477
0.44546136 0.21497317 0.088376522
0.45095581 0.21477981 0.086266115
0.45611334 0.21425708 0.084549524
0.49115023 0.21206461 0.084372543
0.496943 0.21243647 0.085873947
0.50423384 0.21501097 0.086264268
0.51033574 0.21547787 0.086980715
0.51472348 0.21382703 0.08857996
0.5203926 0.21358213 0.087898917
0.52632195 0.21382838 0.087882318
0.53408098 0.21233329 0.087695703
0.54240185 0.21176618 0.087896824
0.54914892 0.2123621 0.087728523
0.55466038 0.21357425 0.087633811
0.55851269 0.21425316 0.087761745
0.55944836 0.21692048 0.088431723
0.27619642 0.23226069 0.08718624
0.28518927 0.22131988 0.087514587
0.28884813 0.21990554 0.087094143
0.29694331 0.21884145 0.087484643
0.30350584 0.2187514 0.087464258
0.3105152 0.21986809 0.087513991
0.31689465 0.21885781 0.087374508
0.32329315 0.21800455 0.087069675
0.3303372 0.21738245 0.086672649
0.33687463 0.21672319 0.085557505
0.34277502 0.21679159 0.082642734
0.36545116 0.21666095 0.081262596
0.37092006 0.21653217 0.081838474
0.37869027 0.21762446 0.085628606
0.38352042 0.21820283 0.088342912
0.39067036 0.21779355 0.086675428
0.39261001 0.21822979 0.090360619
0.39910764 0.21736383 0.085976563
0.28433743 0.22835243 0.086040102
0.30608273 0.20197946 0.092532545
0.30522004 0.20366119 0.089506567
0.50734192 0.19765373 0.09646713
0.5118131 0.19641837 0.094928354
0.51304436 0.19589731 0.09588249
0.30522591 0.20518181 0.093622416
0.30698276 0.20779809 0.092048168
0.3983067 0.20578353 0.09466289
0.40240145 0.20562644 0.095541187
0.40533188 0.20678325 0.095218241
0.50611007 0.19839671 0.094979838
0.50897664 0.19768901 0.095195524
0.51486886 0.19585842 0.094550088
0.52014422 0.19773762 0.09493456
0.52559692 0.20062526 0.095148049
0.52981681 0.2028285 0.095338754
0.29566804 0.209534 0.093543716
0.2989023 0.20827357 0.093961999
0.30066311 0.20922987 0.093753882
0.3066296 0.20934702 0.094643719
0.33512616 0.21369864 0.096246637
0.34099993 0.21340722 0.09464936
0.34487194 0.21332809 0.092009999
0.37964687 0.21177033 0.090525992
0.38356876 0.21129547 0.09205319
0.39694843 0.20594114 0.094523206
0.40198931 0.20638655 0.094520301
0.40654439 0.20760144 0.095368028
0.48416838 0.21203341 0.096084818
0.48881179 0.21227531 0.095481105
0.49814019 0.21006687 0.096741728
0.50358063 0.20698376 0.095257223
0.50831282 0.20329396 0.0951951
0.51370388 0.20003214 0.097007453
0.51817721 0.20115553 0.097515859
0.52520019 0.20532937 0.09480878
0.52990311 0.20746636 0.094723023
0.54164857 0.21223901 0.094405577
0.54439437 0.21261847 0.095494315
0.55822623 0.21387935 0.09278696
0.29380596 0.21208492 0.096837938
0.29757622 0.21276209 0.094963551
0.30038318 0.21119624 0.09516447
0.31819627 0.21715377 0.094360277
0.32636699 0.21694717 0.094182551
0.33375925 0.21675375 0.093973711
0.34055376 0.21623313 0.094360113
0.34628406 0.21536253 0.09235464
0.35395545 0.21517374 0.091420874
0.35965121 0.21489447 0.092174463
0.36838049 0.21607409 0.094639882
0.37833267 0.21482661 0.092082426
0.38315672 0.21458466 0.093102187
0.38817823 0.21362136 0.094204068
0.39773214 0.21091063 0.095445633
0.40108985 0.20942809 0.095498726
0.40996221 0.21097292 0.094400644
0.41507363 0.21325408 0.094872721
0.42227355 0.21441451 0.094667129
0.42885455 0.21587174 0.094201528
0.43693236 0.21630891 0.09474767
0.44387022 0.21673715 0.093283974
0.45161024 0.21604383 0.092394866
0.45786572 0.21486759 0.093433715
0.46676436 0.21381457 0.093868725
0.47307068 0.21264912 0.095564343
0.47994974 0.21266833 0.095609054
0.48985729 0.21321005 0.094513074
0.49716061 0.2121865 0.094298556
0.50188231 0.20981857 0.094774552
0.50614506 0.20704579 0.094690718
0.52747828 0.20905717 0.095177032
0.53374296 0.21128535 0.095521063
0.53981298 0.21293356 0.095061705
0.54750842 0.21356043 0.094703764
0.55501461 0.21470311 0.094946101
0.56049669 0.21572547 0.094765313
0.56390429 0.21250238 0.09698984
0.56545275 0.21051028 0.095494047
0.28936869 0.22025342 0.09473338
0.29126173 0.21909009 0.094261274
0.29462957 0.2166231 0.094018079
0.29801989 0.21480544 0.094391704
0.3036873 0.21481548 0.094388098
0.31147116 0.21654812 0.094322033
0.31859148 0.21747215 0.094605371
0.32562113 0.21756431 0.094538838
0.33196396 0.21721952 0.0944544
0.34075195 0.21596132 0.094284065
0.34619987 0.21575019 0.093969859
0.35349593 0.21549514 0.094359897
0.36107424 0.2152209 0.094427809
0.36768952 0.21591459 0.094123252
0.37495717 0.21676897 0.09397386
0.38144746 0.2158072 0.093917221
0.3889901 0.21422642 0.094248436
0.39422938 0.21230155 0.094397694
0.40471822 0.21085215 0.094410762
0.41002283 0.21184786 0.09435828
0.41627654 0.21389391 0.094784126
0.42323351 0.21483253 0.094851539
0.43056497 0.21525969 0.09499789
0.43733093 0.21560995 0.09466964
0.44422013 0.21598677 0.094331309
0.45191646 0.21563463 0.094597027
0.45852229 0.21440616 0.094159096
0.46560213 0.21319768 0.094053753
0.47272179 0.21234973 0.094544284
0.47950283 0.21157703 0.094693571
0.48645058 0.21210638 0.094555661
0.49359185 0.21292743 0.094762981
0.49854919 0.21208109 0.0936848
0.52921325 0.20964119 0.094316036
0.53436047 0.21139772 0.0944499
0.53906393 0.21267605 0.094128832
0.56409574 0.21528433 0.094236791
0.56206083 0.21383721 0.096148178
0.28607455 0.22271456 0.09682925
0.28694534 0.22250651 0.094722815
0.29039916 0.2227447 0.09371876
0.28954494 0.21944667 0.094553337
0.29637176 0.21541916 0.094529681
0.3052035 0.21553963 0.094763376
0.31142068 0.21685262 0.094769865
0.31781095 0.21805382 0.094378449
0.3340877 0.2166103 0.097601123
0.33982337 0.21607126 0.096326157
0.34687999 0.21542592 0.095496729
0.35336974 0.21495456 0.094819091
0.36007392 0.21509886 0.094788507
0.36606273 0.21528001 0.094692938
0.37492743 0.21636529 0.095512845
0.38033164 0.21585967 0.095471129
0.40387845 0.21034256 0.097856104
0.41729268 0.21341862 0.093260922
0.42039502 0.21337865 0.092073046
0.43033367 0.21425666 0.094575644
0.4369778 0.2151545 0.091920942
0.44642568 0.21504748 0.093647733
0.44942757 0.21488307 0.093926325
0.47445753 0.21067055 0.095987342
0.47833315 0.21114016 0.093294531
0.49502516 0.21104626 0.090731442
0.51107883 0.21471639 0.092218034
0.51437277 0.21292184 0.096131012
0.52387714 0.21218367 0.093000829
0.5411545 0.21105234 0.097737849
0.55153042 0.21262093 0.093330614
0.55649257 0.21338873 0.094457604
0.56439465 0.21399775 0.093777329
0.56270307 0.21123236 0.093346208
0.28769469 0.23000707 0.093608856
0.28732607 0.22850007 0.093596578
0.28598875 0.2224101 0.094304554
0.30191675 0.21869124 0.091987424
0.37226447 0.21446024 0.092291296
0.37289435 0.21506968 0.094401628
0.38559923 0.21713321 0.098176137
0.38857892 0.21858631 0.098902807
0.40047014 0.21714987 0.096634142
0.41007346 0.21481229 0.094426148
0.41484749 0.21411912 0.095742442
0.42045268 0.21385209 0.096701562
0.42902756 0.21424939 0.094553515
0.43688938 0.21495005 0.093239546
0.44429445 0.21495228 0.095118314
0.44774139 0.21479963 0.096185021
0.49328884 0.21196112 0.088820472
0.49801022 0.2117334 0.091748908
0.50509948 0.2153801 0.093473129
0.51012027 0.21509092 0.093552992
0.51527667 0.21357806 0.094367661
0.52021718 0.21261467 0.095151708
0.52638113 0.21429238 0.094983168
0.53416282 0.2122445 0.094974786
0.54233253 0.21145968 0.094856724
0.54871505 0.21190479 0.094785556
0.55467016 0.21327588 0.094696
0.55845082 0.21395475 0.094943307
0.55942351 0.21726292 0.094793811
0.28445634 0.22301942 0.092310846
0.28634778 0.22073324 0.092928231
0.29119173 0.21970078 0.093333133
0.29741141 0.21886694 0.094096139
0.30357149 0.21871316 0.094635658
0.31107807 0.21924555 0.094504818
0.31699094 0.21870749 0.094951965
0.32292944 0.2181538 0.094774969
0.32974765 0.21755074 0.094913401
0.33429629 0.21660224 0.092676289
0.38210815 0.21821626 0.091222271
0.38496423 0.21827039 0.092627667
0.38990879 0.21914762 0.095598727
0.39284733 0.21813406 0.096355692
0.40098304 0.21809791 0.098705836
0.28365317 0.22578698 0.090718605
0.30617997 0.2016491 0.096684352
0.51123488 0.19646122 0.10179572
0.51354468 0.19593585 0.10018791
0.51890647 0.19664072 0.10162423
0.30172098 0.20532858 0.0998514
0.30422613 0.20675145 0.095703766
0.39409113 0.20716475 0.1024427
0.39850765 0.2056414 0.10081106
0.40264881 0.20513125 0.10168004
0.40597868 0.20634864 0.10227651
0.41439095 0.20949247 0.1009075
0.50631881 0.19874312 0.10128078
0.50893229 0.19752754 0.10167725
0.51480013 0.19550937 0.1019227
0.52077115 0.19727464 0.10189937
0.5253576 0.19974649 0.10090525
0.53002203 0.20210171 0.10252737
0.29536664 0.20992297 0.10278095
0.29845625 0.20907873 0.10196841
0.29874814 0.20842206 0.10135389
0.30439803 0.20791402 0.10351829
0.30794692 0.20909512 0.10202104
0.34036565 0.21393897 0.096637547
0.39350256 0.20725207 0.10355263
0.39749306 0.20561281 0.10183509
0.4022994 0.20500624 0.10182075
0.40668955 0.20647201 0.10213406
0.41549471 0.21027406 0.10347914
0.41955271 0.21273804 0.10385378
0.42394191 0.21437177 0.10108106
0.44644997 0.21647608 0.10110706
0.48324198 0.21199054 0.10022715
0.48768571 0.21189991 0.10082784
0.49870729 0.20847766 0.10247283
0.50268453 0.20721005 0.10275531
0.50888652 0.2033115 0.10211226
0.51388484 0.20159377 0.10181327
0.52042705 0.20166166 0.10201525
0.52526951 0.20479633 0.10232104
0.52943081 0.20584725 0.10290095
0.54053158 0.21151197 0.10314195
0.54571605 0.21237035 0.10266162
0.55310702 0.21419887 0.10373444
0.55735564 0.21449493 0.10330205
0.29392511 0.21223207 0.099815555
0.29775274 0.21125738 0.10148466
0.3001582 0.2127675 0.10074586
0.30219021 0.21315154 0.10426578
0.31790039 0.21745379 0.10152531
0.32000965 0.21752958 0.099526212
0.33454761 0.217537 0.10142812
0.33959508 0.2165228 0.098591834
0.36397105 0.21779311 0.10206272
0.3682428 0.21747568 0.10061356
0.37739596 0.21703058 0.099828959
0.38434899 0.21574022 0.10020602
0.38952866 0.21464017 0.10129733
0.39775714 0.21184105 0.10160188
0.40149185 0.21000683 0.10093049
0.41505635 0.21289384 0.10155758
0.42241195 0.21425465 0.1023541
0.42883778 0.21552354 0.10257262
0.43620872 0.21621701 0.10130779
0.4446798 0.21665041 0.10053964
0.45058611 0.21662837 0.10135531
0.45904663 0.21556078 0.102201
0.46708122 0.21312961 0.10002259
0.47370896 0.21213911 0.10049563
0.47935668 0.21216604 0.10228057
0.49054158 0.21237954 0.10197484
0.4968366 0.21131022 0.10246707
0.50218463 0.20856209 0.10162929
0.50549507 0.2063458 0.10170097
0.51305521 0.20389926 0.10282583
0.52832901 0.20854259 0.10187681
0.53456104 0.21077253 0.10101648
0.54031599 0.2125285 0.10156428
0.54757231 0.21424001 0.10178981
0.55449522 0.21517418 0.10182631
0.56109846 0.2155952 0.10216192
0.56453115 0.21114342 0.10098888
0.56508565 0.20915143 0.099837519
0.28979442 0.21902548 0.10193155
0.2920168 0.21877879 0.10149267
0.29556274 0.2164901 0.10161804
0.2982738 0.21465833 0.10153344
0.30403525 0.21486582 0.1019691
0.31117308 0.21649094 0.10150206
0.31821522 0.21789154 0.10119557
0.32518879 0.21843137 0.10121783
0.33111221 0.21823975 0.10090104
0.33927161 0.21705465 0.09956041
0.34640613 0.21707807 0.10070058
0.35342115 0.21581522 0.099870749
0.36128235 0.21658914 0.10048963
0.36737651 0.21728082 0.10100333
0.37510082 0.21787281 0.10092425
0.38237315 0.21731271 0.10079332
0.38978276 0.21515714 0.10095886
0.39466479 0.21331847 0.1012825
0.40339103 0.21022348 0.10200126
0.41025588 0.21133293 0.10140648
0.41685909 0.21344492 0.10141315
0.42323351 0.21474293 0.10103774
0.43016177 0.21506649 0.10100703
0.43651441 0.21544373 0.1008046
0.4444339 0.21630949 0.10234036
0.45177031 0.21587017 0.10154926
0.45943049 0.21439077 0.10194552
0.46557432 0.21338287 0.10184384
0.47242954 0.21185374 0.10091394
0.47900799 0.21112801 0.10086294
0.48649374 0.21117195 0.10096162
0.49296346 0.21089016 0.10086621
0.49951261 0.20950831 0.10135803
0.53005093 0.20932233 0.10227694
0.53726768 0.2115054 0.10344984
0.53929049 0.21182539 0.10461731
0.56439704 0.21444061 0.10165364
0.5609929 0.21307369 0.10125268
0.28658879 0.22237541 0.099456914
0.29079947 0.22084256 0.098600782
0.29012671 0.21980698 0.10151048
0.29713127 0.21511121 0.10145786
0.30486888 0.21603721 0.10129674
0.3112469 0.21780472 0.10117972
0.31765878 0.21803547 0.10128675
0.32767567 0.21819924 0.10367576
0.33257741 0.21760699 0.10177933
0.338756 0.21689728 0.10129718
0.34642425 0.21633208 0.10194178
0.35320702 0.21538061 0.10139441
0.36028272 0.21607949 0.10122288
0.3673476 0.21696612 0.1037958
0.37335709 0.216869 0.10158528
0.40407646 0.21038176 0.10176924
0.40859926 0.2104972 0.10214309
0.4166109 0.21231815 0.10217155
0.43136221 0.21440223 0.098414719
0.43943354 0.21514064 0.10254224
0.44360754 0.21537407 0.10129034
0.44941798 0.21473427 0.10089771
0.4595741 0.21401125 0.1045089
0.46423978 0.21278237 0.10367014
0.47101578 0.2112039 0.10282107
0.47585604 0.210592 0.098123208
0.51635736 0.21266836 0.099441439
0.51870602 0.21252228 0.10312017
0.52536875 0.21334197 0.10092004
0.53312546 0.21198678 0.1045342
0.54357022 0.21129757 0.10133545
0.55791396 0.21315517 0.10131366
0.56284809 0.21236789 0.10163328
0.56138718 0.21210939 0.10154341
0.28903759 0.22809108 0.10110325
0.28808084 0.22715572 0.09937679
0.28611419 0.2193213 0.10129579
0.33322442 0.21755736 0.10414467
0.3414734 0.21654089 0.10572415
0.34433591 0.21580394 0.10491519
0.38662359 0.21792176 0.10226218
0.38840368 0.21831146 0.10229835
0.41323107 0.2155599 0.1018798
0.42068163 0.21409497 0.10172705
0.42995676 0.21426722 0.10189469
0.43780702 0.21438748 0.10294913
0.4438512 0.21477352 0.1014461
0.44799542 0.2147339 0.10216079
0.50110817 0.2120506 0.10098165
0.50531948 0.21465804 0.10028405
0.51058716 0.21582438 0.10142589
0.51537693 0.21353771 0.10142201
0.52063102 0.21369435 0.10183646
0.52637511 0.21398488 0.10140398
0.5337283 0.21269986 0.10186578
0.54284936 0.21129809 0.10181198
0.54877323 0.21194145 0.10169479
0.55424684 0.21305293 0.10149519
0.55891126 0.21354586 0.1009161
0.55966532 0.21683665 0.099848196
0.28557676 0.22128704 0.098986812
0.28567952 0.22164857 0.098749749
0.29298112 0.21906003 0.10077008
0.29815912 0.2191091 0.1011828
0.30397287 0.21887301 0.10202285
0.31122097 0.21864401 0.1018838
0.31763607 0.21886177 0.10216078
0.32284933 0.21900621 0.102244
0.32841504 0.21847276 0.10239919
0.33486953 0.21792918 0.10537291
0.38985988 0.2185839 0.10272523
0.3948648 0.21803901 0.10243943
0.40097719 0.21776094 0.10161658
0.4027046 0.21843661 0.10365955
0.30453172 0.20243683 0.10631207
0.50967783 0.196757 0.10700695
0.51469004 0.19524187 0.11126783
0.30028248 0.20683894 0.11080645
0.30294904 0.20469187 0.10679688
0.39304578 0.20769414 0.10667235
0.39891258 0.20576173 0.10816937
0.40328762 0.20514584 0.10846081
0.40629053 0.20539774 0.10839905
0.41446552 0.20829566 0.1115112
0.49892339 0.20336281 0.11203321
0.50608784 0.19871889 0.108216
0.50817549 0.19763806 0.10874747
0.51514322 0.19524755 0.10846882
0.52069628 0.19707997 0.10888981
0.52628881 0.19946902 0.10998808
0.53131491 0.20231886 0.10921702
0.29446435 0.21083984 0.10804427
0.29747427 0.20920412 0.10805497
0.2985048 0.20783603 0.10884053
0.30417785 0.20883673 0.1084829
0.30744293 0.20964089 0.10791741
0.39359993 0.20719764 0.10531447
0.39759576 0.20579298 0.10771947
0.40265098 0.20493063 0.1084181
0.40721321 0.2054974 0.10877353
0.41562617 0.20867954 0.11084289
0.42342964 0.21401547 0.11161326
0.44244823 0.21724413 0.11189413
0.44632679 0.2168909 0.10606805
0.49835166 0.20747809 0.10792256
0.50299817 0.20571192 0.10973273
0.50730407 0.20280156 0.10854238
0.51397622 0.20032935 0.10851823
0.52174056 0.20211308 0.10847763
0.52525383 0.20372382 0.10872462
0.5320487 0.20552127 0.10912998
0.53821123 0.20992114 0.10949252
0.54446095 0.21233781 0.1099808
0.55156142 0.21417803 0.10766885
0.55725497 0.21413976 0.11089438
0.29310781 0.21299332 0.1112274
0.29679349 0.21264881 0.10892564
0.298507 0.21389627 0.1084823
0.30305043 0.2123491 0.10563406
0.30786306 0.21424671 0.10821612
0.31646898 0.21760084 0.10666338
0.31923747 0.21840446 0.10943928
0.34063718 0.21876238 0.10719953
0.34357443 0.21806674 0.10571836
0.3643834 0.2182976 0.10506262
0.36899257 0.21873593 0.1079391
0.37799266 0.21832708 0.10730038
0.3858085 0.2165578 0.10719978
0.39074096 0.21517408 0.10775034
0.39722613 0.21284683 0.10826532
0.40332365 0.21058537 0.10839366
0.40589598 0.21045917 0.11146948
0.41576561 0.2130644 0.10890621
0.42199597 0.21352047 0.10906502
0.42837191 0.21508273 0.10893465
0.43458965 0.21579449 0.10801448
0.44530147 0.21728365 0.10943003
0.4502883 0.21694408 0.10812142
0.4754864 0.21216395 0.10573239
0.48188445 0.21219283 0.10859903
0.48888114 0.21225017 0.10862502
0.49664006 0.2103911 0.10881181
0.50158954 0.20808083 0.10830764
0.50526255 0.20592953 0.10792102
0.52509642 0.207224 0.10693143
0.52815992 0.2077636 0.10829772
0.53446174 0.20948437 0.1088388
0.54029018 0.21209659 0.10883269
0.54757082 0.21418147 0.10890014
0.55419505 0.21495108 0.1090375
0.56158221 0.21548267 0.10844283
0.5632742 0.21441087 0.10840575
0.566248 0.20981923 0.10952656
0.2890673 0.21938242 0.10875082
0.29102492 0.21931568 0.10878366
0.29495797 0.21695115 0.1088086
0.29700011 0.2146813 0.1086484
0.30416226 0.21534093 0.10821892
0.3109605 0.21743459 0.10805957
0.31790635 0.2185861 0.10799105
0.32427403 0.21917659 0.10743586
0.33187547 0.21914761 0.10634306
0.34033176 0.21805771 0.10709709
0.34455401 0.21788912 0.10725807
0.35460138 0.21656416 0.10727715
0.36120716 0.21728295 0.10508216
0.36918253 0.21846604 0.10703021
0.37515885 0.21911624 0.10796607
0.38310847 0.21803483 0.10783032
0.39017498 0.21586354 0.10758051
0.39519551 0.21399684 0.10748826
0.40456644 0.21067324 0.10849339
0.40974119 0.21144401 0.10812218
0.41666877 0.21342179 0.10885234
0.42388597 0.21407932 0.10837163
0.43020484 0.21474022 0.1085609
0.43689123 0.21581681 0.10873505
0.44422966 0.21604502 0.10681874
0.45194533 0.21623237 0.10823431
0.45784324 0.21486321 0.10718054
0.4745715 0.2118755 0.1068815
0.47962311 0.21153234 0.10868637
0.48690808 0.21149358 0.10853507
0.49324176 0.21112886 0.10869357
0.49945706 0.20930833 0.10899701
0.5033766 0.20689994 0.11073996
0.5307256 0.20895573 0.10735162
0.53603756 0.21114817 0.10870386
0.53956723 0.21181843 0.10657946
0.54963058 0.21428081 0.10762098
0.56456423 0.21299022 0.10873293
0.56553978 0.20854783 0.10554199
0.28541848 0.22211288 0.11090392
0.28656921 0.22091556 0.1105875
0.2897464 0.22009175 0.10855124
0.29778805 0.21486892 0.10699151
0.30570731 0.21627052 0.10893184
0.31004089 0.21735974 0.10908742
0.31886789 0.21890219 0.10908519
0.32580671 0.21917152 0.10905604
0.33234233 0.2189782 0.10950354
0.33970493 0.21749939 0.1080792
0.34443679 0.21682812 0.10664412
0.35198623 0.2157038 0.10967755
0.36224356 0.21582182 0.10668645
0.3685472 0.21710004 0.10804543
0.37308654 0.21769926 0.10914589
0.38022882 0.21840292 0.10866331
0.41741067 0.21347235 0.10788381
0.42214158 0.21327987 0.11116121
0.43338066 0.21407396 0.11080115
0.43713072 0.21470155 0.10925652
0.44451728 0.21551333 0.10770767
0.45226315 0.21513738 0.10862397
0.45700377 0.21415032 0.10862606
0.46389356 0.21297342 0.10911237
0.47010142 0.21143788 0.10578446
0.50716692 0.21424608 0.10569298
0.51144809 0.21439482 0.11027686
0.52885586 0.21395618 0.1121875
0.53806055 0.21151879 0.11096416
0.55705959 0.21249226 0.10828449
0.56275046 0.21204489 0.10823563
0.56024629 0.2136478 0.10731331
0.28910673 0.22492282 0.10738298
0.29052916 0.22539878 0.10904402
0.28821442 0.21619149 0.10826021
0.30060101 0.21914449 0.11055444
0.30382487 0.21856314 0.11251383
0.31298354 0.21871321 0.11010762
0.31537709 0.21911895 0.11052598
0.32616326 0.21893494 0.11103002
0.33050671 0.21823083 0.11024835
0.3378683 0.21758296 0.10986039
0.34371188 0.21605228 0.10824616
0.36122116 0.21436687 0.10951315
0.38052014 0.21773329 0.11266121
0.38641965 0.21944726 0.1083737
0.38844064 0.21866398 0.10675164
0.39789355 0.21803801 0.10960671
0.4150655 0.21508247 0.10785323
0.4218806 0.21415362 0.10805351
0.42943913 0.21382964 0.10823376
0.43755838 0.21443905 0.10754153
0.44543543 0.21540959 0.11042731
0.44922417 0.21481936 0.10945
0.45411545 0.2143884 0.11056163
0.50096273 0.21115635 0.10884371
0.50532186 0.21416837 0.1086696
0.51059443 0.21580026 0.10819632
0.5156889 0.21378715 0.10854977
0.52086675 0.21371113 0.10917705
0.52621073 0.21466647 0.10907438
0.53414822 0.21212585 0.10908473
0.54230309 0.21165952 0.10847871
0.54915971 0.21195476 0.10855514
0.55338269 0.21278428 0.10846038
0.55834818 0.21304938 0.10781979
0.28326014 0.22011158 0.10656609
0.29084685 0.21851075 0.11059925
0.29328713 0.21922331 0.10789143
0.29816446 0.21892419 0.10836962
0.30396295 0.21882677 0.10900507
0.31185803 0.21885091 0.10893793
0.3184481 0.21904112 0.10924325
0.32255673 0.21953009 0.1093791
0.32954946 0.21878926 0.11004834
0.33447203 0.2180476 0.10734734
0.38147122 0.21829852 0.11061135
0.38551173 0.22021505 0.11343966
0.39008731 0.21884264 0.1091254
0.39375636 0.21850543 0.1077854
0.40076151 0.21789193 0.10829789
0.40262631 0.21829036 0.10757595
0.30275166 0.204072 0.10963399
0.51082945 0.19616999 0.11486043
0.51433921 0.19518049 0.11564939
0.52102 0.1962534 0.11726066
0.52248895 0.19668038 0.11718457
0.29735026 0.20755011 0.11588608
0.29934797 0.20790266 0.11404928
0.29975286 0.20584556 0.11014038
0.39973694 0.20567189 0.11511363
0.40364504 0.20497128 0.11532146
0.40637597 0.20516109 0.11600531
0.41254586 0.2071314 0.11462793
0.49891356 0.20341156 0.11363282
0.50594795 0.19855167 0.11598856
0.50874722 0.19713496 0.11569896
0.5150004 0.19497328 0.1156514
0.52038604 0.19642062 0.11572068
0.52591026 0.19887073 0.115751
0.53005821 0.20113254 0.1173153
0.29372829 0.211596 0.11543596
0.29700583 0.20916986 0.11569058
0.29781169 0.20820828 0.11549547
0.30338043 0.20928316 0.11337966
0.30692181 0.21119174 0.11255851
0.33600807 0.21782231 0.11526099
0.39827231 0.20588343 0.11540058
0.40297648 0.20496835 0.11527979
0.40781629 0.20611633 0.11562873
0.41338056 0.2085077 0.11730065
0.4177618 0.21114136 0.1161384
0.42583916 0.21330673 0.11745358
0.441331 0.21716595 0.11347048
0.49225682 0.21047366 0.11631098
0.49722147 0.20865852 0.11650184
0.50410992 0.20539375 0.11408509
0.50683445 0.20385265 0.11553583
0.51456833 0.19877264 0.11304674
0.52231157 0.20159233 0.11298343
0.52457708 0.2026086 0.11571446
0.53345662 0.20743322 0.11298518
0.53811246 0.21033652 0.11418892
0.54478306 0.21273464 0.11612464
0.55395836 0.21415424 0.11620063
0.55916286 0.21472931 0.11576752
0.29361886 0.21210676 0.11567407
0.29697752 0.21361309 0.11504234
0.29915029 0.21322286 0.11580781
0.30110416 0.21321577 0.11487212
0.3069455 0.21621138 0.11466346
0.31605363 0.21846855 0.1135919
0.31959805 0.21921925 0.11416864
0.33483827 0.22060068 0.11495329
0.33673602 0.22000994 0.11390956
0.37112167 0.2192893 0.1145596
0.3773652 0.21935451 0.11560868
0.38596845 0.21759859 0.11480283
0.39198875 0.21520171 0.11494644
0.39776531 0.21279608 0.11465153
0.40304825 0.21090901 0.11565225
0.40633923 0.2098923 0.1160134
0.41592395 0.21164271 0.11504256
0.42146382 0.21290317 0.11608955
0.42808107 0.21464849 0.1160584
0.43454292 0.21589015 0.11659841
0.44315124 0.21764304 0.11580297
0.44868767 0.21718109 0.11230079
0.48291314 0.21268532 0.11516871
0.48957804 0.21239078 0.11613276
0.49633291 0.21031696 0.11539078
0.50175065 0.20796223 0.1159759
0.5053125 0.20587367 0.11622612
0.52765 0.20658839 0.11521146
0.53470004 0.20881987 0.11552278
0.54014248 0.21220744 0.11578213
0.54764223 0.21421023 0.11534257
0.55440092 0.21474545 0.11575583
0.56220078 0.21510145 0.11624786
0.57187885 0.20989434 0.11580209
0.56278813 0.20774828 0.11526082
0.29003853 0.21841154 0.11606472
0.29184788 0.21913086 0.11474297
0.29448169 0.21749286 0.11509015
0.29735443 0.21442287 0.115293
0.30352092 0.21597451 0.11531323
0.31007895 0.2181382 0.11556036
0.31734291 0.21952909 0.11535277
0.32379207 0.22043386 0.11479115
0.33218497 0.22127391 0.1167338
0.33842206 0.22013964 0.11565584
0.34563023 0.21810699 0.11475974
0.36926252 0.21873692 0.11453196
0.37582868 0.21993256 0.11528129
0.38334811 0.21954204 0.1151854
0.39033833 0.21753268 0.11536919
0.39507979 0.2152507 0.11532371
0.40466297 0.21050018 0.1156484
0.40964818 0.21081047 0.11522001
0.41682315 0.21264444 0.11515331
0.42349169 0.21410453 0.11561862
0.42936629 0.21438093 0.11571445
0.43506038 0.21572782 0.11578437
0.44496885 0.21734855 0.11639781
0.4499146 0.21676961 0.11430215
0.45528734 0.21516281 0.11209319
0.47479588 0.2125936 0.1157818
0.47946221 0.21277051 0.11571982
0.48606783 0.2118998 0.1154506
0.49184799 0.21188904 0.1142678
0.50034493 0.20851241 0.11395727
0.50344211 0.20692654 0.11275709
0.5433709 0.21309081 0.11615843
0.54577976 0.21354243 0.11556531
0.56442237 0.21266249 0.11546876
0.56758374 0.20801215 0.11559244
0.28570059 0.22159347 0.11269093
0.28715998 0.22197866 0.11266069
0.29115164 0.22211091 0.11437996
0.29256737 0.22234827 0.11493354
0.29788163 0.21469304 0.11613645
0.30501372 0.21663782 0.11511962
0.31067896 0.21763092 0.11415588
0.31949463 0.21939059 0.11490406
0.32500732 0.21945082 0.11558625
0.33061659 0.21949466 0.11527503
0.33961681 0.21846522 0.11672858
0.34649172 0.21781105 0.11605479
0.35000426 0.2161523 0.11240415
0.36975291 0.21731718 0.11511464
0.37180808 0.21783191 0.11425169
0.41216666 0.21079378 0.11678003
0.41745678 0.21208686 0.11531872
0.42407909 0.21285634 0.11699962
0.43235993 0.21384607 0.11597442
0.4378131 0.21470542 0.11504372
0.44438475 0.21585932 0.1158376
0.4521516 0.21594685 0.11476272
0.45692417 0.21497026 0.11361822
0.46168327 0.21422435 0.11251422
0.51032305 0.21539952 0.11540882
0.51513678 0.21434802 0.11852224
0.53826654 0.21165477 0.1142158
0.54344672 0.21188721 0.11671536
0.55076069 0.21227339 0.11667302
0.55368268 0.21228847 0.1150214
0.56121373 0.21132135 0.1149285
0.55954081 0.21278343 0.11394447
0.28980231 0.22371225 0.11195178
0.29123667 0.22480081 0.11312808
0.2938928 0.21709704 0.11484985
0.30099511 0.2194636 0.11257771
0.30424002 0.21764039 0.11553925
0.31661901 0.21925873 0.11537466
0.32497072 0.21918082 0.11626574
0.33033711 0.21931435 0.11721399
0.33979064 0.21777223 0.11455436
0.34150302 0.21749082 0.11384717
0.38049862 0.21808945 0.11618783
0.38389632 0.21919017 0.11420877
0.39717513 0.21796657 0.11637224
0.39788246 0.21772459 0.11499629
0.4098967 0.21544003 0.11859619
0.41404355 0.21492428 0.11587152
0.42446548 0.21400951 0.11576828
0.4304966 0.21399719 0.11533605
0.43625677 0.21452403 0.11609416
0.44530848 0.21547049 0.114775
0.45007083 0.21558011 0.116533
0.49970341 0.21081477 0.11703406
0.50551808 0.21558022 0.11648008
0.51016563 0.2153361 0.11615803
0.5160417 0.21377458 0.11616854
0.52065563 0.21405092 0.11582316
0.52628773 0.21447851 0.11593501
0.53386945 0.21243997 0.11576999
0.54179668 0.21188349 0.11563239
0.54839379 0.21194115 0.11581431
0.55348986 0.21241333 0.11496231
0.55802286 0.21318629 0.11490454
0.29069591 0.21878444 0.1123371
0.29336902 0.21891361 0.1142257
0.29885444 0.21941672 0.11534992
0.30402645 0.21909049 0.11618723
0.3114368 0.21869735 0.11603495
0.31780174 0.21951649 0.11585926
0.32234064 0.21988836 0.11637316
0.32968119 0.21921071 0.11668508
0.33406138 0.21925426 0.11976698
0.38175997 0.21910986 0.11815402
0.38482991 0.22132179 0.1181777
0.39038733 0.21906495 0.1159988
0.39201435 0.21882196 0.11582027
0.40015918 0.21821438 0.11465938
0.50718403 0.19756682 0.12397408
0.50979328 0.19659962 0.12328245
0.51442373 0.19509891 0.12247209
0.51951623 0.19467227 0.12301786
0.52278519 0.19640635 0.12312426
0.39991063 0.20568515 0.11904058
0.40458137 0.20507559 0.12140432
0.40697163 0.20491904 0.1229724
0.41329119 0.20706627 0.12124054
0.50550729 0.19840029 0.12243542
0.50893658 0.19693223 0.12274934
0.51476419 0.19503964 0.12237163
0.51989526 0.1954432 0.12215015
0.52667099 0.19881772 0.12258336
0.53108823 0.20176204 0.12309244
0.29287556 0.20984943 0.1240546
0.29552451 0.20938167 0.12304313
0.29675949 0.20840116 0.12263743
0.30286393 0.21059385 0.12082034
0.30719525 0.21436459 0.12435402
0.39887419 0.2062121 0.12261976
0.40298232 0.20536669 0.12274639
0.40818632 0.20581236 0.12303646
0.41320363 0.20798935 0.12366033
0.42246488 0.21189094 0.12056508
0.42475587 0.21350969 0.12224462
0.48668456 0.21215676 0.12345241
0.49108282 0.21017443 0.12240345
0.49802226 0.20831889 0.12281686
0.50426286 0.20409255 0.12340359
0.50706112 0.20236747 0.12246991
0.52212781 0.1997321 0.12300843
0.52507526 0.2024584 0.12268941
0.53298026 0.20559649 0.12355049
0.53781956 0.21033582 0.12432369
0.54521132 0.21294105 0.12242131
0.55308372 0.21380818 0.12340928
0.56199688 0.21507502 0.12057671
0.56422383 0.21511316 0.12170565
0.29411471 0.21231429 0.12292309
0.29787171 0.21308093 0.12243716
0.29886076 0.21439451 0.12201961
0.29974672 0.21593368 0.12216007
0.30771592 0.21612501 0.12330711
0.31717974 0.21990511 0.12176769
0.32215887 0.22065973 0.12256606
0.33014804 0.22081986 0.1250947
0.33649278 0.22107731 0.12279425
0.36827198 0.21934634 0.1246011
0.37686837 0.21968752 0.12298933
0.38578311 0.21766706 0.12306425
0.39200914 0.21619099 0.12301308
0.39698648 0.21340203 0.12314619
0.40362096 0.21051282 0.12231778
0.40630257 0.20983979 0.12018929
0.41533187 0.21075067 0.12250613
0.42126599 0.21222655 0.12292044
0.42810968 0.21453029 0.12318492
0.43540326 0.216135 0.12325486
0.44190827 0.21725802 0.12346928
0.44817698 0.21815906 0.12611008
0.47710475 0.21434905 0.1236993
0.48253489 0.21341397 0.12248925
0.48992231 0.21266294 0.12265871
0.49636146 0.21064158 0.12280935
0.50162679 0.20748287 0.12230515
0.50491869 0.20557365 0.12152103
0.52594256 0.20638017 0.12601225
0.52737099 0.20692217 0.12277848
0.53447038 0.20822467 0.12265936
0.53980476 0.21201319 0.12244673
0.54784673 0.21456333 0.12291917
0.55552047 0.21508908 0.12302519
0.56276977 0.21475366 0.12288824
0.56985217 0.20401937 0.12321975
0.5649386 0.21407735 0.12359572
0.2899113 0.21746323 0.12054728
0.29275164 0.21766214 0.12196454
0.29612741 0.21686611 0.12165268
0.29679668 0.21494825 0.12261719
0.303655 0.21725051 0.12257133
0.30971172 0.21889608 0.12212632
0.31700477 0.2200896 0.12213394
0.32432717 0.22097701 0.1220436
0.33094379 0.22140427 0.12160275
0.33825245 0.22054477 0.12153412
0.36139762 0.21789196 0.12591535
0.36885178 0.21844628 0.12348298
0.37571576 0.21994741 0.12226039
0.38361719 0.21883669 0.12270124
0.39016584 0.21758975 0.12253314
0.3954052 0.21533059 0.12271363
0.40467244 0.2105165 0.12203714
0.40914863 0.2102747 0.12259497
0.41697544 0.21189478 0.12236697
0.42381412 0.21361201 0.12254009
0.42954692 0.21434519 0.12204152
0.43662885 0.21549085 0.12074754
0.44487986 0.21711865 0.12128595
0.45030829 0.21747865 0.12268512
0.45807877 0.21679457 0.12534536
