# .PCD v0.7 - Point Cloud Data file format
VERSION 0.7
FIELDS x y z
SIZE 4 4 4
TYPE F F F
COUNT 1 1 1
WIDTH 1421
HEIGHT 1
VIEWPOINT 0 0 0 1 0 0 0
POINTS 1421
DATA ascii
0.53669435 0.20860797 0.0671065
0.53973514 0.209732 0.067102812
0.27436668 0.21123721 0.065260656
0.27661744 0.21259396 0.068866253
0.30033302 0.21302348 0.067576237
0.30154195 0.21225566 0.067441233
0.3073107 0.212263 0.068429947
0.3093107 0.21099733 0.068522595
0.39490026 0.21120575 0.069772884
0.40369442 0.21300566 0.067942128
0.40774342 0.21216825 0.067540638
0.41066995 0.21288884 0.067368247
0.41390407 0.21430242 0.068978928
0.5004217 0.2181105 0.070022158
0.50552952 0.21700516 0.070176356
0.50903112 0.2133303 0.069066651
0.51335746 0.21391551 0.067715257
0.51766121 0.21225432 0.067435637
0.52150935 0.21339673 0.067706652
0.5282622 0.21404567 0.068631366
0.53082311 0.21050696 0.070752189
0.53998071 0.21058315 0.067904271
0.5530625 0.21657723 0.068766333
0.55625296 0.21761997 0.065550305
0.27864814 0.21714874 0.067902945
0.28759634 0.22207178 0.068318546
0.29547331 0.22024889 0.067119852
0.29725119 0.21773724 0.067257881
0.30385041 0.21625832 0.067841358
0.30767483 0.21725786 0.067578301
0.3108454 0.21928175 0.067120038
0.3184841 0.22200972 0.066520683
0.32303596 0.22197719 0.066394299
0.32743788 0.2219552 0.067724757
0.33174706 0.22136626 0.06763757
0.33631983 0.22204424 0.069199942
0.3392382 0.2193951 0.069507606
0.39471927 0.22021252 0.069748655
0.3993398 0.21962991 0.06863565
0.40426418 0.21935371 0.067347057
0.40772831 0.21795444 0.067211553
0.41207215 0.2178891 0.066882797
0.41576403 0.21964157 0.067004099
0.4212963 0.2207976 0.066732645
0.42687479 0.22307403 0.066979878
0.43328664 0.22297543 0.066845909
0.43860996 0.22217125 0.068209849
0.44153133 0.22168212 0.067627929
0.44782469 0.22234541 0.067278773
0.45348847 0.22233503 0.068068422
0.45659694 0.22133084 0.067255549
0.46199739 0.22217309 0.06729266
0.4677566 0.22106777 0.068827577
0.47329083 0.22127476 0.067029007
0.47662213 0.22134979 0.068390474
0.48205087 0.22111779 0.06980142
0.48800129 0.22199357 0.068960309
0.49343506 0.22179037 0.069213554
0.49849808 0.22134851 0.06801264
0.50415766 0.21918914 0.068180084
0.50773573 0.21767206 0.067349225
0.51252431 0.21712005 0.067654438
0.51632577 0.21551244 0.067093723
0.52216721 0.21725081 0.06784422
0.52642745 0.21750055 0.067348957
0.5322606 0.2174501 0.067087851
0.53703153 0.21683428 0.0677016
0.54142201 0.21723208 0.067982607
0.54834759 0.21731043 0.068354778
0.55349201 0.21808864 0.067899466
0.55647916 0.21719113 0.067591511
0.55865777 0.2178078 0.067680888
0.28075558 0.22139566 0.06626752
0.28206202 0.22388497 0.067759231
0.28763342 0.22276874 0.067199193
0.2923882 0.22112136 0.066862933
0.29851487 0.22113705 0.067597002
0.30205598 0.22423257 0.066719845
0.30718058 0.22242624 0.06717357
0.31235498 0.22329494 0.068013363
0.31766585 0.2230037 0.068018287
0.32237467 0.22405861 0.067803539
0.32760918 0.22298628 0.067221731
0.33234629 0.22307453 0.067211106
0.33722448 0.22363918 0.06760107
0.34140217 0.22575366 0.067732699
0.34735817 0.2264342 0.067477345
0.35248011 0.2262277 0.067682676
0.35742214 0.22534354 0.067611575
0.36274257 0.22550792 0.067588434
0.36769822 0.22589542 0.067868359
0.37327343 0.22604449 0.068021461
0.37694988 0.22699687 0.068124808
0.38219836 0.22667269 0.069091462
0.38897428 0.22548532 0.068825521
0.39381227 0.22472274 0.068354517
0.3979862 0.22309405 0.067502134
0.40264574 0.22246513 0.067406565
0.40752953 0.22241057 0.067386493
0.41230765 0.22125918 0.067449167
0.41793033 0.22103824 0.067333609
0.42243713 0.22169538 0.067470968
0.42713594 0.2228004 0.067304924
0.43228829 0.22295664 0.067641899
0.43710798 0.22322133 0.067429893
0.44185862 0.22290868 0.067476481
0.44742733 0.22308622 0.067513429
0.45253289 0.22308049 0.06726706
0.45738074 0.2234816 0.067116737
0.46281049 0.22242273 0.067255773
0.46731591 0.2226702 0.067572743
0.47241879 0.22251943 0.067573279
0.47707793 0.22231977 0.067497894
0.48235431 0.22297932 0.067418337
0.4875969 0.22246222 0.067338556
0.49302092 0.22229938 0.067051627
0.49848846 0.2227429 0.067866661
0.50218874 0.22232658 0.068648204
0.50726658 0.22215566 0.067401052
0.51208061 0.22254294 0.067513891
0.51800019 0.2229725 0.068166576
0.52242917 0.22282358 0.066330947
0.52782941 0.22108589 0.066253059
0.53275424 0.22132392 0.065266788
0.53708649 0.22215723 0.065212592
0.54207695 0.22152001 0.066895589
0.54683095 0.22242281 0.066436768
0.55146545 0.21996 0.067395911
0.55660069 0.22243735 0.067915738
0.28099701 0.227887 0.064875096
0.28217837 0.22915114 0.067764476
0.2872625 0.22739486 0.067183189
0.30256584 0.22528957 0.067707539
0.30669895 0.22543027 0.067010432
0.31388459 0.22661635 0.067104451
0.31723887 0.22825372 0.067251496
0.32260117 0.22851951 0.067703992
0.32826424 0.22856893 0.067776076
0.3325102 0.2279696 0.067390144
0.33760193 0.22781643 0.067579538
0.34218609 0.22717987 0.067234673
0.34735945 0.22732657 0.067576915
0.3523733 0.22657868 0.067294046
0.35722831 0.22510119 0.06781473
0.36286595 0.22777636 0.067082882
0.36740932 0.22733906 0.06731727
0.37229824 0.22621453 0.068050697
0.37687322 0.22762804 0.067263223
0.38293952 0.22824439 0.067448772
0.38791338 0.22815749 0.067617729
0.39223984 0.22682182 0.067644589
0.39796856 0.22701825 0.066882722
0.40211502 0.22658789 0.06850446
0.40803015 0.227091 0.067867704
0.41103041 0.22837755 0.06839101
0.41496387 0.2265176 0.068597957
0.42534235 0.22208533 0.067486152
0.4289526 0.22309363 0.067554548
0.43464077 0.22394253 0.067707434
0.43873391 0.22644737 0.06747403
0.44285271 0.22820781 0.067142479
0.44746548 0.22709584 0.067265011
0.45262244 0.22708985 0.066887803
0.4577114 0.22725241 0.066981278
0.46183658 0.22649427 0.068156131
0.46672496 0.22693139 0.067552559
0.47310823 0.22699739 0.067196257
0.4774411 0.22429128 0.066298395
0.48103234 0.22425288 0.066540621
0.4860833 0.22341442 0.06631393
0.49382988 0.22557887 0.067615665
0.49870515 0.22685061 0.068069778
0.50339407 0.22649029 0.068278931
0.50762564 0.22869046 0.067928836
0.51150167 0.22901554 0.06827464
0.51770002 0.22725895 0.067699641
0.52190763 0.2267419 0.06666781
0.52562118 0.22712812 0.065333322
0.52963114 0.22884984 0.062849596
0.5383507 0.22345693 0.06377583
0.54287505 0.22317143 0.0655246
0.54552627 0.22257651 0.066988133
0.55802798 0.22672546 0.066835515
0.56019902 0.22690724 0.069857471
0.27385998 0.23345621 0.066338122
0.27922171 0.23378655 0.06833265
0.28346014 0.23134801 0.068349056
0.28609052 0.23281734 0.067895442
0.29015422 0.23316309 0.069672801
0.30398718 0.23172224 0.068449043
0.31338626 0.2303977 0.06883461
0.31958908 0.23053393 0.066969872
0.32422599 0.22995327 0.068129465
0.32805991 0.2331664 0.067240633
0.33227077 0.23218848 0.066857979
0.33593541 0.23048562 0.067085117
0.34263676 0.23084281 0.066620067
0.34727651 0.23075466 0.065692082
0.35310873 0.23331229 0.066160992
0.35809916 0.23368718 0.067110531
0.36327791 0.2325922 0.066784844
0.36736912 0.2317315 0.066710129
0.37237817 0.23076171 0.065658659
0.37788779 0.23056346 0.065550901
0.38231122 0.23040448 0.065827653
0.3874155 0.23217879 0.067538485
0.39164764 0.2322634 0.066361092
0.39721721 0.23112024 0.067796156
0.40349764 0.23228562 0.068651922
0.40776491 0.23136273 0.068349414
0.41104722 0.23263034 0.067201719
0.41317874 0.23581222 0.069398388
0.44239897 0.23014534 0.06650684
0.44900486 0.22857723 0.065867893
0.4506605 0.23069474 0.065527879
0.45822567 0.2288757 0.066157147
0.46396238 0.23201007 0.066596203
0.46711671 0.23275687 0.067814827
0.47044429 0.23050164 0.066847622
0.47518796 0.23105845 0.066160224
0.50366682 0.23149766 0.06728363
0.50678086 0.23141657 0.067744814
0.51188904 0.22997855 0.066719458
0.51776338 0.22995101 0.066264145
0.52362287 0.2305869 0.067612089
0.52663338 0.23287372 0.068127207
0.53074425 0.23222506 0.066700459
0.27621377 0.23504965 0.069398671
0.28594011 0.23441985 0.065853655
0.28919372 0.23698618 0.068044066
0.29403934 0.23850991 0.067412473
0.29727378 0.23919466 0.067491099
0.30044338 0.23952925 0.068489343
0.3057085 0.24083962 0.069650114
0.32589707 0.23786777 0.070113599
0.32704857 0.23851706 0.068610169
0.33757693 0.23492891 0.066293143
0.35275474 0.2342844 0.065315992
0.35697061 0.23540211 0.065977998
0.36156064 0.23578808 0.065264128
0.36724806 0.2366275 0.065323465
0.37093738 0.23489037 0.064815484
0.38526452 0.23640887 0.065934531
0.38812938 0.23402426 0.066341534
0.39220625 0.23674378 0.069037467
0.39655477 0.23496558 0.067741893
0.40100127 0.23203884 0.068589948
0.41222015 0.23385666 0.07023555
0.41303861 0.2355832 0.066679977
0.41571829 0.2386007 0.06889651
0.42023543 0.24150945 0.068486936
0.42578146 0.24227932 0.066989757
0.43349776 0.24126834 0.065874264
0.43870068 0.23828977 0.067773856
0.43799579 0.23770018 0.065502539
0.46426207 0.23865886 0.06581755
0.46624663 0.23780158 0.067137703
0.48129246 0.2392458 0.068596922
0.4957284 0.23519795 0.07068301
0.50033861 0.23666522 0.07002569
0.50246847 0.23828465 0.066434309
0.50522161 0.23512587 0.067493714
0.50785398 0.2333938 0.069407612
0.52685648 0.23337245 0.066148102
0.52924758 0.23596321 0.067806698
0.53036523 0.23784363 0.068581648
0.53242838 0.23616679 0.068385497
0.28851599 0.23843737 0.067649484
0.2916097 0.23826949 0.068182468
0.29894567 0.24054645 0.067892447
0.30300608 0.24204446 0.067959785
0.3074069 0.24326773 0.066290081
0.31273565 0.24371095 0.069083087
0.31831095 0.24393593 0.067570083
0.32235831 0.24347973 0.068068847
0.32761103 0.24144804 0.067073949
0.33440715 0.24021593 0.068182006
0.33721864 0.24215238 0.066322081
0.34142298 0.24398047 0.068827696
0.34829259 0.24357608 0.068311609
0.35310966 0.24287377 0.068265662
0.35617533 0.24367888 0.065152057
0.36452889 0.24461825 0.066123411
0.36723071 0.24372649 0.066838995
0.37068766 0.24445821 0.06848681
0.38176057 0.24598573 0.069329627
0.38558304 0.24108627 0.066434897
0.3908155 0.23887435 0.06618727
0.39400613 0.23850447 0.067650512
0.41510695 0.23903091 0.068214431
0.41946346 0.24050121 0.066828892
0.42279214 0.24185811 0.066780411
0.42785943 0.24259107 0.06676922
0.43183002 0.24235167 0.066972412
0.43727654 0.24272732 0.068016462
0.44130081 0.24217711 0.066311158
0.44266552 0.23887648 0.064574152
0.4579863 0.2410446 0.068246633
0.46256122 0.24078897 0.067033418
0.46827364 0.23964638 0.06798701
0.47361887 0.23959413 0.06642516
0.47645983 0.24078944 0.066506058
0.4801667 0.23967247 0.067504644
0.49243483 0.2404722 0.067541391
0.49733633 0.24047957 0.066708028
0.50080872 0.23836397 0.067290924
0.52991861 0.23864339 0.065739326
0.53172565 0.23850834 0.067110136
0.30360696 0.24276318 0.067829259
0.30812138 0.24288291 0.067427419
0.31284839 0.24379531 0.067812316
0.31588393 0.24398309 0.066800468
0.32306856 0.24347439 0.067520477
0.32908183 0.24376185 0.065668218
0.33192515 0.24382445 0.066530757
0.33807436 0.2438679 0.066688441
0.34207797 0.2444414 0.066445
0.35847443 0.24339403 0.065140158
0.36319128 0.2436087 0.066301204
0.36822903 0.24517736 0.065963276
0.37757167 0.24691804 0.066788375
0.38283727 0.24542296 0.06835518
0.3841643 0.2439729 0.067449741
0.4203628 0.24176145 0.068856724
0.42386803 0.24261166 0.068805262
0.42757478 0.24308231 0.068886802
0.43304217 0.24316892 0.067815058
0.43804753 0.24327746 0.068148993
0.44097716 0.24295931 0.068306774
0.40693381 0.19644234 0.070944265
0.51570731 0.19780226 0.070853248
0.2826626 0.198506 0.07217811
0.28667903 0.20037469 0.073542453
0.3000316 0.2015093 0.073906429
0.3025513 0.19945407 0.073152401
0.30747363 0.20024358 0.072501138
0.31220484 0.20030306 0.072938457
0.31636754 0.20086102 0.072687529
0.39571655 0.20286581 0.073516816
0.40110043 0.20006955 0.073334336
0.40400371 0.20028369 0.071220122
0.40745735 0.19869155 0.071879327
0.40999049 0.19887643 0.071749106
0.41857719 0.20181863 0.070644498
0.42079538 0.201434 0.070612058
0.49942365 0.20097712 0.071707301
0.50083816 0.20173128 0.070527241
0.50775939 0.20176779 0.068925418
0.51434499 0.19991545 0.070344314
0.51504177 0.199119 0.072325565
0.27995878 0.200012 0.073137395
0.2879988 0.20210779 0.07181564
0.29315135 0.20444821 0.07368128
0.29890442 0.203577 0.072562128
0.3014003 0.2022499 0.072052069
0.30637512 0.20200938 0.072371624
0.30954656 0.20110011 0.070520416
0.31795141 0.20127703 0.072040237
0.32302251 0.20378448 0.072438233
0.39251617 0.20130256 0.072493978
0.39783671 0.20211948 0.071770325
0.40199339 0.20288314 0.071510747
0.40774697 0.20266651 0.072629802
0.41263461 0.20351543 0.071489662
0.41734868 0.20313971 0.072918087
0.42330003 0.20283079 0.07284084
0.42749357 0.20221959 0.071921237
0.48224652 0.2037811 0.072451033
0.48875883 0.20402779 0.071463518
0.49262962 0.20317483 0.072801627
0.49749646 0.20134972 0.07283055
0.50277978 0.20230538 0.073408432
0.50814241 0.20499331 0.071036622
0.51296246 0.2030724 0.071672887
0.51569849 0.20313984 0.072549045
0.52119464 0.20480862 0.072411843
0.52723521 0.20585971 0.070873223
0.53290182 0.20671126 0.072873369
0.5376631 0.20567106 0.072263785
0.54227048 0.206282 0.071663707
0.54788506 0.2037552 0.072707266
0.55107379 0.20415895 0.071505986
0.27381086 0.20847757 0.072303213
0.27571002 0.20892268 0.073469266
0.29082766 0.20603821 0.074804246
0.29392174 0.20480227 0.072597288
0.29944801 0.20711483 0.072703458
0.30189458 0.20818068 0.072448954
0.30761465 0.20925015 0.07261204
0.30889696 0.20903692 0.072501846
0.32511824 0.20446964 0.07160864
0.32992554 0.20595656 0.07088121
0.33170107 0.20589423 0.073445514
0.34240037 0.20779791 0.071135037
0.34443259 0.2084648 0.072518982
0.39844647 0.20742407 0.072583102
0.40236175 0.20708571 0.072505519
0.40824789 0.20744772 0.072426602
0.41227832 0.20748085 0.0720305
0.41553229 0.20576346 0.073648714
0.4190281 0.20309767 0.074624322
0.48808604 0.20438376 0.074477173
0.5067355 0.20839541 0.074234657
0.50802475 0.20765422 0.072974153
0.51217836 0.20676368 0.071973391
0.51697481 0.20744783 0.072141334
0.52128536 0.20736286 0.072809085
0.5321244 0.20805752 0.071542121
0.53785944 0.20556504 0.072050355
0.54132658 0.20657347 0.071245626
0.55288541 0.20544063 0.071910851
0.27737355 0.21174365 0.072000183
0.28043497 0.21418273 0.074329987
0.29830492 0.21163273 0.072840378
0.30252382 0.21151005 0.072432354
0.30703929 0.2120799 0.071992926
0.30910251 0.21353582 0.072284125
0.39214569 0.21494092 0.072580248
0.39419135 0.21096866 0.072053552
0.39826316 0.21008469 0.072904781
0.40427729 0.21273194 0.07161846
0.40772825 0.21229941 0.07197585
0.41240716 0.21267571 0.072690561
0.41580334 0.21222234 0.074743949
0.48821363 0.21615124 0.076156303
0.49435568 0.21616736 0.075225122
0.49874467 0.2176462 0.073567867
0.5046016 0.21498443 0.073494494
0.50788945 0.21374865 0.072963916
0.51343858 0.21319143 0.07241109
0.51702976 0.21226849 0.072747305
0.52188915 0.21318941 0.072440647
0.52821946 0.21339265 0.07260868
0.53050977 0.21089354 0.073722541
0.5417304 0.21263042 0.073621556
0.55279613 0.21465513 0.073165774
0.55508369 0.215708 0.073521204
0.28063616 0.21739614 0.07188011
0.28078726 0.21713999 0.072529748
0.28633407 0.22224693 0.075033821
0.29519629 0.22146386 0.071898386
0.29830962 0.21829322 0.072792716
0.3044543 0.21564871 0.072171599
0.30777442 0.21741372 0.072989412
0.3107321 0.21975817 0.072636485
0.31667063 0.22184211 0.073145665
0.32348499 0.22253555 0.072728485
0.3292678 0.22117144 0.072895288
0.33177397 0.22162808 0.073055394
0.33663282 0.22143711 0.073542871
0.34281614 0.21675359 0.072966114
0.34558013 0.21685719 0.075944498
0.35489967 0.22112371 0.076044865
0.37866336 0.2234109 0.073079705
0.38464838 0.22307988 0.073802263
0.3893339 0.22230801 0.074801929
0.3939952 0.21843576 0.074620448
0.39800072 0.21828064 0.072367042
0.40277234 0.21769895 0.072683632
0.40842938 0.21859458 0.072968431
0.41232419 0.21806742 0.072174318
0.4161261 0.21949509 0.072925866
0.42068473 0.22182512 0.072683208
0.42707887 0.22299926 0.074391395
0.43267107 0.22252011 0.072206482
0.43666953 0.22193621 0.072383426
0.44308555 0.22200665 0.0724108
0.44742486 0.22127783 0.073071726
0.45272467 0.22149318 0.072686292
0.4582276 0.22066756 0.073652893
0.46242341 0.22081122 0.073859103
0.46651408 0.22087647 0.073310249
0.47368878 0.22030695 0.073591091
0.4773033 0.21907881 0.072366558
0.48208383 0.21939979 0.074028455
0.48736781 0.22086807 0.072851412
0.49325231 0.21975076 0.072696067
0.49829367 0.2194044 0.072608307
0.50282031 0.21867074 0.072627038
0.50758398 0.216885 0.072321936
0.51214129 0.21716823 0.07252425
0.51665545 0.21586359 0.0728743
0.52302617 0.21667968 0.07235419
0.52683854 0.21630789 0.072970986
0.53280783 0.21644689 0.072953694
0.53754383 0.2165619 0.071860366
0.54243773 0.2159573 0.072729938
0.54742539 0.21801095 0.072093338
0.55282027 0.21764152 0.072739668
0.55717534 0.21711005 0.072768271
0.55955392 0.21752115 0.073127009
0.28290376 0.22466506 0.070427731
0.28333411 0.22272861 0.072126128
0.2876426 0.22294137 0.073022962
0.29217386 0.2212384 0.072711296
0.29796064 0.2210976 0.072875038
0.30173087 0.22231176 0.072995886
0.30765933 0.22256733 0.072228447
0.31251431 0.2215617 0.073078714
0.31734142 0.22282672 0.073076054
0.32291493 0.22288531 0.073044851
0.32744768 0.22229549 0.072387479
0.33271325 0.22288893 0.072664589
0.33804405 0.22294281 0.072638907
0.34263089 0.22353774 0.07262715
0.34691748 0.22469476 0.073672101
0.35190883 0.22550848 0.073204629
0.35722205 0.22607839 0.073929936
0.36205077 0.22564758 0.072321296
0.36698571 0.22510098 0.072376281
0.37349316 0.22607657 0.07221216
0.37784839 0.22582756 0.073577821
0.38257784 0.22426629 0.073950626
0.38774338 0.22415398 0.074634887
0.39301208 0.22408897 0.072578475
0.397448 0.22293971 0.072577797
0.40272284 0.22206311 0.072446935
0.40754327 0.22278734 0.072142921
0.41257486 0.22162816 0.07199885
0.41753858 0.22121848 0.071970642
0.42272624 0.22190006 0.072423659
0.42757976 0.22310571 0.072670825
0.43291122 0.22267446 0.072524339
0.43732852 0.22282828 0.072610229
0.44241488 0.2230739 0.072726868
0.44723678 0.22263983 0.072866768
0.45258895 0.22259575 0.072323874
0.45771053 0.22299868 0.072593302
0.46294457 0.22249246 0.072431408
0.46745872 0.22298236 0.072620355
0.47308326 0.22236046 0.07138148
0.4775413 0.22251138 0.072480775
0.48250252 0.22174032 0.072678611
0.48766774 0.22156544 0.072486125
0.49274144 0.22111593 0.072830483
0.49758807 0.22245586 0.07298737
0.50271243 0.2229265 0.072202586
0.50707698 0.22175717 0.072689079
0.51208752 0.22227074 0.072582252
0.51757026 0.22310801 0.072656445
0.5217132 0.22279519 0.072019383
0.52663696 0.22194321 0.073496275
0.5338338 0.22153987 0.072122321
0.53706592 0.21938908 0.072076172
0.54289448 0.21967363 0.071268678
0.54629695 0.22052541 0.071620971
0.55328262 0.22168253 0.070448592
0.55879933 0.22198196 0.072399966
0.55848926 0.22169718 0.072677791
0.28158307 0.22855847 0.070144422
0.28352869 0.22685944 0.071036384
0.28733921 0.22709078 0.072269082
0.29762131 0.22366273 0.070775911
0.30288735 0.22618504 0.072121419
0.3072139 0.22502394 0.073788695
0.31417337 0.22485393 0.073107414
0.31737736 0.22725332 0.072538011
0.32272562 0.22730319 0.07224261
0.32735923 0.2273386 0.072378471
0.33296359 0.22778572 0.073025711
0.33777982 0.22700217 0.072307132
0.3423081 0.22659312 0.072555505
0.34727755 0.22618894 0.072155446
0.3529003 0.22602008 0.072874121
0.35672337 0.22587132 0.073506624
0.3626987 0.22624515 0.072666995
0.36758459 0.22705473 0.073175669
0.37313783 0.22668336 0.072961584
0.37727666 0.22634217 0.072583549
0.38262367 0.22674017 0.072273403
0.38846624 0.22727565 0.072044276
0.39274019 0.2279281 0.071954176
0.39710897 0.22739136 0.072977841
0.40171057 0.22686063 0.072259672
0.40682223 0.22635114 0.073105827
0.411973 0.22794963 0.072262034
0.41754937 0.22598489 0.072531253
0.42424029 0.22242539 0.071805872
0.42742205 0.22296897 0.073025502
0.4344447 0.22431356 0.072460048
0.43885845 0.22512764 0.072620183
0.44235221 0.22590309 0.072919965
0.44737086 0.22491774 0.070837259
0.45248815 0.22472674 0.070662208
0.45772573 0.22632235 0.071752235
0.46190161 0.22516301 0.071085103
0.46763226 0.22576635 0.072234824
0.47214586 0.22712488 0.072507836
0.47715169 0.22498488 0.072634377
0.48179847 0.22374775 0.071743615
0.48742175 0.22282197 0.070850991
0.49229264 0.22627562 0.07200256
0.49715301 0.22690946 0.072476342
0.50318974 0.22774367 0.072708681
0.50737268 0.22794694 0.070878819
0.51308656 0.22718471 0.072390176
0.51734185 0.22646432 0.072225198
0.52201265 0.22770371 0.072398871
0.55954468 0.2259911 0.072057746
0.56035244 0.22820652 0.072904512
0.27946448 0.23360734 0.068844095
0.28325725 0.23176007 0.070839547
0.28613523 0.23204222 0.073221132
0.29035324 0.2347254 0.070840925
0.30365559 0.23298624 0.074034333
0.31416652 0.22964673 0.07461904
0.31921992 0.2303177 0.073306948
0.3224242 0.23153314 0.072268985
0.32753286 0.23131433 0.072965786
0.33134505 0.23079379 0.072049499
0.33772057 0.23179848 0.072874859
0.34175837 0.2313126 0.072857492
0.34590456 0.22989097 0.072222933
0.35296881 0.23016101 0.071227178
0.35766366 0.23179726 0.071038492
0.36286122 0.23031645 0.071077429
0.36734644 0.23068117 0.070484303
0.37143669 0.23025124 0.071318991
0.37773654 0.22705658 0.070858859
0.38454646 0.22806028 0.071513057
0.388556 0.23039916 0.072302267
0.39191312 0.23240875 0.072299331
0.39818987 0.23290925 0.072099701
0.40225637 0.23139052 0.071612202
0.40774384 0.23169835 0.072288543
0.41201875 0.23158406 0.072577693
0.41384649 0.23468815 0.073638394
0.43913049 0.23243007 0.073224299
0.43962985 0.23034912 0.071805432
0.44624653 0.22750086 0.069585562
0.45276591 0.2269398 0.069721259
0.45689815 0.23044376 0.071766853
0.46252069 0.23180631 0.07315319
0.46814334 0.23167817 0.072060011
0.4702895 0.23051187 0.072681256
0.47649881 0.2303445 0.072891384
0.49377114 0.23273519 0.074567758
0.49645045 0.23195021 0.073943272
0.50269043 0.23042645 0.072429925
0.50709146 0.23241095 0.071950436
0.51070976 0.23085114 0.072498925
0.52370256 0.23075815 0.072492622
0.52599221 0.23384869 0.074143514
0.27727881 0.2375581 0.072439417
0.2832846 0.23486392 0.072471
0.28887025 0.2363908 0.072586298
0.29135886 0.23844624 0.071992524
0.29738203 0.23900427 0.072586112
0.30218217 0.23863782 0.073763788
0.30580506 0.23986281 0.074601158
0.31333107 0.23957077 0.074795872
0.31830251 0.23954184 0.074260667
0.32426909 0.23736082 0.072948836
0.32694808 0.23907813 0.073042169
0.33215147 0.23821166 0.073700659
0.34363338 0.23942262 0.07327497
0.38989824 0.23644234 0.070750013
0.39256665 0.23636477 0.071346693
0.395547 0.23382391 0.071541607
0.40415365 0.23221612 0.073637232
0.40993339 0.23286393 0.073278256
0.41370288 0.23623724 0.071573801
0.41687861 0.23902503 0.073847026
0.42062345 0.23990661 0.07387241
0.42607531 0.24118268 0.07492917
0.43542162 0.23911887 0.074180365
0.43736398 0.23784614 0.073334187
0.45733589 0.23991838 0.074717596
0.4641479 0.23858964 0.074080817
0.46689382 0.23849002 0.071229398
0.47353467 0.2377177 0.072570875
0.47787845 0.2381058 0.073975392
0.4815588 0.23980731 0.071952946
0.48977551 0.2381255 0.072220817
0.49431282 0.23733939 0.07214532
0.49887341 0.23717323 0.073067144
0.50234741 0.23738851 0.072524674
0.50610346 0.23615499 0.073265925
0.50875747 0.2343272 0.073183075
0.52811581 0.23604451 0.072257444
0.53199732 0.23738775 0.073061399
0.53593904 0.23559438 0.071532056
0.28534931 0.23691951 0.072066836
0.29023179 0.23773329 0.070814252
0.29283148 0.23792645 0.071357071
0.29914778 0.23983656 0.071913704
0.30357805 0.24141498 0.072840057
0.30581844 0.24230336 0.071962483
0.31323001 0.24173933 0.072846606
0.31829163 0.24098459 0.072275974
0.32303092 0.2402976 0.072626106
0.32747623 0.24028252 0.071702689
0.33241314 0.24210519 0.072098561
0.33820334 0.24139842 0.073048279
0.34324503 0.24241707 0.073481098
0.34786573 0.24217556 0.072872788
0.35228053 0.24288616 0.072072692
0.35780403 0.24314466 0.072481796
0.36181447 0.24283561 0.07168337
0.36909938 0.24310443 0.073536232
0.37109134 0.24406645 0.071983434
0.38599819 0.24060977 0.07143683
0.38973352 0.23903757 0.071873114
0.41512865 0.23926418 0.071864672
0.41934866 0.240899 0.073159441
0.42436576 0.24236417 0.075057141
0.42881241 0.24185655 0.073022678
0.43242091 0.24196304 0.072757833
0.43627778 0.24243866 0.071284011
0.43999985 0.24039963 0.072174251
0.45306599 0.24227956 0.074713051
0.4571169 0.24070281 0.073786534
0.46295255 0.23934244 0.071424708
0.46831074 0.23876308 0.07079453
0.47140697 0.23830828 0.070287906
0.47840959 0.24010631 0.072680108
0.48012748 0.23992872 0.071378753
0.49439743 0.24097702 0.072757848
0.49777597 0.2388296 0.071040049
0.50306541 0.23906329 0.072340362
0.50494182 0.23873439 0.073132195
0.53014916 0.23695345 0.071110368
0.30822331 0.24252477 0.071528912
0.31067213 0.24281988 0.071020469
0.32151151 0.24229997 0.069453761
0.33931157 0.24225761 0.072683915
0.35839286 0.24394271 0.072313465
0.38116863 0.24550492 0.072191961
0.42052165 0.2417694 0.072421089
0.42308182 0.24385762 0.072184041
0.42683786 0.24286795 0.071763188
0.43236959 0.24272817 0.073000759
0.43655527 0.24233705 0.071426548
0.30444413 0.19975488 0.076073669
0.40767711 0.197981 0.076744601
0.29499945 0.2018756 0.078560315
0.298962 0.20112403 0.077276528
0.30209741 0.19967583 0.077312015
0.30630076 0.20025107 0.075638697
0.31443647 0.2002254 0.074841157
0.31700772 0.20061947 0.075920776
0.40347421 0.19981357 0.076620042
0.40830916 0.19967064 0.076527707
0.40994149 0.1987506 0.076313995
0.41378424 0.20045856 0.074527033
0.51507437 0.20240892 0.075384378
0.51834273 0.2005453 0.076207697
0.51817572 0.20262204 0.079398289
0.28356376 0.20113224 0.077863857
0.28883937 0.201594 0.076588809
0.29304487 0.20388298 0.077329278
0.29925919 0.20255479 0.078110799
0.30081788 0.20248944 0.077806495
0.30529633 0.20410028 0.077546455
0.31128746 0.20344637 0.076334924
0.31793457 0.20178702 0.077981956
0.32228655 0.20395899 0.077762991
0.32714355 0.20511435 0.076663129
0.33924183 0.20543307 0.07806205
0.34048158 0.20559621 0.076169655
0.38665295 0.20312674 0.076377936
0.39254791 0.20475599 0.076652646
0.39961159 0.20336327 0.076553039
0.40210557 0.20352143 0.077090189
0.40770742 0.20241313 0.076960891
0.41252354 0.20379175 0.077007286
0.4165546 0.20378318 0.077594064
0.42208487 0.20458198 0.077486284
0.42782319 0.20349988 0.077616155
0.43246296 0.20405853 0.077585161
0.47781935 0.20370653 0.077601492
0.48246861 0.20423692 0.076787949
0.4851709 0.20613524 0.078748427
0.49344444 0.20465979 0.076204009
0.49759018 0.20350663 0.077321328
0.50227064 0.20597082 0.077165611
0.50875592 0.20638484 0.076980963
0.51327807 0.20419203 0.077037059
0.51720554 0.20277779 0.077299975
0.52108914 0.20457211 0.077706866
0.52659005 0.20478791 0.07770133
0.5318287 0.20656756 0.077253215
0.53715146 0.20488283 0.077243514
0.54285091 0.20563948 0.077813618
0.54806262 0.20488907 0.075788245
0.55037242 0.20565559 0.074851289
0.27660564 0.20850812 0.078044958
0.29068422 0.20814154 0.07805787
0.29274771 0.20516415 0.077223808
0.29919502 0.20764782 0.076898821
0.30157498 0.20876336 0.077475317
0.30622315 0.20847301 0.07857877
0.3084338 0.20834914 0.076434255
0.32629499 0.20544496 0.07986512
0.33322009 0.20579781 0.077910729
0.33822751 0.20487192 0.077997707
0.34426165 0.20721322 0.07711409
0.34662077 0.2057718 0.07809934
0.39613751 0.20838349 0.078599341
0.39843276 0.20735371 0.077319235
0.40247518 0.20749208 0.077533185
0.40811896 0.20744425 0.077347502
0.41236514 0.20750704 0.077458441
0.41658866 0.20754278 0.077717729
0.42069873 0.20353474 0.078152075
0.44974717 0.2066052 0.079941079
0.45313963 0.20649967 0.078122742
0.45676029 0.20645405 0.077710688
0.46248528 0.2061044 0.078045815
0.46752384 0.20625202 0.078352228
0.47170633 0.20607653 0.079316847
0.48738986 0.2071061 0.076615579
0.49225396 0.20712464 0.07734625
0.49634993 0.20561075 0.079352997
0.5045591 0.20908165 0.080154903
0.50772589 0.20702903 0.077803664
0.51222664 0.20615663 0.076897137
0.51672053 0.20734513 0.07751707
0.52066666 0.20769453 0.078871459
0.52842766 0.20705865 0.077190995
0.53057396 0.20586975 0.076862849
0.5369606 0.20576946 0.078188427
0.542799 0.20563141 0.077129707
0.54675472 0.2070668 0.078487761
0.55224919 0.2069858 0.077406019
0.55537695 0.20803635 0.079347439
0.27911362 0.21181276 0.076148167
0.28304714 0.21166752 0.07934384
0.28659251 0.21262693 0.078301072
0.29903004 0.21292669 0.077313021
0.30199558 0.21231475 0.077305794
0.30661684 0.21233395 0.078242645
0.30943263 0.21201992 0.07658837
0.35089922 0.21789792 0.080412596
0.39122209 0.21046515 0.078405321
0.39823824 0.2118451 0.076864347
0.40372035 0.21270977 0.07743077
0.40791196 0.21240027 0.077493772
0.41215971 0.21178646 0.077185556
0.41614535 0.21158417 0.077966489
0.41773501 0.21534674 0.077518292
0.4609803 0.21631621 0.080921382
0.46617052 0.21528809 0.082026213
0.47453538 0.21728964 0.07980068
0.477081 0.21811888 0.07800822
0.48851335 0.21384899 0.078471921
0.49289405 0.21397051 0.079950623
0.49906445 0.21496984 0.078439452
0.50332999 0.21464592 0.078372516
0.50863552 0.21333432 0.077032983
0.51311868 0.21375602 0.07728599
0.51698571 0.21227795 0.076988123
0.52216572 0.21393104 0.077738747
0.52667528 0.21253122 0.077436753
0.54785788 0.21611033 0.07860589
0.55333954 0.21425653 0.076488063
0.55654341 0.21452683 0.078840464
0.55844218 0.21545857 0.079270646
0.28354675 0.21752135 0.077670917
0.286924 0.21900018 0.07933145
0.29510549 0.22008628 0.078831829
0.29833457 0.21849954 0.077745281
0.30460998 0.21657304 0.078450553
0.30798686 0.21746634 0.077123471
0.31164926 0.21944997 0.07674776
0.31594086 0.22005229 0.076753587
0.32254565 0.22128844 0.077373624
0.328298 0.22148471 0.078698888
0.33129451 0.22124948 0.078286208
0.33781669 0.2204859 0.079224028
0.34273052 0.21959412 0.078130372
0.34708631 0.21761014 0.079491563
0.35168201 0.21867934 0.078944832
0.35579145 0.21930744 0.079618998
0.36061114 0.22164944 0.080170766
0.38413131 0.2230861 0.076537631
0.38899955 0.22120045 0.078610927
0.39385727 0.21838105 0.076585241
0.39902589 0.21934162 0.077170603
0.40314019 0.21807396 0.077456146
0.40779489 0.21791857 0.077497669
0.41296563 0.21757756 0.077132381
0.41655126 0.21864556 0.077470347
0.42171255 0.21963365 0.078760646
0.42645478 0.22196813 0.078860603
0.43226501 0.22223507 0.076553203
0.4366155 0.22300473 0.077862725
0.44279391 0.22194 0.077104159
0.44911435 0.22094791 0.077779591
0.45418975 0.22084977 0.078134052
0.45760912 0.21967454 0.078738861
0.46310532 0.21863882 0.078461304
0.46812105 0.21908675 0.078111261
0.4721595 0.21886371 0.078530326
0.47692448 0.21795964 0.078053184
0.48190793 0.21933758 0.078799091
0.48961669 0.21983692 0.077056773
0.49232686 0.21927397 0.077657685
0.49670714 0.21879701 0.077496275
0.5028559 0.21792105 0.077553555
0.5073213 0.21755977 0.076844953
0.51215631 0.2171071 0.077520333
0.51748973 0.2165132 0.077392004
0.52371204 0.21697082 0.076842971
0.52634245 0.21635063 0.077347368
0.53072691 0.21844977 0.077758573
0.53791606 0.21719696 0.077390939
0.5433234 0.21826094 0.077416874
0.54830307 0.21742955 0.077096
0.55248022 0.21699402 0.077282719
0.55755568 0.21672794 0.077655979
0.55958694 0.21728592 0.078053944
0.28395888 0.22226989 0.075811915
0.2841925 0.22230931 0.076443017
0.28769308 0.22359681 0.077536277
0.29193956 0.22156097 0.077349089
0.29732865 0.22052774 0.077301599
0.30171925 0.22234747 0.077263556
0.30739197 0.22219232 0.077528976
0.3127009 0.22165501 0.077691503
0.31743994 0.22228903 0.077224925
0.32250619 0.22183752 0.077846192
0.32734385 0.22167677 0.077383466
0.3322871 0.22150061 0.077456549
0.33750844 0.22247483 0.078550912
0.34202206 0.22318444 0.077746153
0.34733775 0.22306426 0.077010915
0.3528246 0.222858 0.077623636
0.35854062 0.22332549 0.077846788
0.3610124 0.22431932 0.078705937
0.36708227 0.22456937 0.078102261
0.37268168 0.22680907 0.078928813
0.37963364 0.22593969 0.077744752
0.38342455 0.22381862 0.077829048
0.38775447 0.22318047 0.078050688
0.39280882 0.22302882 0.07746505
0.39722279 0.2221265 0.077244423
0.40221328 0.22158991 0.077392161
0.40772286 0.22248664 0.077220574
0.41145068 0.22211145 0.076648958
0.4170385 0.22118047 0.076008692
0.42307469 0.22093089 0.077031516
0.42751598 0.22238658 0.07719513
0.43304813 0.22244221 0.077578284
0.43728706 0.22320376 0.077472121
0.44241196 0.22334014 0.077219628
0.44752201 0.22226346 0.077182993
0.45231697 0.22245808 0.077643737
0.4569183 0.22258155 0.077633396
0.46267563 0.22249311 0.077471137
0.46766591 0.2224604 0.077721186
0.47198433 0.22266956 0.078242697
0.47737366 0.22239578 0.07742352
0.48284036 0.222231 0.077346966
0.48753539 0.22109713 0.077393539
0.4928785 0.22137649 0.077560566
0.49748597 0.2215693 0.07735873
0.50255811 0.22283915 0.077328958
0.50646269 0.22207664 0.078032307
0.51221114 0.22257034 0.078747228
0.51835966 0.22287171 0.077281348
0.52164686 0.22209233 0.078417309
0.52676713 0.22152306 0.07853166
0.53231382 0.22016634 0.078673482
0.53625977 0.22009999 0.078061119
0.54104078 0.2187959 0.07679493
0.54779327 0.21744733 0.077518299
0.55508685 0.21897578 0.076716408
0.55920738 0.22199038 0.076942652
0.55845487 0.22282174 0.077916458
0.28553516 0.22496463 0.0761756
0.28673103 0.22802937 0.077164769
0.28983697 0.22349074 0.079384446
0.29886785 0.2240127 0.077215806
0.304111 0.22429244 0.076895088
0.30707583 0.22624746 0.077695854
0.31261712 0.2273483 0.077827774
0.31712323 0.22713581 0.078087792
0.32356191 0.22612885 0.077258877
0.32816786 0.22802514 0.07717216
0.3320446 0.22706103 0.077297851
0.33727267 0.22621481 0.077080965
0.34293273 0.22734709 0.077617839
0.34721234 0.22774912 0.077481985
0.35299569 0.22768576 0.077426709
0.35744771 0.22683242 0.077901542
0.36264259 0.22577702 0.077326715
0.36755684 0.22713538 0.07763546
0.37239799 0.22683054 0.077634394
0.37758279 0.2269741 0.077386782
0.38223219 0.22558667 0.076058723
0.38746026 0.22706942 0.077349484
0.39213303 0.22735956 0.077439897
0.39678881 0.22659431 0.078030802
0.40319973 0.22483698 0.077385217
0.40816292 0.22703886 0.077220716
0.41190919 0.22734232 0.077660881
0.41682816 0.22625014 0.076988727
0.42524961 0.22231597 0.075264215
0.42923647 0.22307603 0.078653648
0.43443561 0.22315933 0.077357188
0.43835151 0.22480215 0.078146994
0.44262645 0.22624871 0.077680878
0.44600475 0.22416943 0.077719234
0.45249757 0.2236734 0.076502442
0.45810503 0.22425827 0.076339014
0.46274555 0.22512205 0.076695211
0.46737823 0.22671992 0.076962568
0.47262347 0.22651114 0.077600062
0.47660697 0.22497472 0.077745281
0.48138541 0.22406383 0.076965898
0.48949724 0.22143871 0.077847295
0.49495867 0.22386609 0.076278664
0.49768156 0.22719464 0.077248737
0.50127709 0.22793591 0.076744296
0.50850296 0.22783393 0.077710636
0.51211011 0.22600058 0.076953821
0.5174036 0.22553448 0.077323854
0.52218008 0.22559944 0.07766892
0.52546161 0.22959027 0.081957884
0.53215939 0.22367385 0.080653556
0.56052768 0.22523156 0.07610701
0.56024879 0.22628574 0.077563852
0.28561461 0.23279074 0.075221479
0.28682357 0.23140988 0.077932298
0.28950191 0.2344726 0.077899814
0.30475792 0.23019904 0.074828677
0.30888721 0.2343585 0.077467375
0.31230181 0.23178494 0.079155944
0.31732187 0.23133077 0.077231385
0.32262734 0.23211455 0.078107134
0.32706994 0.23116824 0.076958552
0.33312476 0.2305326 0.078870803
0.33762473 0.23175003 0.07719411
0.34081876 0.23156019 0.077317216
0.34730083 0.2326199 0.079430215
0.35167998 0.23230717 0.077486582
0.35702288 0.22809301 0.077635884
0.3638221 0.22814606 0.076975822
0.36775991 0.23247188 0.077159494
0.37174636 0.22787391 0.076664105
0.37883899 0.22860861 0.077415287
0.38187942 0.22721839 0.078988545
0.3887457 0.23093988 0.077386357
0.39325708 0.2332046 0.076971263
0.39706779 0.23209769 0.076092497
0.4016808 0.2296433 0.077134132
0.40789831 0.22956046 0.07685633
0.41277307 0.23147616 0.076601751
0.41405737 0.23489825 0.077747576
0.41929293 0.2370919 0.080354542
0.44048133 0.23014049 0.079548933
0.46799907 0.23213276 0.076023705
0.47191361 0.23027103 0.076958805
0.47494152 0.2305382 0.077055342
0.49575815 0.23336136 0.076795548
0.49822617 0.23250218 0.078247793
0.50700855 0.23177455 0.078668185
0.50961208 0.23038986 0.077518351
0.52388102 0.23104158 0.077348605
0.52636617 0.23410019 0.077077888
0.53287429 0.23601672 0.076909728
0.28248444 0.23366821 0.075620346
0.28780425 0.23530382 0.076003373
0.29364389 0.23687233 0.077603102
0.29683977 0.23811541 0.077460609
0.3026126 0.24048057 0.076712072
0.30839568 0.24127218 0.077181183
0.31309769 0.23946792 0.077500291
0.31742856 0.23796217 0.077969104
0.3236154 0.23727694 0.077831663
0.32655331 0.23741341 0.079173185
0.3325029 0.23876372 0.078405328
0.33724305 0.23904461 0.078990504
0.34192073 0.23893391 0.078481026
0.39120421 0.23534925 0.074109912
0.39251062 0.23544149 0.077643141
0.39500988 0.2334698 0.077071041
0.41422185 0.23556106 0.076624714
0.41787133 0.23750028 0.077769235
0.42134073 0.23895475 0.078471787
0.42720339 0.24072257 0.076755211
0.43184593 0.24074161 0.079578899
0.43756214 0.23720959 0.078238748
0.43924707 0.2358413 0.080115817
0.45257476 0.24026261 0.077989377
0.45862612 0.2401202 0.077700809
0.46331364 0.23929541 0.078134865
0.46793047 0.23799084 0.077679701
0.4701544 0.2374735 0.076677769
0.4770382 0.23674434 0.078656793
0.48071751 0.23803475 0.077074632
0.49077109 0.23908608 0.07577201
0.49916223 0.23601456 0.078292049
0.50211644 0.23610179 0.078051738
0.50572145 0.23508313 0.076911815
0.52628994 0.23358525 0.07630536
0.52885437 0.23583905 0.076495558
0.53178394 0.23653898 0.077096634
0.29904455 0.23987757 0.077012241
0.30241704 0.24117 0.077749446
0.30584019 0.2416058 0.077151492
0.31367812 0.24080376 0.075264193
0.31717065 0.23987456 0.077447884
0.32210812 0.23860094 0.077303648
0.32843217 0.23973548 0.076805227
0.33296639 0.24091631 0.076522276
0.3371298 0.24086338 0.076914296
0.34165731 0.24151261 0.077825144
0.34844211 0.2395397 0.077502228
0.35208902 0.2394394 0.077135734
0.35838011 0.24244052 0.077526927
0.3621473 0.2423888 0.078214794
0.3678728 0.24044965 0.077945918
0.37149632 0.24315856 0.078199439
0.38433364 0.24475773 0.075895019
0.38755742 0.24255645 0.076932564
0.39024034 0.23860995 0.076190516
0.41532612 0.23807834 0.07542257
0.41992688 0.23946019 0.076366432
0.42326096 0.24200313 0.079449125
0.42732832 0.24150147 0.076337032
0.43212241 0.24136937 0.077920362
0.43619505 0.24014017 0.076907881
0.45352241 0.24032095 0.078649133
0.45785475 0.23995052 0.077180326
0.46312565 0.23961549 0.075821027
0.46606049 0.239603 0.076397024
0.47150967 0.23829103 0.075272992
0.49524435 0.23902248 0.076540425
0.49820164 0.23767486 0.077431157
0.50173879 0.23838086 0.077072844
0.30495286 0.24247098 0.077075459
0.30793613 0.24255528 0.077362046
0.31007627 0.24200588 0.077393048
0.34294236 0.24131612 0.07895413
0.37761378 0.24592783 0.078569293
0.38222548 0.2456612 0.078509912
0.38575262 0.24455498 0.079558142
0.42272046 0.24179347 0.076676011
0.42734209 0.24174495 0.079163998
0.4350028 0.24176848 0.074520767
0.29401243 0.20212658 0.081631452
0.29891738 0.20110911 0.082309671
0.30137572 0.20002671 0.080682099
0.30536652 0.20313863 0.082261071
0.40501606 0.20259213 0.081334151
0.40920493 0.2006997 0.082731456
0.4114292 0.20053318 0.081747346
0.41446698 0.20080525 0.081086002
0.51571155 0.20216511 0.082301691
0.51802313 0.20166504 0.083031811
0.51999211 0.20237787 0.083611704
0.27945703 0.2038458 0.082420722
0.28224018 0.20228343 0.08018598
0.29030603 0.20467538 0.081786491
0.29269204 0.20442945 0.08143466
0.29930604 0.20321019 0.082679778
0.30159026 0.2017415 0.083670899
0.30539855 0.20404126 0.081323534
0.31293896 0.2047063 0.082608439
0.31744793 0.2035206 0.082553774
0.32209769 0.20460707 0.082337782
0.32655746 0.20567149 0.081575319
0.38239864 0.20402345 0.08236479
0.38789392 0.20509228 0.084778905
0.39226127 0.20610563 0.082428984
0.39851174 0.20682332 0.082163796
0.40427673 0.20509277 0.082416765
0.40845796 0.20374869 0.082211122
0.41265559 0.20375544 0.083936296
0.41749048 0.20498985 0.083179131
0.42167151 0.20533761 0.082764201
0.42713308 0.20465451 0.08178325
0.43225232 0.20477901 0.081808604
0.47846881 0.20447269 0.081666067
0.48244208 0.20513396 0.081278391
0.49755943 0.20450348 0.082868285
0.50225234 0.20648831 0.081373632
0.5088169 0.2059883 0.082596168
0.51400352 0.20470744 0.0823358
0.51727629 0.20278586 0.082312278
0.52143306 0.20398553 0.082806461
0.52652508 0.205833 0.08256232
0.53136426 0.20622055 0.083380431
0.53646946 0.20567246 0.083602719
0.54111201 0.20553485 0.081025392
0.27539325 0.20688538 0.080638319
0.27771199 0.2090411 0.082555003
0.28045273 0.20960443 0.083971739
0.28770164 0.20753741 0.08177691
0.29275107 0.20799342 0.082459137
0.29975471 0.20715804 0.082474217
0.30202088 0.20826879 0.082393117
0.30633903 0.20728061 0.082684636
0.30851525 0.20745549 0.082057744
0.32382587 0.20511355 0.081973359
0.32810113 0.20599696 0.082591638
0.33230948 0.20580652 0.081754714
0.33738992 0.20636284 0.081901163
0.34061524 0.20826608 0.080297858
0.35729712 0.20560461 0.082027093
0.3877883 0.20440985 0.081873618
0.39483762 0.20689276 0.081895202
0.39827219 0.20583594 0.082201503
0.4027293 0.20629883 0.08282847
0.40804312 0.20758291 0.082469068
0.41229534 0.20734906 0.082310125
0.41663963 0.207996 0.082443625
0.42298022 0.20496294 0.081146367
0.42806983 0.20463724 0.083364107
0.43359557 0.20509483 0.083935909
0.43736389 0.20585816 0.082555309
0.45092788 0.20649709 0.079902411
0.47419882 0.20787817 0.081184581
0.47723916 0.20602605 0.082594737
0.48239383 0.20592369 0.084075615
0.48710003 0.20867306 0.082091808
0.49371386 0.20757699 0.082349874
0.49571937 0.2052035 0.082316332
0.50400418 0.2076274 0.082240142
0.50839043 0.20758882 0.082628198
0.51190346 0.20635688 0.082694694
0.51721013 0.20705317 0.083002083
0.52198225 0.20736273 0.082379736
0.52713162 0.20704563 0.083387926
0.53172237 0.20557582 0.081428424
0.53712869 0.20677292 0.082202449
0.54264426 0.2075053 0.083038054
0.54789585 0.20575215 0.081992559
0.55166805 0.20828354 0.081254676
0.55529845 0.20735216 0.082430534
0.28109124 0.21022704 0.080352128
0.28319731 0.21184233 0.082954451
0.28557441 0.21038686 0.081589401
0.29825497 0.2121987 0.082870752
0.30252975 0.21283579 0.082198836
0.30638951 0.21392684 0.082288414
0.31301099 0.21071672 0.082123488
0.34077498 0.21539192 0.079654761
0.34223491 0.21479318 0.081962407
0.3468979 0.21708147 0.083562151
0.35382485 0.21626487 0.084329359
0.35678679 0.21462178 0.084509902
0.3608191 0.21586879 0.086956561
0.39932549 0.21099423 0.080938414
0.4026804 0.21316607 0.083176181
0.40787059 0.21227796 0.082782209
0.41294575 0.21175453 0.082458436
0.41631871 0.2109285 0.082691208
0.41926482 0.21383421 0.082312129
0.44986945 0.21606748 0.08372473
0.45191646 0.21453737 0.082767457
0.45618796 0.21497084 0.081723489
0.4620021 0.21434522 0.081643462
0.46741214 0.21422352 0.081067719
0.47163972 0.21388967 0.082542509
0.47655457 0.21402875 0.083591789
0.48162985 0.21326081 0.084748872
0.48892197 0.21478391 0.083641656
0.49232587 0.2140536 0.083075784
0.49752229 0.21398456 0.08385361
0.50249118 0.21374963 0.083304673
0.50737524 0.21380089 0.082282506
0.51289231 0.21347998 0.082411394
0.51707172 0.21205163 0.082594998
0.52247781 0.21280618 0.082863122
0.5272373 0.21403849 0.082328744
0.52998716 0.21079673 0.081212752
0.54317355 0.21516004 0.08395502
0.54818428 0.21454713 0.082260653
0.55359507 0.21582158 0.082403138
0.55713952 0.21411858 0.082486123
0.55760884 0.21510233 0.083081521
0.28403908 0.21840271 0.082315914
0.28653252 0.21855761 0.081463531
0.2940194 0.22120151 0.08194679
0.29797187 0.21898903 0.081533775
0.30358812 0.21668668 0.082859457
0.30702302 0.21747839 0.0830836
0.31066927 0.2199349 0.081553452
0.31784865 0.22076163 0.083312519
0.32379609 0.22142981 0.082376927
0.32659042 0.22164173 0.082494669
0.33263099 0.22189374 0.081760898
0.33840263 0.21947072 0.084047377
0.34293425 0.21884614 0.082772009
0.346986 0.21799053 0.083912179
0.35178325 0.21749261 0.082674004
0.3569558 0.21831657 0.084286347
0.36156642 0.21927987 0.084014557
0.36539295 0.22033171 0.085189871
0.37972903 0.22328 0.084068604
0.38288534 0.22335052 0.082981154
0.38774747 0.2232448 0.081340142
0.39522442 0.22142176 0.08209192
0.39956355 0.21934657 0.082101457
0.40286988 0.2183045 0.083398074
0.40755954 0.21807189 0.082230963
0.41175544 0.21842986 0.082321972
0.41641828 0.21807559 0.082780361
0.42090285 0.21925253 0.0828669
0.42582908 0.2216963 0.08299505
0.43135571 0.22238858 0.08290983
0.43843877 0.22324814 0.082629472
0.44409311 0.22089791 0.084158152
0.44880679 0.22031742 0.083198771
0.45305634 0.22034839 0.084431037
0.45813245 0.21902098 0.082810111
0.4629235 0.21829084 0.083002649
0.4675768 0.21745582 0.0824738
0.47185946 0.21803698 0.082364805
0.47687191 0.21823923 0.082919352
0.48227373 0.21919794 0.083346717
0.48777464 0.2192647 0.082122259
0.49251303 0.21925217 0.082380168
0.49738798 0.21869257 0.082491778
0.50243419 0.21774732 0.082329072
0.50708246 0.21795084 0.081888683
0.51235211 0.21731076 0.082708754
0.51729017 0.21639998 0.082378805
0.52361596 0.21665567 0.082836643
0.52685106 0.21688254 0.082845777
0.53203374 0.21785295 0.082946427
0.53668696 0.21802895 0.083789438
0.54316235 0.21842448 0.082079366
0.5476287 0.2164166 0.082584351
0.55239105 0.21762903 0.082000703
0.55835652 0.2171094 0.082161583
0.55811864 0.2173062 0.082686789
0.28436786 0.22138436 0.082726963
0.28425691 0.22011474 0.082197532
0.28730074 0.22278619 0.082709789
0.29222471 0.22186106 0.082421191
0.29766315 0.22155569 0.082621403
0.3023414 0.22125286 0.082345344
0.30747277 0.22068645 0.082854688
0.31273419 0.22248879 0.082891606
0.31732962 0.22204231 0.082310423
0.32230344 0.22239152 0.08255586
0.32684517 0.22322527 0.082758851
0.33395204 0.22263141 0.082495458
0.33777964 0.2226719 0.081989922
0.34219292 0.22337848 0.083566301
0.34718317 0.22263654 0.083632328
0.352743 0.2222833 0.083654091
0.35873231 0.22219612 0.082657807
0.3621113 0.22278516 0.082953304
0.36641955 0.22370398 0.084430471
0.37225297 0.22551146 0.084818438
0.37788182 0.22442496 0.083841309
0.38297758 0.22360563 0.0833188
0.3876186 0.22408606 0.082837328
0.39283472 0.2229075 0.082454376
0.39764416 0.22268721 0.082711525
0.40294155 0.22258377 0.082964182
0.40723068 0.22194505 0.082952067
0.4124659 0.22207245 0.082728423
0.41706544 0.22040741 0.08275938
0.42260581 0.22089052 0.082013279
0.42746222 0.22169909 0.08259999
0.43249783 0.22241543 0.082409255
0.43771175 0.22287695 0.082113609
0.44247478 0.22356018 0.082810983
0.44724315 0.22268233 0.083176903
0.45215878 0.22229582 0.083164029
0.45749283 0.22228338 0.082909763
0.46254361 0.22250623 0.082408972
0.46732578 0.22218809 0.083217971
0.47318384 0.2227128 0.082783923
0.47715363 0.22271755 0.08245407
0.48239398 0.22254178 0.082118995
0.48679087 0.22131898 0.082068384
0.49289462 0.2220086 0.082574375
0.49810666 0.22288606 0.082444325
0.50245035 0.22223796 0.082718059
0.50734204 0.22188912 0.082080923
0.51161212 0.22194596 0.083389573
0.517887 0.22344723 0.082651898
0.5215798 0.2224635 0.082163498
0.52788335 0.22278032 0.084049284
0.53271914 0.22239187 0.081667565
0.53757083 0.21931103 0.081263609
0.5405795 0.2190863 0.081044205
0.54766035 0.21673441 0.081615619
0.55436105 0.21750224 0.083460294
0.55924022 0.21982734 0.080463111
0.55865145 0.22277822 0.082981743
0.28517437 0.22714525 0.084080987
0.28780791 0.22641109 0.082449466
0.29044837 0.22656341 0.082994483
0.29654667 0.22301732 0.085519359
0.30311149 0.22251104 0.083529234
0.30808342 0.22435541 0.081143707
0.31362194 0.22614482 0.081890382
0.31748822 0.22714545 0.082572274
0.32218862 0.22723912 0.083671652
0.32774648 0.22681287 0.082249343
0.3330377 0.22758333 0.081799567
0.33728346 0.2274767 0.082816154
0.34258527 0.22698976 0.082569897
0.34760919 0.22732693 0.082711734
0.35243189 0.22755522 0.082579225
0.35725859 0.22680564 0.082888179
0.36194381 0.22628424 0.081582315
0.36767095 0.2265009 0.081913359
0.37253141 0.22606742 0.08255247
0.37743598 0.22651914 0.082375191
0.38277075 0.22689199 0.082350232
0.38759521 0.22535872 0.08102449
0.3918488 0.22713706 0.082984142
0.39715952 0.22631019 0.081936039
0.4025847 0.22678152 0.082287744
0.40747914 0.22750199 0.082493082
0.41273946 0.22743486 0.081068367
0.42451575 0.22246511 0.084053017
0.42664123 0.22544996 0.081440456
0.43190691 0.22655447 0.082276396
0.43866512 0.2250464 0.081455305
0.44229952 0.22598988 0.082601525
0.44644219 0.22485894 0.08372163
