# .PCD v0.7 - Point Cloud Data file format
VERSION 0.7
FIELDS x y z
SIZE 4 4 4
TYPE F F F
COUNT 1 1 1
WIDTH 1460
HEIGHT 1
VIEWPOINT 0 0 0 1 0 0 0
POINTS 1460
DATA ascii
0.21566734 0.14255419 0.13569662
0.2167358 0.14371409 0.13677765
0.21787126 0.14491092 0.13769558
0.25330165 0.18282957 0.16410437
0.25382105 0.18440504 0.16528319
0.25479513 0.18552764 0.16649479
0.25519332 0.18686077 0.16700497
0.21654443 0.14167586 0.13572814
0.21760906 0.14282285 0.1368328
0.21872054 0.14403084 0.13785724
0.21995914 0.14530188 0.13856108
0.25345999 0.1810877 0.16344978
0.254513 0.18250349 0.16526616
0.20125784 0.12157647 0.12289292
0.21898775 0.14150873 0.13683496
0.22010311 0.1427114 0.13790427
0.22131942 0.14401045 0.13873984
0.22263773 0.14505541 0.13917927
0.25367063 0.17762502 0.16220158
0.25416723 0.17836958 0.16310202
0.20217332 0.12068548 0.12310708
0.2030362 0.1215908 0.12337478
0.22051258 0.14031918 0.13653508
0.22156513 0.14141388 0.13778001
0.22275016 0.14270207 0.13872921
0.22402772 0.14406137 0.13934161
0.2253774 0.14537692 0.13954365
0.20488854 0.1210428 0.12363987
0.22308213 0.14018422 0.13749534
0.22540821 0.14365126 0.13954425
0.2267831 0.14413044 0.13975847
0.22817178 0.14456826 0.1399896
0.24974243 0.16759948 0.15609407
0.25034606 0.16837233 0.15694456
0.20673214 0.11990011 0.12393253
0.20761648 0.12079366 0.124175
0.22462635 0.13901035 0.13713424
0.22814451 0.14282131 0.13998789
0.22905141 0.14372693 0.14023657
0.24187231 0.15729518 0.149652
0.24299239 0.15858136 0.15060157
0.24413714 0.15986304 0.15153849
0.24537407 0.16113944 0.15235899
0.24660121 0.16242516 0.15318355
0.24780178 0.16371258 0.15404746
0.24895751 0.16498791 0.15499783
0.25003725 0.16622359 0.15605398
0.20852213 0.11992846 0.12437312
0.21030401 0.12053621 0.12485236
0.22469845 0.13728768 0.13557279
0.22611865 0.13776739 0.13690723
0.23342331 0.14462225 0.14175016
0.23556454 0.14674871 0.14303824
0.23666908 0.14801994 0.14405937
0.23730844 0.1488692 0.14481091
0.23816977 0.15138562 0.14590849
0.23905671 0.15267436 0.14705773
0.24969316 0.16405301 0.15530826
0.21208502 0.1199797 0.12534274
0.21295653 0.12085231 0.12564738
0.21384373 0.12172707 0.12589699
0.22759534 0.13650312 0.13670745
0.21515299 0.1213045 0.12636109
0.21736139 0.12233189 0.12702017
0.22859922 0.13381334 0.13517545
0.22903502 0.13519335 0.13657512
0.25249571 0.16131122 0.15544212
0.21959682 0.12136317 0.12760274
0.22050337 0.12223595 0.12776633
0.22940217 0.13181123 0.13419436
0.22999217 0.13245054 0.13510941
0.23060377 0.13309233 0.13600747
0.25696537 0.16029225 0.15523125
0.22189178 0.12097595 0.12796603
0.22279403 0.12184989 0.1281506
0.22953205 0.1289947 0.13241702
0.23045692 0.13007957 0.13374408
0.25606829 0.15745972 0.15345782
0.25688174 0.15836956 0.15386167
0.25806984 0.15963615 0.15476339
0.25918075 0.16076109 0.15588315
0.22467594 0.12103752 0.12828293
0.23225643 0.1282481 0.13373743
0.2069713 0.22442034 0.17245921
0.2085641 0.22355197 0.17097516
0.20943715 0.22422317 0.17244646
0.21047664 0.22499245 0.17359759
0.21210721 0.2260007 0.17466134
0.21127924 0.22348399 0.17154995
0.21230708 0.22445266 0.17274691
0.21343996 0.22556487 0.17382
0.21449611 0.22672889 0.17497018
0.21349049 0.22395514 0.17221917
0.21456084 0.22503491 0.17333946
0.21629256 0.22594054 0.1740849
0.21742439 0.22710206 0.1751211
0.21681726 0.22367156 0.17261322
0.21794116 0.22483478 0.17361513
0.21908568 0.22603643 0.17455235
0.21971861 0.22382212 0.17395534
0.22000867 0.22511166 0.17457807
0.21794903 0.21910377 0.17145653
0.21925098 0.22070575 0.17288613
0.22029889 0.22193623 0.17391799
0.21685188 0.21406886 0.16871612
0.21736738 0.21552309 0.17008033
0.2179558 0.2169878 0.17139408
0.21697597 0.21236077 0.16800992
0.21755847 0.20909898 0.16639946
0.21756168 0.21007076 0.16754608
0.21841417 0.20797677 0.16692291
0.21936955 0.20633614 0.16617146
0.22044553 0.20467468 0.1654157
0.2220563 0.2026851 0.1640766
0.22195233 0.20339476 0.16518776
0.22425804 0.2023522 0.16551241
0.22633652 0.20141242 0.16518441
0.22847232 0.20087416 0.16590406
0.23031321 0.19999036 0.16605859
0.22648327 0.19209386 0.15997435
0.22767328 0.19337085 0.16087371
0.23090826 0.19780715 0.16440864
0.23170877 0.19866049 0.16602661
0.22551861 0.1891638 0.15832517
0.22623672 0.18994053 0.15904818
0.22736265 0.19115037 0.16006774
0.2285547 0.1924268 0.16096263
0.23013718 0.19412 0.16218938
0.23084751 0.19489294 0.16293918
0.23184304 0.19597164 0.16416645
0.23303457 0.19724572 0.16610889
0.25184968 0.21752325 0.17999917
0.25280011 0.21821783 0.18006991
0.22645915 0.18735319 0.15808649
0.22754847 0.18851036 0.15918313
0.22867997 0.18972419 0.16020662
0.2298286 0.19096686 0.16118734
0.23097605 0.19220385 0.1621611
0.23245893 0.19377029 0.16358683
0.23341645 0.19480881 0.16489291
0.23389301 0.19625182 0.16621402
0.25367832 0.21751884 0.18032996
0.22689225 0.18505858 0.15670955
0.22789474 0.1860348 0.15798073
0.22896869 0.18713617 0.15914451
0.23002829 0.18831353 0.16028474
0.23114204 0.18954143 0.16129901
0.23226586 0.19073024 0.16234533
0.23336551 0.19188978 0.16343656
0.22939801 0.18479244 0.15774676
0.23040381 0.18589409 0.15900393
0.23144153 0.18704656 0.1601721
0.23255427 0.18818836 0.16126579
0.23367555 0.18934666 0.1623417
0.23428416 0.19091876 0.16350055
0.23095037 0.18365036 0.15739322
0.23186497 0.1848084 0.15871699
0.23294967 0.18585671 0.15988718
0.23406559 0.18696547 0.16100544
0.23519602 0.18810195 0.16209374
0.23236015 0.1832843 0.15749983
0.23360087 0.18358147 0.15817289
0.23455401 0.18475565 0.15942022
0.23563033 0.18590607 0.16053352
0.23677191 0.18703344 0.1616177
0.23835778 0.18831719 0.16285992
0.23519748 0.18260552 0.15762848
0.23631483 0.18365924 0.15877724
0.23747365 0.18480644 0.15983281
0.23865636 0.18601383 0.16081972
0.2400676 0.18764931 0.16223285
0.24106026 0.18880421 0.1634219
0.24222247 0.18989982 0.16452958
0.25180611 0.20012048 0.17164619
0.25298768 0.20150103 0.1723993
0.23700009 0.18265893 0.15801321
0.2385356 0.18419631 0.15939628
0.23971559 0.18542555 0.16035077
0.24089509 0.18662968 0.16133995
0.2426004 0.18753329 0.16210219
0.24373479 0.18902484 0.1635742
0.24512669 0.18986198 0.16434245
0.24622864 0.1913195 0.16588739
0.24731795 0.19250879 0.16696353
0.24901897 0.19342242 0.16771187
0.25021729 0.19472113 0.16856724
0.25105387 0.19635025 0.16960482
0.25234616 0.19784728 0.17010365
0.25377548 0.19934049 0.17059956
0.25447032 0.20101224 0.17157295
0.25526351 0.20189749 0.17212372
0.25808769 0.20465441 0.17420298
0.24537836 0.18779497 0.16245155
0.2465242 0.188915 0.16355824
0.24803433 0.19035849 0.1651279
0.24920377 0.19150703 0.16624258
0.25004011 0.1927506 0.1672924
0.25122145 0.19405077 0.16812542
0.25289571 0.1954658 0.16876508
0.25406501 0.19693397 0.16930629
0.25483462 0.19793648 0.16967469
0.24806143 0.18803634 0.16330935
0.24955894 0.18923067 0.16472764
0.25070173 0.19039841 0.1658289
0.25167945 0.1916184 0.16682419
0.25295591 0.19293271 0.16765791
0.25437474 0.19435382 0.16830993
0.25505969 0.19618639 0.16898589
0.24958581 0.1864474 0.16303134
0.25139669 0.1874491 0.16467367
0.25210252 0.18910086 0.16577813
0.25310731 0.19031484 0.16667536
0.25567538 0.19302483 0.16816227
0.20177262 0.13154602 0.12535299
0.20276025 0.13321443 0.1264675
0.20368479 0.13450316 0.1272157
0.20495836 0.13553421 0.12786248
0.21295273 0.14338 0.13392791
0.21386822 0.14503303 0.13509504
0.21480575 0.14618397 0.13597153
0.21590766 0.1472912 0.1368259
0.21762523 0.14844333 0.13766584
0.21856251 0.14927614 0.137872
0.24931623 0.1823473 0.16071537
0.24990118 0.1839145 0.16191089
0.25092828 0.18502797 0.16311528
0.2526527 0.18597502 0.16488717
0.20155515 0.1293968 0.12438295
0.20273471 0.13065188 0.12535806
0.20393139 0.13192789 0.12627831
0.20514788 0.1332342 0.12709861
0.20639427 0.13456842 0.12782983
0.20762722 0.13586305 0.12862837
0.21092083 0.13929939 0.13098565
0.2116847 0.14010118 0.13171947
0.2131037 0.14105204 0.1331875
0.21412107 0.14189026 0.13435437
0.21477227 0.14349532 0.13550955
0.21585165 0.14470963 0.13658187
0.21705668 0.14598876 0.13744593
0.2187566 0.14685285 0.13823262
0.22019173 0.14830053 0.13854398
0.25022191 0.18139634 0.16077177
0.25195995 0.18233198 0.16257812
0.25247958 0.18388847 0.16381086
0.20058413 0.12545872 0.12283656
0.20180322 0.12676588 0.12358962
0.20301373 0.12807317 0.12438103
0.20422603 0.12938522 0.12518187
0.20543613 0.130694 0.12601218
0.20616305 0.13243964 0.1268741
0.20738326 0.13374329 0.12769358
0.20901348 0.13548386 0.12879719
0.21074009 0.13637707 0.12960747
0.21191397 0.13759899 0.13064267
0.21303304 0.13877641 0.13176495
0.21410683 0.13963164 0.13288958
0.2155274 0.14056511 0.13437547
0.22143434 0.14688891 0.13893327
0.22258951 0.14891323 0.13877575
0.25030968 0.17761333 0.15890041
0.25054443 0.17886104 0.15964356
0.25150764 0.17995591 0.16092697
0.25281206 0.18048599 0.16241686
0.20050557 0.122619 0.12267738
0.20229994 0.12356071 0.1232876
0.20373471 0.12501724 0.12377881
0.20500198 0.12638426 0.12419684
0.20625803 0.12775376 0.12474497
0.21431679 0.13644494 0.13057688
0.21453346 0.13755395 0.13151784
0.21610411 0.13823465 0.13263427
0.21703368 0.13935503 0.13411593
0.21799421 0.14034426 0.13549122
0.22280656 0.14648609 0.13918677
0.22430059 0.14710651 0.13930216
0.22581726 0.14772722 0.13932844
0.24925385 0.1733456 0.15677048
0.25003847 0.17456862 0.15773349
0.25121751 0.17572302 0.15906952
0.25235069 0.17692499 0.1604718
0.25255924 0.17846495 0.16129355
0.25343367 0.17950779 0.16268104
0.20408784 0.1226548 0.12365574
0.20496298 0.12357444 0.12382651
0.20646782 0.12510602 0.12417218
0.20775405 0.12648319 0.12458348
0.21807303 0.13751754 0.13254397
0.21873888 0.13814016 0.1334447
0.21960959 0.13921876 0.13503177
0.22710274 0.14713503 0.13951571
0.20638242 0.12228262 0.1239848
0.20780753 0.12373875 0.12424657
0.20920795 0.12518407 0.124616
0.21007095 0.12609811 0.12489279
0.21914721 0.13683157 0.13220319
0.22037295 0.1371242 0.13290688
0.22124162 0.13810582 0.13451011
0.22218576 0.13905783 0.13597624
0.22843516 0.14612819 0.13983664
0.23036747 0.14696164 0.14016828
0.23945928 0.15630309 0.14626822
0.24041696 0.15760982 0.14735898
0.24144839 0.15890725 0.14840388
0.24260963 0.15976784 0.14973362
0.24356906 0.16146362 0.15054551
0.24456689 0.1629563 0.15130599
0.24569185 0.16423145 0.15228167
0.24679053 0.16549024 0.15330113
0.24787951 0.16672826 0.15433888
0.24872234 0.16786079 0.15533538
0.24964811 0.169526 0.15646026
0.20910573 0.12234315 0.1245068
0.21060045 0.12388878 0.12485631
0.21192239 0.12523255 0.12521194
0.22197655 0.13604859 0.13245815
0.22285567 0.13696906 0.134028
0.22372843 0.13789742 0.13560434
0.23010257 0.14491494 0.14042565
0.23104869 0.14576814 0.14059809
0.23253974 0.14742263 0.14089885
0.23392606 0.14866857 0.14142723
0.23561908 0.15036882 0.14252391
0.2377526 0.15295267 0.14460139
0.23867373 0.15426265 0.14572451
0.23971955 0.15514387 0.14721997
0.24068239 0.15645483 0.14831589
0.21045046 0.12192846 0.12486181
0.21177338 0.12237924 0.12525618
0.21314713 0.12375956 0.12560567
0.21457741 0.12524894 0.1260483
0.21588056 0.12628637 0.12652819
0.22353685 0.1348594 0.13213669
0.22439434 0.13578171 0.13372466
0.22573249 0.13627666 0.13524397
0.23180443 0.14493096 0.14102986
0.2331865 0.14622395 0.14145242
0.2349593 0.14792021 0.14236884
0.23612994 0.14919718 0.14331836
0.23705146 0.1506733 0.14426936
0.21486251 0.12284312 0.12621371
0.21619226 0.12416174 0.12659548
0.21766476 0.12570944 0.12704827
0.21899673 0.12706424 0.12742575
0.22498523 0.13351756 0.13202018
0.22584006 0.13446863 0.1335844
0.22667778 0.13539645 0.13516454
0.2175272 0.12374078 0.12698208
0.21885623 0.12418888 0.12737405
0.22032428 0.12569684 0.12769905
0.22172567 0.12712608 0.12803361
0.22306347 0.12759796 0.12846413
0.22571833 0.13143982 0.13113153
0.22636759 0.13213561 0.13200136
0.22726332 0.13321139 0.13357881
0.22764055 0.13451925 0.13507062
0.22157273 0.12423642 0.12796503
0.22305894 0.12578252 0.12833893
0.22438873 0.12713915 0.12885079
0.22561421 0.12844814 0.12970591
0.2267154 0.12965588 0.13080564
0.22768153 0.13072354 0.13208459
0.22833316 0.13150153 0.13310319
0.22293277 0.12324318 0.12822279
0.22429781 0.12429044 0.12856436
0.2256832 0.12573086 0.12907992
0.22691053 0.12705825 0.12991625
0.22802299 0.12826157 0.13099024
0.22859634 0.12987325 0.13225485
0.22921151 0.13055782 0.13314371
0.22566897 0.12300289 0.1287044
0.22699435 0.12433446 0.1292567
0.22823814 0.12565064 0.13006999
0.22934015 0.1268778 0.13115774
0.2266051 0.12215526 0.12874457
0.22792475 0.12347616 0.12927037
0.22916651 0.12477765 0.13006875
0.23026432 0.12600113 0.13113028
0.23123635 0.12711644 0.13235863
0.20756498 0.22243556 0.16773604
0.21012539 0.22230798 0.16953635
0.21069306 0.2228128 0.17044796
0.21124075 0.22064452 0.16789851
0.21178363 0.2212023 0.16880295
0.21274623 0.22219296 0.17022614
0.21430406 0.22287475 0.17131419
0.21539016 0.22399488 0.17240337
0.21285121 0.21943416 0.16757332
0.21342185 0.22009671 0.16840881
0.21439801 0.22107702 0.16986762
0.21538901 0.22213911 0.17103751
0.21606283 0.22284098 0.17182514
0.21474469 0.21868542 0.16838112
0.21568482 0.21973449 0.1696718
0.21678446 0.22078805 0.17095236
0.21780495 0.2219099 0.17210494
0.21886788 0.22301766 0.17324477
0.22070709 0.22424296 0.17467272
0.21532945 0.21652697 0.16765833
0.21579473 0.21724296 0.16853611
0.2168254 0.21818647 0.17002054
0.21831974 0.22015166 0.17192943
0.21530549 0.21249852 0.1652154
0.21541873 0.21367244 0.16605283
0.21595334 0.21458833 0.16749312
0.21656099 0.21604131 0.16901347
0.21586049 0.21142814 0.1654525
0.21648097 0.21193522 0.1666609
0.21288508 0.20476866 0.16038606
0.21447404 0.20587377 0.16148572
0.21535563 0.20748003 0.16271828
0.21599816 0.20858547 0.16383556
0.21656533 0.20959894 0.16509037
0.21302739 0.2024762 0.15954217
0.21414462 0.20367509 0.16058126
0.21533366 0.20494282 0.16152829
0.21634038 0.20606755 0.16268675
0.21719894 0.20708673 0.16391526
0.21773824 0.20759484 0.16516206
0.21369398 0.20037493 0.15876372
0.21438374 0.20110273 0.15955381
0.21547942 0.20227602 0.16062878
0.21660016 0.20348842 0.16163869
0.21762031 0.20460716 0.16275997
0.21856624 0.20557116 0.16423921
0.21858107 0.20659953 0.16514163
0.21485275 0.1987972 0.15812077
0.21583785 0.19980222 0.15941069
0.21688482 0.20090385 0.16058224
0.21796985 0.20205949 0.1616524
0.21908154 0.20324862 0.16272683
0.21993481 0.20414653 0.16419315
0.21668713 0.1978903 0.15831093
0.21731614 0.198516 0.15923357
0.21837488 0.1996797 0.16044296
0.21950634 0.20084579 0.16144998
0.22058958 0.20201707 0.16262357
0.22092894 0.20327197 0.16407721
0.21880867 0.19724852 0.15902878
0.21985079 0.19841902 0.1602737
0.2210055 0.199644 0.16127205
0.22214535 0.20086199 0.16227935
0.22310132 0.20176372 0.16357395
0.22088516 0.19760673 0.160074
0.22199029 0.19878981 0.16113025
0.22314109 0.20001304 0.16213436
0.22466059 0.20060433 0.16326809
0.22524604 0.20110412 0.16416413
0.22630545 0.19940722 0.16275789
0.22723082 0.20040862 0.16414994
0.22088216 0.18989028 0.1554884
0.22110659 0.19110169 0.15627487
0.22779155 0.19828546 0.16259132
0.22880135 0.19931832 0.16381417
0.22040403 0.18744147 0.15397033
0.22134304 0.1885059 0.15524647
0.22274005 0.18907283 0.15663517
0.22379418 0.19021145 0.15781145
0.2248677 0.19136328 0.15896745
0.22558777 0.19307351 0.15990724
0.22680719 0.19437179 0.16075905
0.2288809 0.19469622 0.16175601
0.22916047 0.19688582 0.16261171
0.23025239 0.19712292 0.163459
0.22082271 0.18417887 0.1523768
0.22132514 0.18562895 0.1537009
0.22255957 0.18699451 0.15545405
0.22403468 0.18760037 0.15683648
0.22473688 0.18836574 0.15760009
0.22933789 0.19332248 0.16157293
0.22310326 0.18410279 0.15393408
0.22443521 0.18517609 0.15555373
0.22542132 0.18619397 0.15682854
0.22322708 0.18209684 0.15209946
0.22426113 0.18275134 0.15327814
0.22594963 0.18395743 0.15529647
0.22579893 0.18191923 0.1530322
0.22703198 0.18310387 0.15497458
0.22849193 0.18369381 0.15629168
0.22775427 0.1812344 0.15298972
0.2287111 0.18195173 0.15440635
0.23008683 0.18260473 0.15587267
0.2308322 0.18089256 0.15391436
0.23179322 0.18152878 0.15524724
0.23277874 0.18222891 0.1565392
0.23285769 0.17997685 0.15368508
0.23348738 0.18043402 0.1546431
0.23432276 0.18144171 0.15624537
0.20075646 0.14259873 0.12830129
0.23394291 0.17929772 0.1533819
0.23508716 0.17939593 0.15420948
0.23600256 0.18031015 0.15569219
0.23700608 0.1814177 0.15697943
0.2384762 0.18258853 0.15810449
0.23988117 0.1834375 0.15887706
0.24107137 0.18467326 0.1598399
0.24226396 0.18590185 0.16080201
0.25596768 0.20047742 0.1708243
0.25697386 0.20217013 0.17181559
0.20082207 0.13987894 0.12785737
0.20222268 0.14133662 0.12825349
0.20317274 0.14223297 0.1283946
0.23666273 0.17826478 0.15384798
0.23757428 0.17921107 0.15529792
0.23858421 0.18035316 0.15652467
0.2397363 0.18151845 0.15756711
0.2409237 0.18275961 0.15851784
0.24211472 0.18401089 0.15945491
0.24330699 0.18528116 0.16036531
0.24448159 0.18648945 0.16136014
0.25615314 0.19893585 0.16990569
0.25692296 0.19993609 0.17028569
0.2009373 0.13718282 0.12720199
0.20220721 0.13853434 0.12793951
0.20360199 0.14002903 0.12842666
0.20498477 0.14110395 0.12875281
0.21202144 0.14783202 0.13340403
0.21304454 0.14908312 0.13454305
0.21421929 0.15036301 0.13547097
0.21552658 0.15164362 0.13612552
0.21643041 0.1524888 0.13644034
0.2380815 0.17602013 0.1526022
0.23817715 0.17700942 0.153606
0.23916055 0.17791858 0.1549578
0.24012923 0.17917383 0.1561932
0.2412899 0.18038596 0.15717094
0.24247 0.18162879 0.15811831
0.24366766 0.18291168 0.15900829
0.24486592 0.18418902 0.15990655
0.24602087 0.18537883 0.16094102
0.24713698 0.18653353 0.16203067
0.24835369 0.18688308 0.16270469
0.25656733 0.19546711 0.16872069
0.25723076 0.19742624 0.16912848
0.20004195 0.13337328 0.12520395
0.20117338 0.1345669 0.12636003
0.20235983 0.13585329 0.12726583
0.20360747 0.13719158 0.12797737
0.20491031 0.13854931 0.12854308
0.20628376 0.14005515 0.12910604
0.20761506 0.14140597 0.12966301
0.20892139 0.14272539 0.130357
0.21044959 0.1444093 0.1317029
0.21150786 0.14565933 0.1328036
0.21261422 0.14678811 0.13399309
0.21374458 0.14790766 0.1351365
0.21487543 0.14935075 0.13602208
0.21621372 0.15082946 0.13664405
0.21765445 0.15209053 0.1369971
0.23968719 0.17575021 0.15336999
0.24067177 0.17670491 0.15470469
0.24166517 0.17796114 0.15589389
0.24281788 0.17916536 0.15688755
0.24400301 0.18042347 0.15781382
0.24520664 0.18170807 0.15869933
0.24637242 0.18293564 0.1596829
0.24749041 0.18410918 0.16076209
0.24857937 0.18526323 0.16186908
0.20032275 0.13080052 0.12421806
0.20098211 0.13244605 0.12531261
0.20174174 0.13323703 0.12608618
0.20498136 0.13675772 0.12822464
0.20628734 0.13720651 0.12871288
0.2075669 0.13857025 0.12939973
0.20926245 0.14005546 0.13028674
0.21003124 0.14154559 0.13100338
0.21144556 0.14284551 0.13243838
0.21219316 0.14449058 0.13342975
0.21286628 0.14531024 0.13420828
0.21598253 0.14876959 0.13681506
0.21690993 0.1496357 0.13718651
0.21879527 0.15090278 0.13766646
0.22024032 0.15191095 0.1377648
0.22172357 0.15253803 0.13786565
0.24056582 0.1738448 0.15225112
0.24118587 0.17448021 0.15315405
0.24218979 0.17554724 0.15442231
0.24320427 0.17674297 0.1555983
0.24433358 0.17792159 0.15664625
0.24551088 0.17917141 0.15758805
0.24668339 0.18041183 0.15855162
0.24782655 0.18162234 0.15956952
0.24845082 0.18323115 0.16069041
0.20058179 0.1281994 0.12339403
0.20896406 0.13720126 0.1294588
0.2101485 0.13848729 0.13034108
0.22145069 0.15052499 0.13831556
0.22262107 0.1517553 0.1381772
0.24209519 0.172546 0.15202872
0.24272312 0.17324054 0.15288207
0.24372773 0.17435607 0.15413007
0.24477956 0.17552567 0.15527305
0.24588625 0.17669727 0.15635094
0.24701312 0.17790399 0.15738726
0.24812827 0.1791044 0.15843995
0.24921167 0.18027674 0.15954329
0.20737502 0.13162151 0.12663531
0.20858337 0.1329245 0.12746155
0.20977373 0.13420376 0.12835796
0.21057126 0.1350636 0.12891403
0.22433996 0.15075439 0.13862099
0.24306113 0.17164031 0.15195505
0.24415953 0.17191681 0.15277198
0.24520235 0.17306502 0.15394832
0.24624437 0.17421257 0.155128
0.24731047 0.17536278 0.15628746
0.24840154 0.17657238 0.15734786
0.24921243 0.177782 0.15831493
0.20718862 0.12953068 0.12561418
0.20840144 0.13083263 0.12639076
0.20960979 0.13213007 0.12721013
0.21081163 0.13342182 0.12806889
0.212 0.1346882 0.12897371
0.21316369 0.13592115 0.12992904
0.22571723 0.14957485 0.13900763
0.22725333 0.15097474 0.1388493
0.24280386 0.16735792 0.14974467
0.2447606 0.16975981 0.15208176
0.24543577 0.1705478 0.15285859
0.24643804 0.17171612 0.15404166
0.24754144 0.17279445 0.15526995
0.24818581 0.1735606 0.15607905
0.25023755 0.17596464 0.15830541
0.2087114 0.12833463 0.1252829
0.20994371 0.12966606 0.12597305
0.21117239 0.13099582 0.12671734
0.21238072 0.1322986 0.12755801
0.2135651 0.13355115 0.12851232
0.21517429 0.13493064 0.12965672
0.21624982 0.13632685 0.13091491
0.2174924 0.13665745 0.13156064
0.22700092 0.14895174 0.13917005
0.22816803 0.15019204 0.13908048
0.23002528 0.15072435 0.13930066
0.23194484 0.15182856 0.13972367
0.24060918 0.16131093 0.14672801
0.24211229 0.16474082 0.1485354
0.24338436 0.16514426 0.1498709
0.24413356 0.16656035 0.15069932
0.24554721 0.16780941 0.15216246
0.24650759 0.16903518 0.15331402
0.24728915 0.17066252 0.15429665
0.248266 0.17183864 0.15548185
0.21063569 0.12755975 0.12523118
0.21147248 0.12846196 0.12563568
0.21270356 0.12979171 0.12636603
0.21391745 0.13110583 0.12718762
0.21512158 0.13240576 0.12806566
0.21670277 0.13408579 0.1293394
0.21784978 0.13526146 0.13040465
0.21858002 0.13597777 0.13118775
0.22970118 0.14818224 0.139742
0.23124467 0.14983357 0.13983157
0.23266658 0.15105718 0.14017972
0.23360674 0.15189172 0.14053687
0.23694795 0.15532094 0.14284122
0.23763463 0.15618314 0.14357658
0.23863497 0.15747657 0.14466934
0.2395853 0.15876843 0.14578688
0.2407469 0.15966053 0.14716756
0.24204376 0.16137439 0.14866063
0.24309295 0.16264272 0.14973444
0.21158811 0.12670368 0.12529773
0.21290444 0.12716441 0.12570579
0.21417065 0.12849596 0.12631996
0.21542259 0.12984517 0.12697375
0.21665749 0.13119163 0.12772836
0.21830635 0.13290998 0.12890024
0.21957482 0.13401368 0.12983905
0.22053039 0.13525736 0.13111162
0.23190002 0.14862725 0.1403311
0.23332627 0.1498542 0.14074853
0.2346416 0.15101929 0.14145663
0.23598272 0.15244915 0.14241749
0.23697136 0.15343601 0.14333637
0.2380645 0.1549923 0.14442031
0.23869836 0.15586415 0.1451627
0.21600029 0.12762196 0.12668835
0.21684903 0.12851459 0.12707946
0.21813565 0.12988393 0.12762567
0.21980773 0.13170832 0.12859592
0.22108747 0.13286397 0.12951331
0.22207795 0.13409132 0.1307683
0.21778168 0.1276437 0.12719217
0.21954127 0.12884967 0.12776445
0.22125736 0.13036585 0.12856163
0.22251356 0.1315642 0.12945424
0.22354259 0.13279979 0.13062221
0.22266307 0.12902224 0.12861644
0.22385082 0.13028614 0.12950829
0.22458287 0.13106449 0.1302374
0.22397229 0.12854385 0.12898177
0.22475544 0.12937447 0.12958649
0.22548491 0.13015814 0.1302755
0.20366189 0.22496648 0.16700576
0.20662436 0.22253503 0.16592292
0.20808585 0.22123662 0.16572446
0.20905542 0.22122867 0.16702704
0.2095307 0.21992345 0.16555554
0.21061997 0.22003576 0.16673499
0.2104615 0.21690705 0.16355923
0.21075211 0.2183025 0.16503315
0.21214832 0.2187961 0.16648024
0.21128665 0.21594948 0.16356815
0.21248287 0.21671626 0.16512543
0.2137122 0.21771897 0.16690432
0.20875524 0.20918295 0.15929793
0.20979421 0.2104222 0.16038823
0.21087925 0.21166901 0.16144094
0.21154042 0.21336113 0.16247906
0.21287087 0.21454491 0.16400512
0.21338974 0.21549211 0.16504844
0.21461055 0.21596818 0.1665426
0.20812003 0.20487519 0.15748289
0.20907687 0.20603877 0.15868209
0.20976086 0.20773643 0.15967926
0.21085335 0.20897245 0.16071862
0.21243878 0.210539 0.16210301
0.21344972 0.21172416 0.16320844
0.21428601 0.21284167 0.16429265
0.20824981 0.20316033 0.15681601
0.20886417 0.20390223 0.1576484
0.20992659 0.20499215 0.15889667
0.21108186 0.20613459 0.15999916
0.21223588 0.20739329 0.16096993
0.21370757 0.2090316 0.16233678
0.21469988 0.21019721 0.16344507
0.21519652 0.21086837 0.16433498
0.2087702 0.19989564 0.1551574
0.2091707 0.20135128 0.15651961
0.21017051 0.20240748 0.15785497
0.21123587 0.20350721 0.15909304
0.21303999 0.20643483 0.1610972
0.21417134 0.20767727 0.16206442
0.20966564 0.19897571 0.15514012
0.21058324 0.19995223 0.15657687
0.21156003 0.20098212 0.15793891
0.21223696 0.20172259 0.15873875
0.21002942 0.19746257 0.15414023
0.21062146 0.19810116 0.1550445
0.21205857 0.198661 0.15645365
0.21298854 0.19963931 0.15784174
0.21358457 0.19742768 0.15613931
0.21516532 0.19624896 0.15574564
0.21554661 0.19758844 0.15739159
0.21667869 0.1949971 0.15545444
0.21765646 0.19222611 0.15398425
0.21813905 0.19370081 0.15534359
0.21750823 0.19014217 0.15285882
0.21847519 0.19122136 0.15410276
0.2194443 0.19225276 0.15546942
0.20177156 0.1692649 0.13830182
0.21746966 0.18628392 0.15112224
0.2177171 0.18751569 0.15188088
0.21877196 0.18860415 0.15318426
0.21976471 0.18969572 0.15445046
0.21999399 0.1909097 0.15522426
0.20125118 0.16693276 0.13801835
0.20260046 0.16837831 0.13857417
0.21701008 0.18386829 0.14950521
0.21800993 0.18495765 0.15078191
0.21905057 0.1860413 0.15213524
0.21968111 0.18673964 0.1530083
0.20034458 0.16351821 0.13606411
0.2014512 0.16435498 0.13716365
0.20260912 0.16559671 0.13812745
0.2038909 0.16698453 0.13887504
0.20520575 0.16742948 0.13938019
0.20865618 0.17104101 0.14114818
0.2094788 0.17191209 0.14174175
0.21339524 0.17618808 0.14491738
0.21502246 0.17795351 0.14602661
0.21777055 0.18089387 0.14834127
0.21837568 0.18247022 0.14955322
0.21936366 0.1835306 0.15090218
0.21988305 0.18504599 0.15226048
0.20224987 0.16236661 0.13609424
0.20298104 0.16308111 0.13692948
0.20400798 0.16430621 0.13807803
0.20522699 0.1655709 0.1389387
0.20651156 0.16691391 0.13972226
0.20781147 0.16830595 0.14045539
0.20907794 0.16964889 0.14117195
0.21029812 0.17094894 0.14203605
0.21146441 0.17220649 0.14302921
0.21268173 0.17350677 0.14389238
0.21390782 0.17482138 0.14472078
0.21515104 0.17617162 0.145477
0.21638222 0.17751727 0.14628366
0.21874675 0.18002851 0.14825049
0.21984027 0.1811379 0.14944459
0.22080518 0.18216813 0.15082261
0.22174127 0.18316786 0.15223175
0.20338911 0.16112065 0.13545518
0.20454244 0.16192208 0.13653967
0.20553274 0.16316739 0.13772161
0.20670131 0.16436046 0.13872992
0.20796835 0.16560109 0.13965681
0.20926495 0.16693752 0.14047787
0.21041602 0.16823575 0.14129867
0.21156254 0.16949946 0.14217938
0.21279864 0.17080347 0.14308268
0.21410817 0.17213969 0.14394903
0.21536738 0.17349526 0.14467749
0.21662009 0.17487797 0.14535366
0.21785472 0.17623714 0.14612631
0.21907674 0.17756881 0.14698406
0.22026061 0.1788085 0.14797834
0.22138779 0.17992543 0.14913911
0.22231412 0.18104808 0.15055534
0.20614119 0.16088606 0.13597701
0.207169 0.16202874 0.13722266
0.20824136 0.16327816 0.13826986
0.20962127 0.1644014 0.1392425
0.21082158 0.16568027 0.14018635
0.21181168 0.16699791 0.14108576
0.2130145 0.16826336 0.14201882
0.2142206 0.16956601 0.14288531
0.21564983 0.17086564 0.14373192
0.21690109 0.1722713 0.14437532
0.21814597 0.17367554 0.14501818
0.21938038 0.17506135 0.14574996
0.22298217 0.17887582 0.14863156
0.22398876 0.17996317 0.14996853
0.2249292 0.18088925 0.15146184
0.20881462 0.1611985 0.1367611
0.21003059 0.16214912 0.13760649
0.21091227 0.16337489 0.13852918
0.21240276 0.16460322 0.13960516
0.21360093 0.16586468 0.14054863
0.21465845 0.16716777 0.14150356
0.21593271 0.16842581 0.14240824
0.21721284 0.16972356 0.1432534
0.21844035 0.17112328 0.14392561
0.21916644 0.17291096 0.14472449
0.22517854 0.17928769 0.14944805
0.22667281 0.17991705 0.15073723
0.22725432 0.1805249 0.15179558
0.20034611 0.14882021 0.12872288
0.21636039 0.16616225 0.1407925
0.21755873 0.16737384 0.14180793
0.22935361 0.17985156 0.15148635
0.20038727 0.14602855 0.12858181
0.20242749 0.14713812 0.12839524
0.23109242 0.17884751 0.15079348
0.23184386 0.17964257 0.15259717
0.20187637 0.1447743 0.12843026
0.20339896 0.14628258 0.12843265
0.23302285 0.17805265 0.15082961
0.23347318 0.17864826 0.15214007
0.20327619 0.14366359 0.12840545
0.20477584 0.14499071 0.12859343
0.2061585 0.14545053 0.12894075
0.21023023 0.14976019 0.13185713
0.21098274 0.15149041 0.13274126
0.21243048 0.15315504 0.13420142
0.21366939 0.15445554 0.13502507
0.21497266 0.1554794 0.13558607
0.23458423 0.17687257 0.15051734
0.23507236 0.17751165 0.1517785
0.23563062 0.17795572 0.15277755
0.20509048 0.14252947 0.12870166
0.20602737 0.14342184 0.1289808
0.20739509 0.14500837 0.12943895
0.20863836 0.14630528 0.13023169
0.20977725 0.14757971 0.13122109
0.21133028 0.14900881 0.1327762
0.21235669 0.15026262 0.13393071
0.21350394 0.15154295 0.13492878
0.21479166 0.15283823 0.13566586
0.2162053 0.15430802 0.136077
0.21767864 0.15580082 0.13622509
0.23606169 0.17555521 0.15034324
0.2365879 0.17622074 0.15154897
0.2371283 0.17670086 0.15255767
0.20683526 0.14252596 0.12928978
0.20816682 0.14385934 0.12987821
0.20938002 0.1451484 0.13075306
0.21046782 0.14640895 0.13182348
0.21743295 0.15371762 0.13660103
0.21890651 0.15434538 0.13676888
0.22036588 0.15497489 0.13704386
0.23744278 0.17383595 0.14993167
0.23803106 0.17486884 0.15141459
0.23910303 0.17500165 0.15231226
0.22205693 0.15418188 0.13748947
0.23769885 0.17154446 0.14832936
0.2390523 0.1720942 0.14984359
0.23994718 0.17307261 0.15125506
0.22378904 0.15299088 0.13808356
0.22438741 0.15441428 0.13786596
0.22587737 0.15561871 0.13802561
0.23833998 0.16897315 0.14723848
0.23902835 0.17010105 0.14839181
0.24047112 0.17071415 0.14980787
0.24139842 0.17177069 0.15110904
0.22610116 0.15260819 0.13847524
0.22733404 0.15410446 0.13843821
0.22865696 0.15596929 0.13858329
0.23935273 0.16756265 0.14723802
0.24086255 0.16816457 0.14859833
0.241799 0.169313 0.14984278
0.24276611 0.17044483 0.15106022
0.24383849 0.17072369 0.15191501
0.22886126 0.1533017 0.13873866
0.23002854 0.1546893 0.13885681
0.23138472 0.15513833 0.13928615
0.23953478 0.1649688 0.14628056
0.24054702 0.1661278 0.14749174
0.24197163 0.16672908 0.14887732
0.24329382 0.16831364 0.15043609
0.24396065 0.16909893 0.15121502
0.23024294 0.15222794 0.13911903
0.23121347 0.15305874 0.13928792
0.23273918 0.15418889 0.13983722
0.2353536 0.15677305 0.141322
0.23676115 0.15800242 0.14250472
0.23778251 0.15927741 0.14361995
0.23878016 0.16053791 0.14473185
0.23969141 0.16165952 0.14574057
0.24062355 0.16335398 0.14686707
0.24127533 0.16418518 0.14763072
0.23412277 0.15375012 0.14061444
0.23496477 0.15459186 0.14109497
0.23616035 0.15587156 0.14195183
0.20335256 0.22500323 0.1642549
0.20482393 0.22371608 0.16405304
0.20637392 0.2223058 0.16440478
0.20727515 0.22052471 0.16286157
0.20768389 0.22088641 0.16429122
0.20813113 0.21848942 0.16191179
0.20868815 0.21897186 0.16322051
0.20897055 0.21945523 0.16424762
0.20790073 0.21426426 0.15961446
0.20846051 0.21503951 0.16045345
0.20900171 0.21653196 0.16181785
0.20945202 0.21797222 0.16326053
0.20722413 0.21165963 0.1583191
0.20816386 0.21287239 0.1594941
0.20930967 0.21383484 0.16088812
0.21017089 0.21495751 0.16214027
0.2054811 0.20607528 0.15544674
0.2061892 0.20761906 0.15662973
0.20714863 0.20882778 0.15779527
0.20797342 0.21040906 0.15883654
0.20894596 0.21162443 0.15999694
0.20994842 0.21283054 0.16112113
0.20479177 0.20325011 0.15346552
0.20530812 0.2039641 0.15436311
0.20624308 0.20498735 0.15576753
0.20723955 0.20604177 0.15710844
0.20816608 0.20721976 0.15834348
0.2058197 0.20136812 0.15340506
0.20647916 0.20239991 0.15471235
0.20717575 0.20345084 0.15597904
0.20600821 0.19894172 0.15197596
0.20688671 0.19991098 0.15346694
0.20776194 0.20087381 0.15495452
0.20715475 0.19636743 0.15112571
0.20735256 0.19750142 0.15211752
0.20825115 0.19846717 0.15360039
0.20010561 0.18691243 0.14490372
0.20142278 0.18829881 0.14553289
0.20674098 0.19396389 0.14942066
0.2080494 0.19542272 0.15115239
0.20876494 0.1961289 0.15214425
0.20935547 0.19677953 0.15307237
0.20035897 0.18431549 0.14390919
0.20158657 0.18563062 0.14475659
0.20283809 0.18695989 0.14555112
0.20483251 0.18875372 0.1466514
0.2072448 0.19133851 0.14849985
0.20808616 0.19257221 0.14947292
0.20913778 0.19370152 0.15067787
0.21018633 0.19480209 0.15202969
0.21114269 0.19580506 0.15334165
0.21208812 0.19677167 0.15465693
0.20076799 0.18195149 0.14245436
0.20194927 0.18316494 0.14347775
0.20312287 0.1843973 0.14448138
0.20432684 0.18567796 0.14539734
0.20595038 0.18740974 0.14656772
0.20719059 0.18873425 0.14739221
0.20838806 0.19002059 0.14832796
0.20952713 0.19123682 0.14939506
0.21062414 0.1923998 0.15051737
0.21224846 0.19318077 0.15161622
0.21327293 0.19426043 0.1528531
0.21421915 0.19522798 0.15418431
0.20189136 0.18123393 0.14207225
0.20351119 0.18228406 0.14319177
0.20416816 0.183599 0.1442485
0.206214 0.18481171 0.14555523
0.20740707 0.18608662 0.14649647
0.20862356 0.18738869 0.14737493
0.2098254 0.18867408 0.1482908
0.21097726 0.18990728 0.14930922
0.21248454 0.19151762 0.15069412
0.21374415 0.19189064 0.15142728
0.21478115 0.19299731 0.15263091
0.21573281 0.19399363 0.15393318
0.20768939 0.1835026 0.14543271
0.20888591 0.1847834 0.14636715
0.21007 0.18605018 0.14732434
0.21172342 0.186857 0.14824972
0.21288002 0.18809587 0.14926463
0.2143798 0.18970902 0.15066975
0.21512821 0.1904918 0.15143129
0.21617912 0.19162519 0.1525896
0.21668722 0.19311407 0.15385021
0.2091774 0.18221347 0.14526922
0.21031542 0.18343361 0.14629942
0.21149307 0.1846925 0.14727348
0.21315262 0.18549152 0.14822455
0.21427646 0.18669869 0.14930797
0.21573311 0.18827897 0.15078892
0.21640499 0.18902935 0.15159433
0.20039135 0.16990612 0.13808513
0.20187938 0.1715557 0.13832328
0.20843267 0.17853129 0.14288014
0.20994645 0.17919423 0.14414516
0.21107045 0.18038535 0.14522189
0.21222441 0.18162765 0.14623967
0.21338868 0.18287596 0.14724016
0.21453953 0.18411033 0.14826494
0.21562573 0.18528846 0.14939463
0.2165589 0.18728773 0.15093182
0.20313646 0.17006737 0.13869552
0.20453487 0.17150433 0.13915269
0.20626287 0.17243558 0.13994846
0.20738746 0.17421313 0.14072092
0.20869246 0.1755238 0.1418335
0.20936865 0.1766409 0.14275233
0.2108492 0.17793316 0.1441828
0.21244028 0.17898799 0.14532392
0.21359155 0.18022259 0.14635146
0.2147693 0.18148306 0.14731261
0.21591789 0.18271318 0.14832447
0.20060533 0.16237019 0.13534118
0.20436138 0.16852409 0.13918471
0.20613764 0.16948159 0.1398825
0.20759183 0.17131469 0.14061645
0.20869806 0.17302994 0.14141099
0.21023685 0.17379227 0.14261533
0.21137829 0.1750219 0.14367253
0.21229346 0.176309 0.14447527
0.21380609 0.17757393 0.14548528
0.21498537 0.17913906 0.14648043
0.21619484 0.18010351 0.14732346
0.21685728 0.18177567 0.14834583
0.20059773 0.16059001 0.13374829
0.20165123 0.16154926 0.13512728
0.21770026 0.17874849 0.14724188
0.20033386 0.15702547 0.131079
0.2012047 0.15823442 0.13200383
0.20216486 0.15946725 0.13332985
0.20377016 0.16006161 0.13453731
0.20033401 0.15445608 0.12995115
0.20157695 0.1558457 0.13063239
0.2027674 0.15709603 0.13160305
0.20376201 0.15837447 0.13284329
0.20483422 0.15935476 0.13419671
0.20557083 0.16005196 0.13503896
0.22085173 0.17634194 0.146533
0.22205441 0.1776264 0.14740801
0.20048799 0.15179951 0.12911776
0.20188624 0.15329109 0.12950987
0.20313607 0.15465932 0.13024597
0.20433725 0.15593795 0.13119656
0.20546255 0.15708169 0.13234964
0.20656633 0.15814963 0.13360414
0.20757255 0.15930781 0.13491951
0.20921402 0.16010916 0.13593797
0.21241398 0.16337454 0.13862754
0.22050329 0.17215925 0.14436539
0.22121066 0.17392021 0.14522499
0.22243795 0.17530487 0.14594346
0.22365354 0.17663571 0.14678271
0.22483388 0.17781843 0.14782335
0.22650065 0.17853731 0.14879365
0.20203088 0.1505812 0.12875049
0.20343666 0.15206817 0.12916514
0.2047139 0.15343851 0.12988231
0.20589884 0.15471098 0.13087572
0.20698963 0.15585956 0.13207512
0.20809329 0.15698746 0.13327698
0.20917724 0.15817916 0.13445887
0.21027991 0.15941955 0.13553594
0.21146952 0.16065995 0.13652952
0.21268126 0.16194597 0.13742688
0.21388243 0.16318984 0.13840237
0.21548906 0.16485313 0.13968793
0.21908502 0.16859147 0.14262247
0.22031638 0.17001072 0.14333451
0.2215367 0.17142297 0.14400411
0.22276372 0.17286377 0.14460748
0.22432449 0.17423917 0.14521986
0.22554211 0.1755954 0.14598447
0.22672385 0.17681748 0.14693612
0.22759587 0.17798938 0.14833136
0.22864866 0.17881618 0.14966209
0.20156807 0.14821611 0.12852113
0.20353529 0.14931537 0.12857357
0.20490976 0.15077598 0.12907819
0.2066161 0.15164411 0.12990981
0.20734315 0.15336925 0.13083251
0.20846087 0.15456268 0.13196282
0.20954221 0.15574256 0.13313521
0.21066749 0.15694986 0.1342317
0.21182579 0.1582115 0.13519545
0.21304429 0.15954578 0.1359939
0.21426505 0.16092159 0.13673121
0.21577182 0.16223046 0.13749295
0.21686691 0.16394401 0.13872084
0.2182734 0.16478521 0.13951935
0.21944386 0.16634814 0.14097326
0.22064096 0.16757816 0.14197107
0.22185472 0.16891336 0.14279982
0.22307436 0.1703003 0.14351137
0.22455919 0.17172594 0.14409257
0.22587679 0.17317037 0.14467034
0.22711886 0.17459509 0.14534442
0.22834307 0.17591263 0.14624412
0.22946097 0.17695114 0.14745624
0.23030597 0.17797254 0.14904858
0.20492513 0.14801444 0.12867412
0.20624346 0.14944869 0.12926215
0.20747027 0.15073729 0.13008459
0.208666 0.15184733 0.13112341
0.2097712 0.15309258 0.13221809
0.21084604 0.15430793 0.13337149
0.21202554 0.15557317 0.1343668
0.21329179 0.15690151 0.13512985
0.21457174 0.15826763 0.13575652
0.21607406 0.15977679 0.13627835
0.21733128 0.16116658 0.13688965
0.21854843 0.16248938 0.13772559
0.21974604 0.16373977 0.138708
0.22103049 0.16537395 0.14027193
0.22220075 0.16652191 0.14140706
0.22340214 0.16778697 0.14232975
0.22461982 0.16912536 0.14311473
0.22615786 0.17052409 0.14375512
0.22741747 0.17198017 0.14430375
0.22826526 0.17295294 0.14469993
0.23106715 0.17589404 0.14698844
0.23204082 0.17673185 0.14838715
0.23254198 0.17740618 0.14958028
0.20621131 0.14688081 0.12897196
0.20748091 0.14801656 0.12959827
0.208652 0.14923753 0.13053578
0.20945309 0.15090644 0.1313892
0.21599954 0.15723988 0.13587579
0.21755497 0.15853864 0.13618335
0.21843365 0.15946372 0.13643426
0.21960002 0.16173106 0.13734332
0.22128065 0.16289692 0.138339
0.2224891 0.16381715 0.13929494
0.22358005 0.16497053 0.14049201
0.22496678 0.1666207 0.14192542
0.22617203 0.16790283 0.14280219
0.22760543 0.16927747 0.14350335
0.22893298 0.17070368 0.1441105
0.2302244 0.17214559 0.14471385
0.23287494 0.17460378 0.14686881
0.23355854 0.17554756 0.14811309
0.23407905 0.17621638 0.14929076
0.21876751 0.15700264 0.13638258
0.22033043 0.15862824 0.13662609
0.22325103 0.16177031 0.13826536
0.22403318 0.16259758 0.13897069
0.2251711 0.16375747 0.14015542
0.2266261 0.16538312 0.14159094
0.22771454 0.1666452 0.14255397
0.22904493 0.16797201 0.14337611
0.23040485 0.16937226 0.14404947
0.2316903 0.17077799 0.1446964
0.23291656 0.1720887 0.14557728
0.2340223 0.17325206 0.14669085
0.2349595 0.17419906 0.14804445
0.23552653 0.1748853 0.14915851
0.21967281 0.15615784 0.13667513
0.22156912 0.15712927 0.13693878
0.22305928 0.15867369 0.13727196
0.22432539 0.16000791 0.13791753
0.22554401 0.16131586 0.13878295
0.22669773 0.16253091 0.13987684
0.22816433 0.16415712 0.14128914
0.22925054 0.16540243 0.14228602
0.23047543 0.1667081 0.14314932
0.23178758 0.16802758 0.14399715
0.23311041 0.16940002 0.14472704
0.23428948 0.17066813 0.14565401
0.23537254 0.17185582 0.14679423
0.23633459 0.17290956 0.14816745
0.23645523 0.17396665 0.14912631
0.2233457 0.15622196 0.13742232
0.22425711 0.15709421 0.13753478
0.22574601 0.15868479 0.13806422
0.22699711 0.15999606 0.13877538
0.22820175 0.16127197 0.1396794
0.22938259 0.16252641 0.14066774
0.2304818 0.1637482 0.14168444
0.23200087 0.16541459 0.14298373
0.23322828 0.16670887 0.14387013
0.23446217 0.16801284 0.14474867
0.23564118 0.16927174 0.14576152
0.23670156 0.17042869 0.14693838
0.2260695 0.1571216 0.13800523
0.22741403 0.1575819 0.13841265
0.22874513 0.15864885 0.13892968
0.22965364 0.16029021 0.13964963
0.23093294 0.16165917 0.14071946
0.23230313 0.16248378 0.14151241
0.23353975 0.16414303 0.14279726
0.23470174 0.16538772 0.14379084
0.23584916 0.1666261 0.14481954
0.23695399 0.16784139 0.14590454
0.23721781 0.16908668 0.14663653
0.23014194 0.15762149 0.13911031
0.23145695 0.15912418 0.13992496
0.23266093 0.16034004 0.14074174
0.23384696 0.16154835 0.14168905
0.23498163 0.16280004 0.14274284
0.23609821 0.16403981 0.1437996
0.23717764 0.16525975 0.1449078
0.23822588 0.16646074 0.14604995
0.23145987 0.15660301 0.13942233
0.23276284 0.15774216 0.14003478
0.2339998 0.15897559 0.14083979
0.23518014 0.16020276 0.14180149
0.23625216 0.16144037 0.14289172
0.23731174 0.16268004 0.14398091
0.23811343 0.16391839 0.14494099
0.23389997 0.15634014 0.14041893
0.2031534 0.22503683 0.16207933
0.20410289 0.22416222 0.16197976
0.20580046 0.22200255 0.16164291
0.20643075 0.21861187 0.15910928
0.20665249 0.21996427 0.16071641
0.20694025 0.21755412 0.159321
0.20751734 0.21800421 0.16063523
0.20407923 0.21037216 0.15478584
0.2050332 0.21161959 0.15593195
0.20621268 0.21252665 0.15733948
0.20673969 0.21438657 0.15824683
0.20731995 0.21604036 0.15931751
0.2030178 0.20737031 0.15317488
0.20358005 0.20816557 0.15400608
0.2047524 0.20908983 0.15542331
0.20568949 0.21031776 0.15659289
0.20635678 0.21114549 0.15733533
0.20245738 0.20279576 0.15051349
0.20295575 0.20426293 0.15193821
0.20384991 0.20526902 0.15338458
0.20437446 0.20691268 0.15453795
0.20495611 0.2077059 0.15536658
0.20337443 0.20214508 0.15114956
0.20406181 0.2026881 0.15233575
0.20432703 0.20022695 0.15102488
0.20476454 0.20167287 0.1525079
0.20009801 0.19277999 0.14574128
0.20147149 0.19417153 0.14634492
0.20374775 0.19667588 0.14841625
0.20530926 0.19832993 0.15087092
0.20009173 0.19012855 0.14540505
0.20142105 0.19128883 0.14597911
0.20272192 0.19260399 0.14670919
0.20386699 0.19398358 0.14762463
0.20499274 0.19512708 0.14875293
0.20615242 0.19735035 0.150961
0.20274864 0.18979824 0.14621115
0.20402478 0.19114871 0.14694847
0.20520876 0.19242236 0.14790264
0.20595545 0.19323376 0.14861485
0.20365131 0.18885729 0.14632864
0.20578758 0.19017369 0.1473888
0.20611528 0.19148736 0.14797737
0.20010436 0.18106602 0.14175496
0.20013253 0.17832944 0.13988389
0.20135033 0.17963333 0.14077163
0.20305076 0.18048295 0.14164348
0.20378293 0.18124744 0.14243107
0.20044152 0.17577003 0.13876137
0.2017756 0.17720266 0.13931327
0.2030229 0.17853722 0.1402325
0.20411204 0.17970029 0.14137606
0.20481524 0.18043722 0.14222534
0.20056953 0.17309742 0.13820222
0.20199853 0.17457625 0.13847241
0.20332752 0.17604877 0.13912214
0.20450521 0.17728414 0.1400626
0.20559746 0.17842199 0.14120032
0.20672469 0.17928869 0.14226379
0.20333716 0.17318286 0.13867234
0.20466594 0.17453441 0.13926645
0.20586258 0.17581525 0.14019229
0.20696743 0.17701909 0.14130697
0.20548686 0.17358901 0.13958403
0.20630048 0.17444496 0.14013302
0.20570736 0.15262629 0.12987317
0.22971669 0.17423952 0.14546834
0.21901536 0.16088055 0.13691536
0.23111074 0.17385626 0.14556785
0.23184958 0.17460661 0.14629182
0.2200119 0.16008721 0.13678446
0.22134505 0.16056442 0.13716884
0.22214808 0.16139777 0.13773733
0.23206852 0.17296152 0.14552328
0.20195082 0.22569712 0.16071314
0.20233583 0.22424904 0.15756933
0.2027542 0.22462726 0.15900972
0.20302126 0.22489314 0.16052696
0.20354185 0.22279218 0.15751192
0.20397659 0.22317168 0.15893713
0.20431907 0.22348703 0.16040885
0.20450784 0.2208768 0.15736789
0.20529225 0.22151694 0.15942432
0.20395377 0.2171146 0.15504012
0.2047476 0.21829259 0.15628195
0.20542978 0.21921583 0.15773712
0.20030563 0.21122105 0.15114097
0.20133337 0.2123314 0.15211575
0.20238753 0.21361311 0.15317594
0.20343974 0.21488971 0.1542329
0.20469368 0.21546648 0.15571304
0.20575552 0.21633989 0.15725684
0.20623273 0.21707976 0.15811327
0.20045188 0.20776699 0.15067936
0.20146215 0.20892955 0.15189312
0.20249802 0.21010578 0.15309234
0.20328213 0.2118448 0.15400998
0.20440042 0.21292695 0.15524875
0.20532699 0.21416183 0.15640247
0.20067582 0.20500824 0.14986719
0.20162901 0.20605262 0.15126246
0.20215903 0.20683832 0.15211739
0.2008532 0.20238623 0.14885028
0.20148088 0.20393082 0.15015329
0.20126258 0.19974796 0.14780502
0.20212424 0.20085685 0.14911972
0.20263393 0.2015776 0.15000726
0.20009369 0.1957425 0.14611776
0.20138288 0.19708209 0.14689685
0.20240815 0.19827048 0.14804144
0.20286687 0.19984937 0.14928791
0.20257355 0.19561657 0.14720441
0.2025848 0.22283146 0.1561716
0.20252489 0.21864979 0.15377226
0.20329967 0.21981411 0.15503587
0.20330656 0.22185194 0.15620333
0.20090012 0.21512699 0.15195699
0.2020036 0.21641161 0.15297182
0.20089786 0.22086188 0.15322009
0.20167361 0.22198468 0.15449339
0.20091988 0.21816663 0.15230729
0.20158756 0.21988443 0.15333517
0.20236808 0.22101678 0.15457281
0.34027156 0.19701093 0.08954186
0.34113979 0.19688784 0.0911505
0.34317371 0.19611832 0.090387292
0.3454105 0.19596195 0.091729864
0.34694991 0.1954239 0.090963073
0.34807196 0.19443229 0.08977481
0.35507849 0.18859775 0.088457592
0.35615677 0.18752289 0.08841826
0.35643104 0.18568127 0.087445632
0.35782924 0.18603192 0.088279687
0.3616977 0.18485999 0.088213079
0.36310673 0.18205036 0.087052837
0.33893803 0.19703069 0.087967567
0.34019935 0.19629127 0.087606303
0.34213427 0.1956995 0.088115975
0.3436777 0.19445211 0.087101415
0.34501514 0.19505578 0.089211643
0.34588137 0.19366863 0.087351002
0.34631154 0.19437085 0.088784039
0.34713066 0.19285288 0.087001085
0.34760219 0.19362937 0.088371702
0.34903872 0.1948249 0.090442218
0.34835386 0.19198093 0.086712025
0.34958673 0.19227023 0.087759927
0.35020733 0.19303355 0.088919245
0.35051608 0.19392189 0.089786902
0.35123572 0.1908797 0.08758419
0.35198444 0.19162676 0.088567831
0.35166824 0.18882193 0.086497307
0.35229182 0.18976276 0.087559335
0.35309044 0.19059049 0.08848168
0.35083786 0.18466842 0.083765373
0.35248592 0.18543467 0.085207418
0.35274151 0.18710747 0.086274445
0.3541508 0.18949586 0.088475816
0.35084331 0.18145579 0.081777774
0.35245341 0.18307099 0.083741419
0.35356894 0.18437649 0.085180826
0.3547028 0.18570606 0.086574949
0.35549706 0.18651941 0.0875405
0.35240346 0.18093105 0.082089275
0.35359845 0.18208681 0.083596013
0.35460413 0.18347669 0.085085876
0.35581851 0.1846883 0.086489029
0.35838854 0.18735403 0.089030199
0.35537183 0.18069987 0.083254792
0.35606149 0.18158385 0.084260009
0.35728619 0.18278131 0.085670389
0.35839963 0.18409249 0.087106921
0.35985187 0.18448389 0.087868869
0.36020333 0.18597785 0.088631153
0.35800681 0.1801894 0.083748907
0.35908753 0.18143719 0.085266478
0.36018234 0.18271534 0.086747944
0.36106819 0.18361652 0.087550282
0.35921291 0.17932577 0.083447695
0.36027688 0.18053634 0.085010439
0.36136717 0.18180442 0.086501382
0.36226311 0.18272252 0.087281018
0.36371517 0.18437785 0.088077396
0.36195311 0.17952497 0.084817208
0.3631556 0.18048087 0.086079583
0.36465114 0.18096644 0.086704202
0.36500087 0.18245257 0.087450191
0.36412486 0.17842028 0.08466097
0.36496508 0.17919761 0.085609645
0.36584625 0.18008228 0.086426958
0.36730939 0.18212098 0.087300777
0.36566666 0.17734852 0.084234402
0.36617416 0.17835206 0.085287191
0.36703736 0.17919581 0.086150318
0.36867464 0.18077992 0.086851969
0.36686948 0.17648157 0.083933011
0.36737323 0.177495 0.084978409
0.36882916 0.17787705 0.08572612
0.36953583 0.17918332 0.086338356
0.36807054 0.17561957 0.08362896
0.36951339 0.17596735 0.084427916
0.37063032 0.17659925 0.085248247
0.37186277 0.17811128 0.086006805
0.37130678 0.17464121 0.08401487
0.37181133 0.17566608 0.085031696
0.37309188 0.17646198 0.085587673
0.37356693 0.174301 0.084714532
0.33315569 0.1950639 0.083041742
0.334108 0.19635357 0.084660314
0.32905537 0.18859774 0.07778918
0.33347639 0.19329824 0.081876531
0.33407456 0.19436219 0.082738906
0.33552471 0.19556147 0.084085636
0.33653903 0.19661939 0.085798152
0.3385179 0.19638817 0.086512282
0.32857278 0.18359232 0.075480044
0.32891202 0.18505523 0.076289535
0.33054474 0.18646649 0.077673234
0.33158061 0.18795413 0.078637049
0.33249331 0.18894079 0.079365708
0.33398855 0.18943137 0.080014721
0.33615765 0.1928485 0.082296968
0.3370361 0.19373493 0.083145618
0.33820242 0.19493069 0.084617861
0.33975545 0.19559713 0.086195961
