# .PCD v0.7 - Point Cloud Data file format
VERSION 0.7
FIELDS x y z
SIZE 4 4 4
TYPE F F F
COUNT 1 1 1
WIDTH 1420
HEIGHT 1
VIEWPOINT 0 0 0 1 0 0 0
POINTS 1420
DATA ascii
0.21901873 0.22717431 0.033265505
0.22104435 0.22680783 0.03340907
0.22298345 0.22710863 0.033728443
0.22471914 0.22641109 0.033784039
0.23108979 0.22697514 0.033950537
0.23308848 0.22683805 0.033769216
0.23498455 0.22709101 0.033791479
0.2370549 0.22699563 0.033832557
0.23906282 0.22685203 0.033870008
0.24089831 0.22712392 0.033923097
0.24305964 0.22676961 0.033954065
0.24475901 0.22650045 0.033978865
0.24627708 0.22604445 0.033990934
0.27703598 0.22692315 0.033958066
0.27897859 0.22667541 0.03398921
0.28506169 0.22687304 0.033882108
0.28708977 0.22679377 0.033722844
0.28895551 0.22715445 0.033543073
0.29095724 0.22680335 0.033543881
0.2929627 0.22699809 0.033811539
0.29450125 0.22790772 0.033887912
0.29689962 0.22707526 0.033901747
0.29910979 0.22696257 0.033611532
0.30110139 0.22712283 0.033496067
0.30296433 0.22698413 0.033530559
0.30504674 0.2270152 0.033577815
0.30712914 0.22704621 0.03362507
0.30899209 0.22690754 0.033659566
0.31098944 0.22704826 0.033710077
0.31304631 0.22705266 0.033505373
0.31494009 0.22699897 0.033294287
0.31683257 0.22691604 0.033332039
0.31902996 0.22707732 0.033102028
0.32105801 0.22695763 0.032926627
0.32289121 0.2270809 0.032829724
0.32487059 0.22701164 0.032762773
0.32697552 0.22708283 0.032468457
0.32886252 0.22698112 0.032182038
0.21274599 0.22902143 0.03384291
0.21519847 0.22838993 0.033917371
0.21711773 0.22856012 0.033717334
0.21908802 0.22884442 0.033648867
0.22109005 0.22884023 0.033817783
0.2222033 0.22830501 0.033817247
0.23348449 0.22872525 0.033834893
0.23495148 0.22916131 0.033887547
0.23694696 0.22880843 0.033914942
0.23893335 0.22902739 0.033968873
0.24104559 0.22828579 0.03398066
0.25079596 0.2289042 0.033973899
0.2832379 0.22931562 0.033956196
0.28529206 0.22892694 0.033941507
0.28695646 0.22898267 0.033772215
0.28909102 0.2290165 0.033612266
0.29108429 0.22916222 0.033621233
0.29303917 0.22889362 0.033818454
0.2950381 0.22902399 0.033951908
0.29712486 0.22890426 0.033867124
0.2989668 0.22895713 0.03370164
0.30082411 0.22897455 0.033505071
0.30290073 0.22890049 0.03336861
0.30489948 0.22904134 0.033419158
0.30679184 0.22894642 0.033556405
0.3089816 0.22905567 0.033759773
0.31099936 0.22891137 0.033797406
0.31282416 0.22905286 0.033558261
0.31502119 0.22888951 0.033384461
0.3170231 0.22913174 0.033261146
0.31892043 0.22889861 0.033220511
0.32092214 0.22912517 0.0332251
0.32312679 0.22895983 0.033065736
0.32496628 0.22910157 0.032826874
0.32701015 0.22900914 0.032438662
0.32872277 0.22899741 0.032189824
0.21234629 0.23071864 0.033963516
0.22703186 0.23105071 0.033864222
0.22895117 0.23108745 0.033845618
0.23123237 0.23101939 0.033830076
0.23308198 0.23088406 0.033843592
0.2349015 0.23096856 0.033870887
0.23697717 0.23037875 0.033989027
0.27993572 0.23131531 0.033977054
0.28107232 0.23098056 0.033923849
0.2829465 0.23105234 0.033843331
0.2850166 0.23109931 0.033765964
0.28708443 0.23102304 0.033655986
0.28894553 0.23101574 0.033660844
0.29080909 0.2310039 0.033701286
0.29274604 0.23078454 0.033817023
0.29401872 0.23033872 0.033990957
0.29799873 0.23065162 0.033842955
0.29921603 0.2308916 0.033880949
0.30109721 0.23097132 0.033738445
0.3029955 0.23097566 0.033503454
0.30514631 0.23098858 0.033515636
0.30714637 0.23111327 0.033690531
0.30901074 0.23095872 0.033849385
0.31109327 0.23100573 0.033772316
0.31317806 0.23107287 0.033539843
0.31504542 0.23096204 0.033356827
0.31691548 0.23096596 0.033273067
0.31910807 0.23109397 0.033327281
0.32100183 0.23101097 0.033365056
0.32289898 0.23094079 0.033303447
0.32497653 0.23097213 0.032908604
0.32706624 0.2310247 0.032348264
0.32899114 0.23107184 0.032136373
0.22583193 0.23258716 0.033847123
0.22715111 0.23304859 0.03389772
0.22899368 0.23298852 0.033768672
0.23085633 0.23291723 0.03372293
0.23300408 0.23306379 0.033634029
0.23501416 0.23292004 0.033671524
0.23672548 0.23327693 0.033818804
0.23925827 0.23326355 0.033923931
0.24091341 0.23315442 0.033923957
0.24263752 0.23310447 0.033907413
0.24911094 0.23361079 0.033906646
0.25098917 0.23298664 0.0338354
0.25296643 0.23313825 0.033802599
0.25435719 0.23315328 0.033875581
0.27391201 0.23366201 0.033954278
0.27502912 0.23312496 0.033953734
0.28109986 0.23325615 0.033793163
0.28308782 0.2328693 0.033618659
0.28497875 0.23318538 0.033800121
0.28698549 0.23282406 0.033880975
0.28915048 0.23255479 0.033862397
0.29115978 0.23287871 0.033796649
0.29257524 0.23312163 0.033839144
0.29920918 0.23271036 0.033965833
0.30106395 0.23305157 0.033834979
0.30313882 0.23298788 0.033636425
0.30500326 0.23298556 0.033605855
0.30687091 0.23295464 0.033788431
0.30906013 0.23307493 0.033899389
0.31095034 0.23301142 0.033793461
0.31284255 0.23296937 0.033527315
0.31490448 0.23298872 0.033240024
0.3170605 0.23300506 0.033228654
0.31888765 0.23310702 0.033309344
0.32108718 0.23292288 0.033306234
0.32309517 0.23317118 0.033154707
0.32499307 0.23286475 0.032824721
0.32683936 0.23301914 0.032515172
0.32905984 0.23287234 0.032228321
0.3300651 0.23323557 0.032167356
0.21303065 0.23545241 0.033949662
0.21480304 0.23514774 0.033974402
0.22919975 0.23453256 0.033887092
0.23120899 0.23507766 0.033831697
0.23299626 0.23498316 0.033553816
0.23503187 0.23504023 0.033413645
0.23717929 0.23502332 0.033804081
0.23896913 0.23488727 0.033893395
0.2410069 0.23503833 0.033795137
0.2430553 0.23501356 0.033839036
0.24492317 0.23494284 0.033793431
0.24692893 0.23507132 0.033926941
0.24897762 0.23499584 0.033825535
0.25107676 0.23488227 0.033634119
0.25293505 0.23523208 0.033566274
0.25513485 0.23484786 0.033805151
0.25698075 0.23511449 0.033899914
0.25899291 0.23497058 0.033937447
0.26072827 0.23531267 0.033991609
0.27401045 0.23443878 0.03399276
0.28114781 0.23492758 0.033815183
0.28285751 0.23494281 0.033793937
0.2846863 0.23468819 0.033989038
0.29143441 0.23504546 0.033904001
0.29221308 0.23494619 0.033916488
0.29897118 0.23530388 0.033831712
0.3009145 0.23507881 0.033697173
0.30286148 0.23484166 0.033645526
0.3048602 0.23498257 0.033696081
0.30701226 0.23498593 0.033779312
0.30883664 0.23509751 0.033788901
0.31103116 0.2349427 0.033579733
0.31305254 0.23507468 0.03329682
0.31504419 0.23488578 0.033102464
0.316935 0.23523915 0.033022948
0.3191126 0.23487161 0.033128735
0.32096428 0.23515321 0.033129007
0.32299703 0.23504297 0.032918394
0.32509574 0.23498258 0.032702655
0.32719779 0.23504409 0.03253283
0.3290855 0.23494636 0.032267489
0.3307189 0.23517831 0.03202242
0.2130172 0.23704937 0.033823915
0.21494766 0.23713757 0.033695396
0.21681809 0.23711793 0.033789221
0.2189564 0.23739932 0.033920884
0.22099312 0.23792675 0.033990342
0.23179346 0.2365784 0.033914719
0.23297942 0.23683558 0.033827715
0.23490709 0.23701803 0.033586759
0.23679444 0.23693314 0.033640984
0.23900604 0.23703875 0.033844657
0.24103841 0.23653188 0.03386566
0.24295151 0.23689218 0.033924587
0.2451461 0.23690027 0.03376478
0.2469777 0.23717888 0.033776406
0.24898788 0.23690842 0.033807978
0.25103319 0.23696646 0.033668064
0.25301585 0.23711607 0.033656135
0.25495976 0.23686816 0.033687305
0.25680256 0.23693645 0.03383109
0.25849557 0.23638609 0.033992685
0.27977628 0.2364991 0.033965711
0.28092211 0.23692608 0.033860773
0.28246507 0.23711137 0.033803299
0.29124227 0.23665075 0.033974826
0.2927503 0.23606324 0.033980526
0.29566211 0.23730767 0.033852614
0.29721782 0.23711941 0.033806559
0.29900736 0.23702934 0.03366302
0.30115202 0.23707366 0.033462048
0.30321473 0.2370199 0.033705093
0.30510703 0.23692973 0.033792548
0.30710578 0.23707059 0.033843096
0.30918691 0.23700057 0.033706859
0.31105378 0.23703511 0.033427894
0.31292182 0.2369277 0.033245079
0.31501284 0.23699927 0.033012912
0.31710249 0.23703043 0.033060338
0.3189719 0.23689122 0.03309495
0.3209798 0.23705058 0.033021491
0.32305056 0.23705819 0.03284226
0.32495883 0.23701262 0.032620803
0.32686669 0.23695645 0.032471083
0.32895005 0.23697805 0.032192733
0.21306998 0.23886408 0.033641011
0.21490988 0.23921582 0.033566557
0.21718456 0.23902503 0.033529032
0.21908845 0.23898633 0.033747833
0.22077 0.23908103 0.033839285
0.22306652 0.23926656 0.033848442
0.22504544 0.23941313 0.033857118
0.22704454 0.23954691 0.033949055
0.23516366 0.23873918 0.033839643
0.23689973 0.23920745 0.033899721
0.2386343 0.2387301 0.033915557
0.24713317 0.23893929 0.033862133
0.24903738 0.239012 0.033907421
0.25091735 0.2389335 0.033917308
0.25323737 0.23886371 0.033742718
0.25510913 0.23908544 0.033794258
0.25671285 0.23885465 0.03381874
0.26118544 0.23923141 0.033934738
0.26245028 0.23985942 0.033991918
0.27496481 0.23908727 0.033980884
0.27613199 0.23893839 0.0339996
0.28110069 0.23912965 0.033867653
0.28299174 0.23888849 0.03389797
0.28448081 0.23948896 0.033958804
0.2919634 0.23936129 0.03386727
0.29319039 0.2390466 0.033879552
0.29508018 0.23896381 0.033917248
0.29707026 0.23913267 0.033781305
0.29914856 0.23905158 0.033724945
0.30101356 0.23904681 0.033718076
0.30287936 0.23890026 0.033804402
0.30496398 0.23892671 0.033882771
0.30696273 0.23906755 0.033933323
0.30891147 0.23883767 0.033840317
0.31091079 0.23901606 0.033642441
0.31314018 0.23890132 0.033435967
0.31497797 0.2390635 0.033265058
0.31697097 0.23886609 0.033143274
0.31912211 0.23912089 0.033202503
0.32099119 0.23892879 0.033055957
0.32283112 0.23907839 0.032817531
0.32504946 0.2389458 0.032474101
0.32708636 0.23906057 0.032332491
0.32871142 0.23885134 0.032200027
0.21497273 0.24110672 0.033589624
0.21689142 0.24087226 0.033537459
0.21888185 0.24101251 0.033587795
0.22102459 0.24102078 0.033635311
0.22292282 0.24098982 0.033675615
0.22503886 0.24093051 0.033769432
0.22714281 0.24032201 0.033987455
0.2475237 0.24015149 0.033927403
0.24876302 0.24058503 0.033974927
0.25457603 0.24007426 0.033828761
0.2612839 0.24000818 0.033973217
0.26499704 0.24154313 0.033876456
0.26677245 0.24151418 0.033914153
0.27729544 0.24106395 0.033874389
0.27897596 0.24109426 0.033912774
0.2809923 0.24095003 0.033950381
0.28305185 0.24089316 0.033742875
0.28482547 0.24132007 0.033843543
0.28709587 0.24156386 0.033863187
0.29245165 0.24008995 0.033912078
0.29527754 0.24052051 0.033994369
0.29877537 0.24011165 0.033802047
0.3031874 0.24053839 0.033919044
0.30480447 0.24079387 0.03396656
0.30670419 0.24123709 0.033862241
0.30906042 0.2410814 0.033823382
0.31104791 0.24087057 0.033794701
0.31288305 0.241042 0.033572093
0.31511614 0.24094152 0.033282924
0.31712398 0.24112181 0.033085335
0.31899479 0.24098575 0.033099283
0.32108718 0.24102649 0.033084676
0.32318899 0.24110624 0.032821916
0.32507643 0.24102819 0.032463659
0.32696372 0.24093372 0.032208901
0.32872999 0.24144578 0.03202147
0.21505785 0.24298494 0.033695996
0.2170406 0.24308646 0.033644259
0.21901828 0.24286708 0.033677503
0.22089489 0.2431992 0.033734314
0.22313879 0.24303117 0.033561401
0.22495234 0.24283941 0.033806734
0.23155491 0.24346872 0.033981394
0.23291293 0.24277009 0.0339786
0.23407766 0.2426216 0.033997271
0.23655181 0.2439169 0.033862107
0.26392841 0.24246925 0.033896245
0.26495785 0.24322133 0.033853985
0.2671138 0.24288322 0.033777189
0.26834086 0.24310988 0.033898167
0.27694064 0.24242647 0.033930294
0.27893659 0.24256718 0.033980768
0.2836881 0.24278934 0.033845529
0.28490624 0.24302948 0.033883549
0.28698865 0.24306053 0.033930808
0.30589327 0.24320138 0.033852831
0.30706367 0.24305211 0.033871599
0.3089292 0.24291322 0.033906139
0.31101453 0.24294433 0.033953462
0.31310171 0.24302565 0.033690486
0.31497175 0.2429301 0.033456132
0.31684548 0.24295078 0.033295754
0.31904373 0.24309731 0.033236604
0.32094294 0.24302584 0.033202775
0.32284945 0.24298736 0.032964967
0.32493114 0.24302924 0.032595713
0.32701355 0.24305768 0.03230932
0.32853624 0.24306442 0.032092888
0.2149301 0.24516162 0.033802107
0.21690187 0.24491462 0.033695418
0.21896903 0.24495083 0.03371131
0.22093378 0.2451086 0.033657677
0.22285527 0.24487478 0.033605624
0.22451895 0.2450228 0.033899289
0.23193878 0.2448995 0.033806581
0.23320074 0.24498233 0.033788182
0.23508427 0.24490067 0.033820238
0.23708791 0.24503163 0.033926018
0.26686731 0.24410625 0.033787258
0.28393477 0.24473529 0.033941932
0.28489941 0.24484952 0.033968497
0.28627241 0.24443716 0.033979416
0.30531058 0.24485976 0.033917554
0.30692053 0.24505048 0.033961885
0.309212 0.24436225 0.033980105
0.31399456 0.24458599 0.033845615
0.31511855 0.24511003 0.033853158
0.3169826 0.24491408 0.033747997
0.31881291 0.24503873 0.033686865
0.32102093 0.24490121 0.033414464
0.32303649 0.2451828 0.033107467
0.32506847 0.24489971 0.032696612
0.32692352 0.24507962 0.032443564
0.32839221 0.24507526 0.032183733
0.21491109 0.24703622 0.033782087
0.21708398 0.24691372 0.033657391
0.21888776 0.24705678 0.033620372
0.22115864 0.24706297 0.033670612
0.22314718 0.24678287 0.033888862
0.2245698 0.24646132 0.033967663
0.2313585 0.24655099 0.033871032
0.23286338 0.24686101 0.03385609
0.23492698 0.24690273 0.033840895
0.23684697 0.24624543 0.033977475
0.28582096 0.24730408 0.033853378
0.28703994 0.24754433 0.033891425
0.28881904 0.24751535 0.033929206
0.30550817 0.24641865 0.03399479
0.31331599 0.24757867 0.033970613
0.31487626 0.24653426 0.033956107
0.31707573 0.24698903 0.033900678
0.31930467 0.24712934 0.033795439
0.32104209 0.24695261 0.033569213
0.32292786 0.24701324 0.033190634
0.32503384 0.24698731 0.032824721
0.32714665 0.24708833 0.032469407
0.32903966 0.24700733 0.032163236
0.21511215 0.24900524 0.033711806
0.21702707 0.24890172 0.033865821
0.21906702 0.24888282 0.033876456
0.22098061 0.24823269 0.033971537
0.22214532 0.24808416 0.033990212
0.23315853 0.24829331 0.033992089
0.28510872 0.24897785 0.03391597
0.28683355 0.24918906 0.033755254
0.28901157 0.24882229 0.033844404
0.30746141 0.24938205 0.033926155
0.30904782 0.24937788 0.033960856
0.31107301 0.24909797 0.033892255
0.31296167 0.24898954 0.033778623
0.31493276 0.24889264 0.033692349
0.3169384 0.24905628 0.033619024
0.31883591 0.248982 0.033607248
0.32090661 0.24900705 0.033370446
0.32297996 0.2490294 0.033150241
0.32489491 0.2490169 0.032791488
0.32681164 0.24899538 0.032482393
0.32889768 0.24902622 0.03221282
0.21688442 0.2503438 0.033896755
0.2838766 0.25071791 0.033970229
0.28504622 0.25056881 0.033988982
0.28716284 0.25103521 0.033807103
0.28902838 0.2508963 0.033841643
0.29575962 0.25082996 0.033986602
0.29653993 0.25073045 0.033999119
0.30528373 0.25098071 0.033953007
0.30698693 0.25114971 0.033873294
0.30877087 0.25099534 0.033830266
0.31083176 0.25099477 0.033742134
0.31306374 0.2508806 0.033577371
0.31490269 0.25103679 0.03347921
0.31702369 0.25099611 0.033461418
0.31905356 0.25112015 0.03330341
0.32105386 0.25094092 0.033109657
0.32290342 0.25112012 0.032887708
0.32515278 0.25102052 0.032640669
0.32723582 0.25105029 0.032387633
0.32903814 0.25091186 0.03225195
0.33053952 0.25140512 0.032026622
0.28688511 0.25275367 0.033881344
0.28834856 0.25283107 0.033917151
0.30385387 0.25221983 0.033979483
0.30525157 0.25286543 0.033873644
0.30712155 0.25306234 0.033715483
0.3091827 0.25306091 0.033635639
0.31107906 0.25297785 0.033673465
0.31297678 0.25294182 0.033463378
0.31517175 0.25303632 0.033694748
0.31704378 0.2530266 0.033723563
0.31892017 0.25294241 0.033469059
0.32102567 0.25306773 0.033020847
0.32299349 0.25286478 0.032804493
0.32502156 0.25309286 0.032401085
0.32690918 0.252996 0.032208763
0.32901549 0.25305057 0.03213257
0.33044335 0.25274751 0.03208727
0.21695836 0.25526577 0.033861686
0.30570838 0.25440878 0.033872474
0.30703723 0.25488335 0.033873845
0.30870843 0.25485361 0.033780519
0.31104943 0.25483355 0.033759579
0.3130253 0.2550115 0.033811357
0.31489471 0.25487232 0.033845972
0.31689897 0.25501359 0.033896659
0.31914034 0.25494197 0.033525702
0.320995 0.25517872 0.033025064
0.3230134 0.25479886 0.032591559
0.32489017 0.25516841 0.032161694
0.3272022 0.25449097 0.032097496
0.32916784 0.25424033 0.032129012
0.2171576 0.25712195 0.033552565
0.21882752 0.25726163 0.033846028
0.22009234 0.2578896 0.033903211
0.31300133 0.25685987 0.033897255
0.31504634 0.25712708 0.033829652
0.31704164 0.25694358 0.033677351
0.31888726 0.25713542 0.033414185
0.32114065 0.25710717 0.032836989
0.32312056 0.25696874 0.032311175
0.3242563 0.25646287 0.032124896
0.21702608 0.25906307 0.033358976
0.21890216 0.25903189 0.03368023
0.22051562 0.25915113 0.0339715
0.30717966 0.2598246 0.033907812
0.30913442 0.25957537 0.033939153
0.31125993 0.25910586 0.033963956
0.31301963 0.25889447 0.033930242
0.31491721 0.25900814 0.033695884
0.31701329 0.25909704 0.033464681
0.31897712 0.25889835 0.033248395
0.3210606 0.25899091 0.032723159
0.32277232 0.25916058 0.032218371
0.21689254 0.26089326 0.033431187
0.21910973 0.26108533 0.033780802
0.22696126 0.26147947 0.033971928
0.22830276 0.26083446 0.033971287
0.29389903 0.26146671 0.033942699
0.29507107 0.26131725 0.033961497
0.29700771 0.26097184 0.033916451
0.30514869 0.26135352 0.033934623
0.30693576 0.26107258 0.033835724
0.30902332 0.26101017 0.033717908
0.31083769 0.26115718 0.033800431
0.31290177 0.26113203 0.033844657
0.31508455 0.26080596 0.033727337
0.31709689 0.26111582 0.033364333
0.31899366 0.26083618 0.033035602
0.32084194 0.26104069 0.032621175
0.32284439 0.26107252 0.032121725
0.21710758 0.26305953 0.033787373
0.21897888 0.26291209 0.033863332
0.22094513 0.26308918 0.033914864
0.22293672 0.26341438 0.03397388
0.22504444 0.26268113 0.033935923
0.2262049 0.26351863 0.03380046
0.29175279 0.26332667 0.033982456
0.29314819 0.26290199 0.033909883
0.29497713 0.26306731 0.033791017
0.29696861 0.26284644 0.033824492
0.29848462 0.26331449 0.033879727
0.30512971 0.26248482 0.033903718
0.30689964 0.26321498 0.03368495
0.30891246 0.262909 0.0334826
0.31091866 0.26312855 0.033544134
0.31312153 0.26287824 0.033859666
0.31495485 0.26302379 0.033728104
0.31699148 0.26299426 0.033235412
0.31909651 0.26301113 0.032755319
0.32107314 0.26286358 0.032312442
0.3223086 0.26315069 0.032144561
0.32674637 0.26343876 0.032005433
0.21694286 0.2650713 0.033794418
0.2189211 0.26479533 0.033950113
0.22086382 0.26463619 0.033935376
0.22323814 0.26508254 0.033808324
0.22508788 0.26511016 0.033850301
0.22630352 0.2642965 0.033838999
0.2935012 0.26474372 0.033836931
0.29506505 0.26454428 0.033862006
0.29701978 0.26429498 0.033893351
0.30522922 0.26541975 0.033876359
0.30703545 0.26512137 0.033610273
0.30899066 0.26495928 0.033249572
0.31099999 0.26509634 0.033321023
0.31289998 0.26495406 0.033623029
0.3149676 0.26495114 0.033568285
0.31704277 0.26503682 0.033117611
0.3189548 0.26504526 0.032743081
0.32093099 0.26489571 0.032320935
0.32261541 0.26556394 0.03201393
0.21719266 0.26697698 0.03357631
0.21903238 0.26697236 0.033754144
0.22109933 0.26693606 0.033847943
0.22309528 0.26707676 0.033898424
0.22483358 0.26696798 0.033931572
0.30337384 0.26750964 0.033933263
0.30488861 0.26692873 0.033897728
0.30711827 0.26686117 0.033568338
0.30895638 0.26708788 0.033191998
0.31108141 0.26705983 0.033131115
0.31298333 0.2669425 0.033317555
0.31498083 0.26689747 0.033337943
0.31682009 0.26706108 0.03313588
0.31903601 0.26694471 0.032850351
0.32095209 0.2669515 0.032492567
0.3224211 0.26718712 0.032085549
0.21882147 0.2689161 0.033348396
0.22088331 0.26899865 0.033647783
0.2227675 0.26896855 0.033765253
0.2247458 0.26900795 0.033858255
0.22671567 0.26963037 0.033847298
0.2313835 0.26949653 0.033943716
0.2324882 0.26988292 0.033986084
0.24305888 0.26937842 0.03394486
0.30313122 0.26873189 0.033985071
0.30502263 0.26884612 0.033781856
0.3068586 0.26905322 0.033498313
0.30909351 0.26898757 0.033169184
0.3111631 0.26900712 0.03302379
0.31306657 0.2689147 0.033100259
0.31507862 0.26905966 0.033137396
0.31717592 0.26898393 0.033090625
0.31905928 0.26901877 0.03293116
0.3210355 0.26887116 0.032522999
0.32262048 0.26876009 0.032163482
0.21891558 0.27100626 0.032850541
0.22098407 0.27108407 0.033163734
0.22311626 0.27094132 0.033400547
0.22499603 0.27091661 0.033494346
0.22705375 0.27099761 0.033793595
0.22903112 0.27071923 0.033949144
0.23058954 0.27052051 0.033974133
0.30381465 0.27108639 0.03386005
0.30498713 0.27096635 0.033755101
0.30707401 0.27096778 0.033390071
0.30894926 0.27100664 0.033218723
0.3108252 0.27090406 0.033098787
0.31292331 0.27095753 0.033053603
0.31502315 0.27101865 0.032977574
0.31690225 0.27089873 0.032929916
0.31892246 0.27110967 0.032692369
0.32089642 0.27093294 0.032414801
0.32253 0.27119943 0.032150466
0.21906018 0.27305493 0.032546416
0.22118339 0.27297127 0.032831069
0.22302091 0.27297077 0.032984052
0.22518319 0.27292541 0.03334219
0.22686206 0.27304488 0.033676606
0.22808017 0.272845 0.033902541
0.3032586 0.27299753 0.033887118
0.30494955 0.27311862 0.033604708
0.3069627 0.27284431 0.033296682
0.30897072 0.27313527 0.033068486
0.31118053 0.27294454 0.033108167
0.31301859 0.27308676 0.033012312
0.31489363 0.27292314 0.03281362
0.31693071 0.2730518 0.03268934
0.31914991 0.27292663 0.032460667
0.32099625 0.27307746 0.032329623
0.32233933 0.27285326 0.032098528
0.21886359 0.27510965 0.032429703
0.22075003 0.27495497 0.032526501
0.22287115 0.27495489 0.032698225
0.2249635 0.27500433 0.033114906
0.22709915 0.2750029 0.033731665
0.22856709 0.2753818 0.033906788
0.29966193 0.2759873 0.033997841
0.30161774 0.2746782 0.033979651
0.30285361 0.2751019 0.033818115
0.30508387 0.27504241 0.033489153
0.3070412 0.27486476 0.033232018
0.30905211 0.27505147 0.033104267
0.31095654 0.275004 0.032999419
0.31303 0.2750223 0.032870773
0.31510583 0.27505317 0.03269273
0.31701708 0.27502739 0.032500055
0.31893259 0.27502224 0.032225054
0.32056919 0.27467853 0.032144919
0.21911125 0.27706367 0.032526508
0.22114716 0.27702209 0.032354929
0.22305264 0.27697691 0.032525767
0.22499576 0.27694958 0.033000857
0.227108 0.27704975 0.033523761
0.22881866 0.27701768 0.033905391
0.23010442 0.27657083 0.033996191
0.29153961 0.27781788 0.033904769
0.2931056 0.27761823 0.033929881
0.29506311 0.27736858 0.033961266
0.29718098 0.27738443 0.033925179
0.29923806 0.27751091 0.033746976
0.30097467 0.2771064 0.033703726
0.30293241 0.27687755 0.033652708
0.30493981 0.27705115 0.033579905
0.30689776 0.27686432 0.033364058
0.30890822 0.27704847 0.033250067
0.31100458 0.27701539 0.033044484
0.31304035 0.27692407 0.032870583
0.31488124 0.27705878 0.032810155
0.31687629 0.27710092 0.03236457
0.31801113 0.27660412 0.032178693
0.21898159 0.2790308 0.03233419
0.22086142 0.2788831 0.032399926
0.2230622 0.27911255 0.032709215
0.22502454 0.27900311 0.033122521
0.22694942 0.27893072 0.033393804
0.22920963 0.27898246 0.033738978
0.2308626 0.27905834 0.03379555
0.23278417 0.27945378 0.033939693
0.23434475 0.27925473 0.033964712
0.28978038 0.27963182 0.03395088
0.2909019 0.27910727 0.033888467
0.2928524 0.27889547 0.033775494
0.2950092 0.27893332 0.033711527
0.29684034 0.2790589 0.033686202
0.29903787 0.27893522 0.033471465
0.30106184 0.27907982 0.033297569
0.30306146 0.27885005 0.033362091
0.3049573 0.27920032 0.033363868
0.3071447 0.27885666 0.033337522
0.30915591 0.2790527 0.033182453
0.3108952 0.27885228 0.033127967
0.31290886 0.27911305 0.033034354
0.31510332 0.2788336 0.032761019
0.31707889 0.27872255 0.032257237
0.31821558 0.27824232 0.032009631
0.21903858 0.28076321 0.032197498
0.22120483 0.28107643 0.032459982
0.22278599 0.28096339 0.032789674
0.22485141 0.28103819 0.033088747
0.22710276 0.280864 0.033213552
0.22885492 0.28113446 0.033252817
0.23088425 0.28098825 0.033531886
0.2329722 0.28101954 0.033579264
0.23490265 0.28125387 0.033695228
0.23654014 0.28141123 0.033863679
0.28371471 0.28199491 0.033927944
0.28488922 0.28184509 0.033946775
0.28701359 0.28139168 0.033909746
0.28913608 0.28094921 0.033831481
0.29119521 0.28095967 0.033743817
0.29309008 0.2809073 0.033666309
0.29509562 0.28107095 0.033634696
0.29704785 0.28087613 0.033460077
0.29904917 0.28109539 0.033222433
0.30092108 0.28100526 0.033071768
0.30301625 0.28108621 0.032934029
0.3049812 0.28083566 0.032965533
0.30699453 0.28101096 0.032892935
0.30887595 0.28101778 0.032863162
0.31097546 0.28093514 0.032851875
0.31299153 0.28107357 0.032916591
0.31496108 0.28090361 0.032646183
0.31632021 0.28065175 0.032205667
0.21894519 0.28269032 0.032035396
0.22080195 0.28303885 0.032280155
0.22297257 0.28298533 0.03263814
0.2250728 0.28300822 0.032716673
0.22687879 0.28304365 0.032726787
0.22898214 0.28297332 0.032936554
0.23100688 0.28309235 0.033070035
0.23290268 0.28305116 0.03321702
0.23503448 0.28289911 0.033462305
0.2370882 0.28297442 0.033754252
0.23910487 0.28309655 0.033873819
0.24110734 0.28323779 0.033924472
0.25496519 0.28354749 0.033868454
0.25641525 0.28349483 0.033897888
0.28126994 0.28363129 0.033950683
0.28294057 0.28300416 0.033895545
0.28501546 0.2831032 0.033695601
0.28697041 0.28287032 0.033665176
0.2889668 0.28306842 0.033509899
0.29084468 0.28291464 0.033596125
0.29294193 0.28293732 0.03367459
0.29502916 0.28301945 0.033536728
0.29705068 0.2828019 0.033365492
0.29890239 0.28312859 0.033230871
0.30108267 0.28285512 0.032949187
0.30309007 0.28315267 0.032728493
0.30498311 0.2828449 0.032577034
0.30684355 0.28318191 0.032407355
0.30903834 0.28282657 0.032422341
0.31105584 0.28301245 0.032611221
0.31307483 0.28305709 0.032722048
0.31498834 0.28308111 0.032365002
0.22299965 0.28429565 0.032199629
0.22505601 0.28498268 0.032193609
0.22711247 0.28491879 0.03250685
0.2290463 0.28493187 0.032706369
0.23094094 0.28526521 0.032769889
0.23316562 0.2848542 0.032991443
0.23505512 0.28508109 0.033216331
0.23686929 0.28507718 0.0334794
0.23898432 0.28507373 0.033650856
0.24086559 0.28491732 0.033747483
0.24287701 0.28504688 0.03383949
0.24484628 0.28477451 0.033953484
0.24606779 0.28501534 0.033991616
0.25333515 0.28510457 0.033905402
0.25491536 0.28525928 0.033797305
0.25692907 0.28484371 0.033822171
0.25871325 0.28508633 0.033897772
0.26348889 0.28530368 0.033887908
0.26510331 0.28549489 0.033932354
0.26705945 0.28524542 0.033963718
0.28090641 0.28502461 0.033924416
0.28308526 0.28487068 0.033698261
0.28509697 0.28502133 0.033516083
0.28707907 0.28486302 0.033322956
0.28897032 0.28522289 0.033293795
0.29099682 0.28477818 0.033417676
0.29289123 0.28512603 0.033431817
0.29488704 0.28492436 0.033393305
0.29691532 0.28503346 0.033359606
0.29912058 0.28488219 0.033258095
0.3009496 0.28507814 0.032985874
0.30297589 0.28505057 0.032600265
0.30507243 0.28503495 0.032350805
0.30717394 0.28498477 0.032224946
0.30900952 0.28460109 0.03216698
0.31094602 0.28496081 0.032306794
0.31315798 0.28503308 0.032566093
0.31507206 0.28503796 0.032285992
0.22598302 0.28636533 0.032111876
0.22713245 0.28697029 0.032344125
0.22899175 0.28704971 0.032710351
0.23107597 0.28696352 0.032716431
0.23295002 0.28695324 0.032751217
0.23499365 0.28704774 0.032967396
0.23705278 0.28711867 0.033266202
0.23895833 0.28706124 0.033466239
0.24104027 0.28697503 0.03347227
0.24307722 0.28706941 0.033688247
0.24470642 0.28723675 0.033815287
0.25128096 0.28739044 0.033967093
0.25299537 0.28700629 0.033861768
0.25506637 0.28707269 0.033785351
0.25693706 0.28693339 0.033819988
0.25879428 0.28695193 0.033754501
0.26088154 0.2868607 0.033778276
0.26288235 0.28701389 0.033787761
0.26487824 0.28717873 0.033755984
0.26683572 0.2869291 0.03378737
0.2688778 0.28749719 0.033733733
0.27083597 0.28724751 0.03376513
0.27285695 0.28735346 0.033939652
0.2740314 0.2872037 0.033958487
0.28126985 0.28683886 0.033800382
0.28293982 0.28712192 0.033614494
0.28494868 0.28692701 0.033372585
0.2870332 0.28701097 0.033234693
0.28913155 0.28704226 0.033282313
0.29100874 0.28690246 0.03331707
0.2930173 0.28706786 0.033285603
0.294976 0.28684676 0.033214115
0.29698393 0.2870298 0.033120923
0.29888782 0.28696495 0.033093058
0.30095389 0.28701484 0.032873992
0.30291149 0.28687501 0.032514378
0.3049255 0.28709337 0.032297894
0.30669561 0.28638041 0.032136735
0.31103352 0.28694105 0.032091539
0.31290707 0.28695235 0.03219286
0.31478116 0.2869969 0.032176584
0.31606361 0.28658977 0.032102346
0.22711506 0.28900865 0.032260347
0.22900704 0.28911012 0.03252114
0.23092733 0.28884676 0.032622531
0.23292792 0.28907833 0.032641638
0.23516461 0.288847 0.032822959
0.23698835 0.28930411 0.032941639
0.23904605 0.28883019 0.033164896
0.24105103 0.28905344 0.033212282
0.24286692 0.28917447 0.033427671
0.24500458 0.28900358 0.033725783
0.24683253 0.28913537 0.033850767
0.24887009 0.2891537 0.033746358
0.25103417 0.28882486 0.033678524
0.25302082 0.28907889 0.033619732
0.25492179 0.28893375 0.033785801
0.25693756 0.28903878 0.033768348
0.25910577 0.2889185 0.033567365
0.26092857 0.28904608 0.033541929
0.2630913 0.2890527 0.033595767
0.26512608 0.28913409 0.033852857
0.26705661 0.28894842 0.033664212
0.26903987 0.28915194 0.033501934
0.27099273 0.2889199 0.033471506
0.27301136 0.28903773 0.033604801
0.27490053 0.28898808 0.033775058
0.27704579 0.28927276 0.033871293
0.27911231 0.28911734 0.033878215
0.28094622 0.28883302 0.033728067
0.28293326 0.28905845 0.033490464
0.28487653 0.28887993 0.033274643
0.28688169 0.28905392 0.033215702
0.28878731 0.28896719 0.033264682
0.29085773 0.28894931 0.033284377
0.29309145 0.28884399 0.033161819
0.29492581 0.28905177 0.032940879
0.29704943 0.2890532 0.032800026
0.2989544 0.28899828 0.032739274
0.3010838 0.2889801 0.032666422
0.30300212 0.28902915 0.032429483
0.30500442 0.28905031 0.032224365
0.30676258 0.28911063 0.032015622
0.22725615 0.29064894 0.03208993
0.22892118 0.29093513 0.032265048
0.23091651 0.29094625 0.032309458
0.23299403 0.29100516 0.032264095
0.23480578 0.29104143 0.032274373
0.23691951 0.29095522 0.03252532
0.23895599 0.29106051 0.032700125
0.2408727 0.29098919 0.032941464
0.24312386 0.29104012 0.033257823
0.24495792 0.29103604 0.033404328
0.24704544 0.29107642 0.03342085
0.24896067 0.29089987 0.033204533
0.25094908 0.29107839 0.03313154
0.25283703 0.2910454 0.033242993
0.25497735 0.29085994 0.033585198
0.25698721 0.29099739 0.033649735
0.25885954 0.29096946 0.033500567
0.26090464 0.29099083 0.033388123
0.26293653 0.2910836 0.033603922
0.26484007 0.29100698 0.033862635
0.2669248 0.29092637 0.033851106
0.26889858 0.29115349 0.03361325
0.27110642 0.29085648 0.03334567
0.27302551 0.29112792 0.033619456
0.2750968 0.29091689 0.033655148
0.27694505 0.29102853 0.033763558
0.27906394 0.29099458 0.033746041
0.28095323 0.29095519 0.033635668
0.28305897 0.29097819 0.033426601
0.28495046 0.29105803 0.033092223
0.28709641 0.29116556 0.032804947
0.28907785 0.29084182 0.033083558
0.29108572 0.29102057 0.033011001
0.29298764 0.29096603 0.032950222
0.29505205 0.29100898 0.032764129
0.29701543 0.29078841 0.032692749
0.2990275 0.29098135 0.032572296
0.30104071 0.29118231 0.032424472
0.30300477 0.29101005 0.032188594
0.30492339 0.29041296 0.032036051
0.30610681 0.29026204 0.032055035
0.23137558 0.29218298 0.032002106
0.23216125 0.29208288 0.032014705
0.23540355 0.29246688 0.032103989
0.23720893 0.2924192 0.032204002
0.23921932 0.29302099 0.032297209
0.24113299 0.29281881 0.032663424
0.24296345 0.29318058 0.032970797
0.24507794 0.29289979 0.033237647
0.24706532 0.2930555 0.033055171
0.24912575 0.2930024 0.03282002
0.25111446 0.29318538 0.032733303
0.25311056 0.29287317 0.032971133
0.25516081 0.29294047 0.033269551
0.25702518 0.29298133 0.033454224
0.25891203 0.29292771 0.033393163
0.26112044 0.29301935 0.033251449
0.26314047 0.29314017 0.033371028
0.26499575 0.29289144 0.0337254
0.26699498 0.29307446 0.033756487
0.26913688 0.29313603 0.033627804
0.27109706 0.29288602 0.033659235
0.2730982 0.29305279 0.033627659
0.27498871 0.29300413 0.03355024
0.27705348 0.29299393 0.033545151
0.27911896 0.29298395 0.033540066
0.28101715 0.29291883 0.033517614
0.28300366 0.29315791 0.03324585
0.28493634 0.29303774 0.032844957
0.28686899 0.29293555 0.032382332
0.28897378 0.29296711 0.032430109
0.29090673 0.29322007 0.032484449
0.29288 0.2929441 0.032598332
0.29512206 0.29282808 0.032517146
0.29696724 0.29300177 0.032419942
0.29887411 0.29307675 0.032402851
0.30083761 0.29289949 0.032187562
0.30236185 0.29234132 0.032069869
0.23935239 0.29469106 0.03204469
0.24090044 0.29496789 0.032300137
0.24297731 0.29500854 0.032681283
0.24502027 0.29509977 0.032897282
0.24688172 0.29498529 0.032849476
0.24894714 0.29507342 0.032711372
0.25101274 0.29503372 0.032567337
0.25289983 0.29500923 0.032649394
0.25480679 0.294945 0.032861065
0.25705454 0.29498696 0.033198416
0.2589536 0.29491198 0.033208892
0.2609255 0.29514015 0.032977972
0.26288036 0.29490885 0.032947619
0.26492548 0.29497501 0.033245891
0.2669628 0.29505321 0.033502858
0.26892164 0.29480943 0.033513702
0.27091631 0.29499552 0.033420328
0.27292359 0.29514992 0.033429995
0.27486506 0.29496288 0.03325545
0.27709889 0.29483536 0.03321524
0.27884871 0.29515103 0.03311364
0.28105804 0.29496869 0.033125121
0.28294501 0.29496095 0.032916095
0.28509977 0.29476008 0.03242873
0.28699368 0.29422811 0.032070283
0.28903127 0.29450181 0.032127902
0.29108891 0.29488793 0.032253753
0.29307815 0.29482436 0.032231975
0.29490551 0.29460239 0.032094993
0.29726112 0.29479364 0.032072332
0.29901132 0.29437023 0.032091036
0.30019477 0.29421929 0.032110009
0.24150223 0.29694417 0.032197319
0.24313606 0.29684606 0.032443084
0.24493214 0.29735619 0.032392085
0.24714218 0.29696345 0.032530736
0.24922228 0.29692549 0.032616407
0.2509034 0.29687062 0.03265081
0.25290817 0.29710793 0.032655984
0.25512186 0.29691282 0.032709844
0.25691009 0.2971319 0.03292023
0.25915816 0.29696587 0.03300361
0.26107264 0.29682466 0.032684743
0.26305735 0.29703754 0.032509029
0.26510262 0.29710871 0.032786667
0.2671293 0.29692441 0.033153184
0.26895064 0.29707602 0.033057395
0.27110496 0.29712287 0.032981895
0.27306992 0.29687229 0.033013403
0.27515519 0.29695192 0.03290664
0.27695101 0.29706207 0.032682344
0.27902013 0.29705992 0.032652702
0.28097743 0.29684767 0.032560755
0.28292656 0.29667333 0.032345299
0.28482807 0.29610485 0.032110397
0.29161611 0.29611415 0.0320099
0.29240504 0.29601353 0.032022562
0.24160367 0.29820025 0.032008097
0.24271916 0.29859042 0.032050878
0.24485047 0.29858482 0.032097492
0.24683946 0.29829502 0.032252785
0.24888891 0.29869905 0.032316763
0.25093189 0.29895243 0.032436084
0.25303358 0.29898381 0.032483783
0.25484914 0.29902282 0.032488011
0.25694478 0.29895318 0.032672614
0.25902009 0.2989257 0.032725312
0.26088917 0.29892746 0.032494098
0.26286876 0.29915667 0.032270361
0.26500252 0.29898143 0.032559305
0.26683918 0.29910535 0.032705572
0.26889786 0.29912475 0.032609984
0.27108449 0.29878345 0.032583751
0.27309233 0.29903036 0.032560822
0.27477455 0.29898208 0.032574125
0.27683082 0.29902491 0.032404546
0.27901009 0.29872239 0.032254897
0.28074139 0.29862672 0.032138415
0.28226832 0.29803187 0.032144189
0.25102946 0.30022985 0.032185219
0.25304738 0.30037206 0.032236256
0.25504526 0.30055395 0.032163605
0.25732404 0.30094865 0.032232199
0.2590158 0.30102196 0.0322228
0.26107699 0.30103391 0.032151952
0.26315036 0.30101946 0.032163527
0.26498449 0.3010228 0.032279074
0.26708937 0.30105409 0.03232684
0.2690441 0.30084279 0.032234881
0.27104968 0.30102512 0.032162447
0.27294156 0.30099601 0.032256301
0.27504659 0.30089617 0.032306869
0.27691451 0.30086502 0.032230366
0.27852586 0.30010968 0.032159019
0.2627908 0.30204001 0.032153308
0.26719368 0.30235508 0.032014739
0.26916471 0.30210373 0.032046344
0.27320662 0.30238858 0.032148566
0.27517766 0.30213726 0.032180168
0.2668623 0.20765382 0.034084272
0.26125091 0.20994139 0.034067802
0.26322028 0.20967725 0.034348905
0.26494777 0.20911698 0.034861051
0.26706165 0.20905465 0.035060994
0.26888916 0.20905863 0.034587644
0.27025375 0.20957932 0.034248896
0.25515437 0.2115048 0.034006789
0.25713354 0.21144189 0.034172457
0.25904405 0.21100202 0.034193914
0.26544529 0.21009764 0.035918571
0.26706859 0.21067981 0.035856396
0.26908958 0.21102336 0.035184238
0.27076802 0.21124887 0.034238171
0.25186598 0.21349615 0.034027558
0.25300884 0.21294653 0.034214616
0.25492805 0.2129797 0.034539811
0.25645214 0.2121112 0.034313835
0.26956671 0.21234839 0.035489004
0.2712042 0.21285862 0.034506477
0.27244481 0.21398211 0.03500323
0.251964 0.21426961 0.034065884
0.25300604 0.21499714 0.034498051
0.25454378 0.21466365 0.035141736
0.27337807 0.21503092 0.035197921
0.27490905 0.21555986 0.034297317
0.2824018 0.21594717 0.034063298
0.25270623 0.21650767 0.034562085
0.27495027 0.21679088 0.035332646
0.27670437 0.2172254 0.034498058
0.27823234 0.21726653 0.034033276
0.28128701 0.21648315 0.034063831
0.2825492 0.21710983 0.034120895
0.25251129 0.21893425 0.034045782
0.27546656 0.21907739 0.035474718
0.27693319 0.21895915 0.034667544
0.27842882 0.21881671 0.034110077
0.28529954 0.21927492 0.034032386
0.28656092 0.21885133 0.034040328
0.25252825 0.22102283 0.034227215
0.25984645 0.22074141 0.034416735
0.2600472 0.22186345 0.034848876
0.27530214 0.2210799 0.035335425
0.27715069 0.22092311 0.034472298
0.2787993 0.22194302 0.034014151
0.2515012 0.22338904 0.034231845
0.25266197 0.22282274 0.03452282
0.26068681 0.22289351 0.035661615
0.26682276 0.22299705 0.03467565
0.27532282 0.22322012 0.034712221
0.27698031 0.22293985 0.034270972
0.278456 0.222928 0.034102701
0.22739168 0.22526303 0.034039382
0.22898932 0.22545229 0.034083374
0.24744022 0.22589612 0.034009587
0.24908757 0.22542369 0.034023736
0.25089434 0.22505461 0.034129601
0.25299671 0.22511514 0.034887522
0.26579222 0.22431952 0.034589693
0.27383524 0.22565341 0.03482898
0.27491072 0.22516024 0.034454353
0.27665371 0.22489147 0.034154862
0.27831778 0.22436896 0.034116983
0.28237686 0.22545335 0.034006819
0.29516476 0.2252295 0.034027494
0.29650092 0.22486174 0.034039699
0.22512951 0.22728066 0.034083955
0.22692245 0.2269931 0.03410995
0.22902074 0.22694167 0.0341537
0.23079725 0.22745633 0.034133431
0.23237474 0.22779447 0.034017108
0.24341911 0.22795913 0.03426775
0.2450662 0.22744384 0.034179822
0.24707079 0.22702619 0.034254421
0.2490418 0.22713493 0.034102738
0.25113514 0.22699387 0.034197774
0.25316411 0.22710368 0.034504659
0.25488061 0.22762764 0.035004739
0.27368829 0.22703506 0.034390047
0.27512273 0.22713666 0.034217816
0.27704817 0.22690876 0.034082737
0.27907693 0.22745164 0.034027666
0.28110439 0.2270945 0.034055565
0.28296217 0.22695617 0.03408996
0.28417692 0.22719565 0.03412788
0.29516378 0.22677998 0.034099966
0.21381602 0.22932985 0.034181055
0.21505931 0.22955258 0.034343895
0.21679147 0.22953948 0.034256309
0.2184919 0.22954196 0.034043681
0.22168724 0.22992042 0.034131661
0.22313787 0.22894944 0.034118176
0.22493656 0.22917768 0.034318496
0.22718182 0.22899857 0.034173675
0.22902423 0.2289928 0.034166265
0.23084852 0.22899708 0.034075517
0.23252189 0.22895546 0.034074631
0.24102795 0.22938995 0.034031894
0.2428882 0.2290837 0.034225259
0.24511604 0.22892253 0.034350112
0.24694391 0.22919872 0.034367494
0.24891141 0.22895528 0.034184977
0.25137877 0.22935504 0.034007791
0.25305074 0.22902109 0.034247834
0.25489902 0.22900717 0.034619324
0.25621808 0.22904137 0.034975138
0.27154425 0.22950587 0.034771115
0.27300784 0.22896434 0.034423575
0.27483344 0.22899126 0.034149252
0.27689344 0.22891319 0.034047976
0.27888522 0.22905356 0.034098346
0.2809737 0.22891867 0.034137979
0.28280318 0.22881682 0.034173463
0.28441361 0.22915177 0.034099467
0.29708192 0.22955319 0.034021609
0.21322434 0.23098096 0.034195215
0.21487947 0.23114204 0.034455944
0.21709841 0.23098588 0.034539144
0.21886986 0.23113671 0.034407981
0.22093436 0.23089762 0.034192055
0.2229958 0.23093252 0.034207769
0.22495395 0.23108691 0.034146838
0.22695397 0.23058315 0.034028258
0.23591226 0.23130161 0.034008753
0.23712447 0.23154062 0.03404659
0.23901391 0.23090617 0.034058481
0.24100152 0.2310462 0.034108754
0.24309146 0.23106518 0.034249414
0.24495851 0.23091787 0.034356557
0.24692284 0.23107384 0.034281984
0.24911432 0.23093887 0.034198802
0.25090858 0.2310887 0.034078512
0.25288492 0.23086946 0.034111731
0.25503263 0.23111175 0.034253683
0.25704885 0.23107301 0.034400448
0.25905424 0.23120923 0.034763645
0.26097402 0.23145129 0.035150725
0.26248127 0.23176371 0.035365306
0.2691091 0.2312291 0.034735575
0.27082306 0.23097131 0.034511041
0.27284339 0.23097853 0.034305617
0.27508739 0.23101676 0.034106601
0.27698693 0.23098578 0.034146935
0.27896595 0.23093624 0.034188148
0.28115129 0.23155494 0.034015
0.28372514 0.23004276 0.034000911
0.29338837 0.23160386 0.034036241
0.29500493 0.23110156 0.034048315
0.29678255 0.2309341 0.034079589
0.29810634 0.23139709 0.034130357
0.2130276 0.2329897 0.034084685
0.21513052 0.23300393 0.034256682
0.21696958 0.23300704 0.034472384
0.21899758 0.23298901 0.034466118
0.22110596 0.23301145 0.034406342
0.22294749 0.23300838 0.034241199
0.22502048 0.23313689 0.03410513
0.23765941 0.23265305 0.034110367
0.23904096 0.23267363 0.034141712
0.24316968 0.23274672 0.034152571
0.24492252 0.23300287 0.034136396
0.24713095 0.23303813 0.034169938
0.24889386 0.23255987 0.03410298
0.25533271 0.23281041 0.034068644
0.25692505 0.23300841 0.034050364
0.25901389 0.23302694 0.03419102
0.2608338 0.23303285 0.034387708
0.26291987 0.23296893 0.034722462
0.26504043 0.23299706 0.034621526
0.26691124 0.23299366 0.034457013
0.26915738 0.23302488 0.034320202
0.27118906 0.2330204 0.034214593
0.27295303 0.23286641 0.03414613
0.27712896 0.23299584 0.034244038
0.2789813 0.23299527 0.034201372
0.28008339 0.23248038 0.034034777
0.28886741 0.23336513 0.034019154
0.29052222 0.23394394 0.034082614
0.29358542 0.23315844 0.034113266
0.29514167 0.23295997 0.034138214
0.29713622 0.23310053 0.034188662
0.29890761 0.23308851 0.03410197
0.21261841 0.23441736 0.034142435
0.21515948 0.23428981 0.034192365
0.21706401 0.23510839 0.034147412
0.21896127 0.23486437 0.034374315
0.22079705 0.23513395 0.034439221
0.22309887 0.23484933 0.034393162
0.22489743 0.2351408 0.03430336
0.22687607 0.23488629 0.034227736
0.22903506 0.23506467 0.034033421
0.23015077 0.23557825 0.034081973
0.23945478 0.23481378 0.034000732
0.26132119 0.2350094 0.034240618
0.26300856 0.23486993 0.034458894
0.2648924 0.23519304 0.034577999
0.2671479 0.2350354 0.034298532
0.26898554 0.23504841 0.034160882
0.2708433 0.2349101 0.034195282
0.27291334 0.23494986 0.034180135
0.27499598 0.23520103 0.034050077
0.27685431 0.23483367 0.034323923
0.2788313 0.23499727 0.034208294
0.28361762 0.23561433 0.034008831
0.28534815 0.23518798 0.034089517
0.28713033 0.23514432 0.034230929
0.2890662 0.23491576 0.034123823
0.29066998 0.23510987 0.034140371
0.29350075 0.23498586 0.034196842
0.29499888 0.23495276 0.034228247
0.29685566 0.23496096 0.034126516
0.29888099 0.23449108 0.034041874
0.21301304 0.23655578 0.034000859
0.21688738 0.23606172 0.034062978
0.21892266 0.23658875 0.034132391
0.22106762 0.23686507 0.034299735
0.22293626 0.2368447 0.034399465
0.22488134 0.23700868 0.034283098
0.22708338 0.2368639 0.034283072
0.22887087 0.23701334 0.034183457
0.23097727 0.23712578 0.034172513
0.23354191 0.23793069 0.034016404
0.24101169 0.23776577 0.034173004
0.24217564 0.23761734 0.034191661
0.25781688 0.23726138 0.034018684
0.25907984 0.23725812 0.034046315
0.26084024 0.23697446 0.03407177
0.26295042 0.23696914 0.034368083
0.26494443 0.23710544 0.03444612
0.26688206 0.23686187 0.034449548
0.26884302 0.23703843 0.034250792
0.27106103 0.23688704 0.0342925
0.27287364 0.23703387 0.034214161
0.27513263 0.23705818 0.034139913
0.27718854 0.23702624 0.034233671
0.27885535 0.23710056 0.034152288
0.28359553 0.23699936 0.034073103
0.28498784 0.23700802 0.034187537
0.28686103 0.23697196 0.034393862
0.28892565 0.23690355 0.034248419
0.29081127 0.2371992 0.034098208
0.29289818 0.23722999 0.034038335
0.29467925 0.23692381 0.034063198
0.29635289 0.23639423 0.034075253
0.221479 0.23865186 0.034034934
0.22302979 0.2384541 0.0340598
0.22496833 0.23820691 0.03409088
0.22684307 0.2384925 0.034145471
0.22912447 0.23902617 0.034220602
0.23098029 0.2390144 0.03426088
0.23280016 0.23889992 0.034139208
0.23451434 0.23938194 0.034105644
0.23960719 0.23912635 0.03420572
0.24093612 0.23903564 0.034230713
0.24303882 0.23898411 0.034274556
0.24490286 0.23897991 0.034136616
0.24630499 0.23948592 0.034119617
0.25257441 0.23950741 0.034008376
0.25762516 0.23886333 0.034089368
0.25883991 0.2391028 0.03412728
0.26116118 0.2387279 0.034160815
0.26322746 0.23877335 0.034258414
0.26516518 0.2390738 0.034348439
0.26721063 0.23905405 0.03435915
0.26908895 0.23897892 0.034346931
0.2709735 0.23889634 0.034384519
0.27299678 0.23890913 0.034179468
0.27497745 0.23906869 0.034105394
0.27693108 0.23893966 0.034088723
0.27890468 0.23897973 0.03406252
0.28002262 0.23844227 0.03406198
0.28534141 0.23881711 0.034196496
0.28705743 0.2388676 0.034194905
0.28888085 0.23900902 0.034158237
0.29098314 0.23897593 0.034077838
0.2270592 0.2414289 0.034087397
0.22885041 0.24086018 0.034300324
0.23081945 0.24101336 0.034267414
0.23313873 0.24090311 0.03418225
0.23494658 0.24101463 0.034191489
0.23708785 0.24102287 0.034238972
0.23907685 0.24116306 0.034289278
0.24101673 0.24091567 0.034320384
0.24300572 0.24105586 0.034370691
0.24506234 0.24110146 0.034324221
0.24683185 0.24115273 0.03420914
0.24892938 0.2415158 0.034272257
0.25119495 0.24103056 0.034084991
0.25300726 0.24114238 0.034094345
0.25515148 0.24115062 0.034141898
0.25709409 0.2409029 0.034173038
0.25908586 0.2410433 0.034223415
0.26096353 0.24096847 0.034211189
0.26298672 0.24097495 0.034055874
0.26488143 0.24033867 0.034067806
0.26687461 0.24047916 0.034118213
0.26891702 0.24100798 0.034187865
0.27101946 0.24100479 0.034452841
0.2731303 0.24077098 0.034238178
0.2749927 0.24113007 0.034127049
0.27632904 0.24049297 0.034076609
0.2855207 0.24041022 0.034024749
0.28685132 0.24050398 0.034058403
0.28914228 0.24103986 0.034133848
0.29100588 0.24102807 0.03417429
0.29300183 0.24116872 0.034224767
0.29483512 0.24106665 0.034260321
0.29693797 0.24108702 0.034140766
0.29893193 0.24124092 0.034108434
0.30087993 0.24099247 0.03413967
0.3028132 0.2416687 0.034213811
0.30530953 0.24165288 0.034017831
0.30755007 0.24057567 0.034016751
0.22559589 0.24366981 0.034109958
0.22699176 0.24291502 0.034212574
0.22918007 0.24303547 0.034309223
0.23073618 0.24275176 0.034180101
0.23283458 0.24303187 0.03407253
0.23506844 0.24296813 0.034035273
0.23697242 0.24286962 0.034172643
0.23875941 0.24303317 0.034155246
0.24108748 0.24280386 0.034360178
0.24297267 0.2431276 0.034466825
0.24494894 0.24290843 0.034500051
0.24692158 0.24302597 0.034348745
0.24901667 0.24298252 0.034342751
0.2508412 0.24311113 0.034388896
0.2530376 0.24297999 0.034306001
0.25500897 0.24314064 0.034231801
0.25695154 0.24289292 0.034262944
0.2589615 0.24301293 0.034437846
0.26102439 0.24305919 0.034391575
0.26284406 0.24296635 0.034145847
0.26923728 0.24312775 0.034093857
0.27087817 0.24284427 0.034441929
0.27301693 0.24309759 0.034500822
0.27508247 0.24300072 0.03430545
0.27694967 0.2433099 0.034221973
0.27903521 0.24334498 0.034019306
0.28098181 0.24309675 0.034050521
0.28253916 0.24289812 0.034075487
0.28886709 0.2428816 0.034213901
0.29086301 0.24302225 0.034264382
0.29302245 0.24299584 0.034525089
0.29492378 0.24296905 0.03453885
0.29702735 0.24293962 0.034446143
0.29901999 0.24316762 0.034450609
0.30101967 0.24283837 0.03432285
0.30289793 0.24320292 0.034187347
0.30467787 0.24292064 0.034063213
0.31233314 0.24396423 0.034030154
0.22579239 0.24522007 0.034186758
0.22698556 0.24505065 0.034330156
0.22884043 0.24491264 0.034364507
0.23082922 0.24500629 0.034037318
0.23910181 0.24490842 0.034214709
0.24093963 0.24499659 0.0343665
0.24311681 0.24497385 0.034598008
0.24511345 0.24510694 0.034689844
0.24700826 0.24490155 0.034471706
0.24895114 0.24508724 0.034252103
0.25105876 0.24508667 0.034486048
0.25306186 0.24482231 0.034482013
0.25487301 0.24512364 0.034363214
0.2570844 0.24497931 0.034363423
0.2589466 0.24506603 0.034658585
0.26091856 0.24485362 0.034650337
0.2630271 0.24514157 0.03450172
0.26506925 0.24506709 0.034181815
0.26704589 0.24523103 0.034093946
0.2690008 0.24496906 0.034208104
0.2710183 0.24507481 0.034465924
0.27287945 0.24493298 0.034521073
0.274932 0.24500565 0.034319427
0.27700514 0.24504703 0.034304414
0.27901506 0.24478211 0.034300495
0.28084257 0.24508388 0.034182061
0.28289309 0.24506609 0.034184638
0.28525156 0.24575374 0.034018517
0.28731593 0.24517412 0.034036823
0.28921491 0.24506636 0.03422365
