# .PCD v0.7 - Point Cloud Data file format
VERSION 0.7
FIELDS x y z rgb
SIZE 4 4 4 4
TYPE F F F U
COUNT 1 1 1 1
WIDTH 1213
HEIGHT 1
VIEWPOINT 0 0 0 1 0 0 0
POINTS 1213
DATA ascii
-0.12904771 -0.44385937 1.2140001 858132
-0.12642978 -0.4445906 1.2160001 725776
-0.12359926 -0.4445906 1.2160001 989718
-0.12076875 -0.4445906 1.2160001 726546
-0.1181322 -0.44532183 1.2180001 989718
-0.11529702 -0.44532183 1.2180001 792339
-0.11246184 -0.44532183 1.2180001 792339
-0.10926665 -0.44385937 1.2140001 792339
-0.10582703 -0.44130003 1.207 792339
-0.10216395 -0.43764386 1.197 660753
-0.094735384 -0.42923465 1.174 726546
-0.091375701 -0.4263097 1.166 858132
-0.088129289 -0.4237504 1.159 858132
-0.085136607 -0.42228794 1.1550001 857362
-0.082019769 -0.42009422 1.149 857364
-0.079483315 -0.42082545 1.151 791571
-0.068531327 -0.45482787 1.2440001 792339
-0.065635629 -0.45482787 1.2440001 792339
-0.063092962 -0.45738718 1.251 529167
-0.060180973 -0.45738718 1.251 726546
-0.057406317 -0.45848405 1.2540001 529167
-0.051732857 -0.45994651 1.258 594960
-0.04888216 -0.46067777 1.2600001 660753
-0.046058621 -0.46177459 1.263 857362
-0.043118697 -0.46177459 1.263 791569
-0.040178768 -0.46177459 1.263 923155
-0.037238844 -0.46177459 1.263 659983
-0.034298919 -0.46177459 1.263 725776
-0.031358995 -0.46177459 1.263 725776
-0.028351566 -0.46067777 1.2600001 857362
-0.025418626 -0.46067777 1.2600001 725776
-0.022485683 -0.46067777 1.2600001 725776
-0.019599292 -0.46177459 1.263 791569
-0.016659368 -0.46177459 1.263 791569
-0.013741168 -0.46250585 1.2650001 725776
-0.010796587 -0.46250585 1.2650001 857362
-0.0078644203 -0.46323708 1.2670001 725776
-0.0049268226 -0.46433395 1.2700001 659983
-0.0019737058 -0.46506515 1.2720001 725776
0.00098872127 -0.46579638 1.274 528397
0.0039635636 -0.46689326 1.2770001 725776
0.0069360766 -0.46689326 1.2770001 725776
0.0099085905 -0.46689326 1.2770001 725776
0.012850843 -0.46579638 1.274 659983
0.015816374 -0.46579638 1.274 659983
0.018781904 -0.46579638 1.274 659983
0.021747435 -0.46579638 1.274 528397
0.02467417 -0.46506515 1.2720001 791569
0.027591594 -0.46433395 1.2700001 725776
0.030547814 -0.46433395 1.2700001 659983
0.033424888 -0.46323708 1.2670001 725776
0.036374126 -0.46323708 1.2670001 791056
0.03932336 -0.46323708 1.2670001 856849
0.042272598 -0.46323708 1.2670001 725263
0.045221835 -0.46323708 1.2670001 725263
0.048095029 -0.46250585 1.2650001 659983
0.051039614 -0.46250585 1.2650001 857362
0.053898841 -0.46177459 1.263 725776
0.056838766 -0.46177459 1.263 922642
0.05977869 -0.46177459 1.263 922895
0.062569648 -0.46067777 1.2600001 988688
0.065502591 -0.46067777 1.2600001 922895
0.065279081 -0.37512329 1.026 2635574
0.067667335 -0.37512329 1.026 4084303
0.070260435 -0.37622017 1.029 5729898
0.07265567 -0.37622017 1.029 6848379
0.075050898 -0.37622017 1.029 6848379
0.077521406 -0.37658578 1.0300001 7111551
0.080074146 -0.37731701 1.0320001 7572102
0.082556285 -0.37768263 1.033 7703688
0.085125335 -0.37841389 1.0350001 8032651
0.087534539 -0.37841389 1.0350001 8032651
0.089943737 -0.37841389 1.0350001 7901065
0.09244217 -0.37877947 1.036 11059129
0.094853692 -0.37877947 1.036 7901065
0.097265221 -0.37877947 1.036 8361616
0.12501258 -0.39011362 1.067 8690581
0.12725729 -0.38938239 1.0650001 8427409
0.12937087 -0.38828552 1.062 8689809
0.13147047 -0.38718867 1.059 8689809
0.13921715 -0.36854219 1.008 8953751
0.1415635 -0.36854219 1.008 8953751
0.14348155 -0.36744532 1.005 8953751
0.14553075 -0.36671409 1.003 8887958
0.14786544 -0.36671409 1.003 8887958
0.15020017 -0.36671409 1.003 8953751
0.15253489 -0.36671409 1.003 9216923
0.1548696 -0.36671409 1.003 9480095
0.20516649 -0.42777219 1.1700001 10401197
0.20753458 -0.42704099 1.1680001 10269611
0.20989332 -0.4263097 1.166 10138027
0.2122428 -0.42557847 1.164 10335406
0.21439826 -0.42448163 1.161 10335406
0.21672678 -0.4237504 1.159 10401199
0.21828867 -0.42155668 1.153 10730164
0.22020596 -0.42009422 1.149 10598578
0.22210462 -0.41863179 1.1450001 10598578
0.22339571 -0.41607243 1.138 10466992
0.27880663 -0.4321596 1.182 10795957
0.282749 -0.43398768 1.187 5203554
0.28647417 -0.43545017 1.1910001 8097674
0.28973222 -0.4361814 1.1930001 11518908
0.2929996 -0.43691263 1.1950001 10992566
0.29627624 -0.43764386 1.197 11124152
0.29906255 -0.43764386 1.197 11321531
0.30235314 -0.43837509 1.199 11387324
0.30463511 -0.43764386 1.197 11387324
0.30690777 -0.43691263 1.1950001 11453117
0.30917111 -0.4361814 1.1930001 11189945
0.31090215 -0.43471891 1.189 11189945
0.31235078 -0.43289083 1.184 11124152
0.31404227 -0.43142837 1.1800001 11124152
0.31625208 -0.43069714 1.1780001 11387324
0.31845251 -0.42996588 1.176 11321531
0.32064372 -0.42923465 1.174 11189945
0.32282558 -0.42850342 1.1720001 11387324
0.32555366 -0.42850342 1.1720001 11124152
0.32772157 -0.42777219 1.1700001 11387324
0.33044502 -0.42777219 1.1700001 11518910
0.33259898 -0.42704099 1.1680001 11321531
0.33531773 -0.42704099 1.1680001 11453117
0.33745769 -0.4263097 1.166 11584703
0.33958834 -0.42557847 1.164 11387324
0.34229782 -0.42557847 1.164 11453117
0.3444145 -0.42484728 1.1620001 11452604
0.34711933 -0.42484728 1.1620001 11715776
0.34982419 -0.42484728 1.1620001 11452604
0.35222557 -0.42448163 1.161 11452604
0.35492808 -0.42448163 1.161 11584190
0.35763058 -0.42448163 1.161 11649983
0.36064345 -0.42484728 1.1620001 11452604
0.36334828 -0.42484728 1.1620001 11518397
0.36668316 -0.42557847 1.164 11518397
0.36939263 -0.42557847 1.164 11715776
0.37274143 -0.4263097 1.166 11649983
0.37609962 -0.42704099 1.1680001 11649983
0.37881842 -0.42704099 1.1680001 11584190
0.3821905 -0.42777219 1.1700001 11649983
0.3855719 -0.42850342 1.1720001 11715776
0.38830003 -0.42850342 1.1720001 11649983
0.39169541 -0.42923465 1.174 11649983
0.39442813 -0.42923465 1.174 11649983
0.39783749 -0.42996588 1.176 11715776
0.40057492 -0.42996588 1.176 11518397
0.40331233 -0.42996588 1.176 11649983
0.40604973 -0.42996588 1.176 11649983
0.40878716 -0.42996588 1.176 11649983
0.41152456 -0.42996588 1.176 11649983
0.41426197 -0.42996588 1.176 11584190
0.41699937 -0.42996588 1.176 11715776
0.41902298 -0.42923465 1.174 11715776
0.42175573 -0.42923465 1.174 11913155
0.42448848 -0.42923465 1.174 11847362
0.42722124 -0.42923465 1.174 11649983
0.42995399 -0.42923465 1.174 11649983
0.43268675 -0.42923465 1.174 11649983
0.4354195 -0.42923465 1.174 11649983
0.43815228 -0.42923465 1.174 11913155
0.44088504 -0.42923465 1.174 11715776
0.44361776 -0.42923465 1.174 11847362
0.44635054 -0.42923465 1.174 11913155
0.4490833 -0.42923465 1.174 11715776
0.45181605 -0.42923465 1.174 11649983
0.45532316 -0.42996588 1.176 11715776
0.45806056 -0.42996588 1.176 12044741
0.460798 -0.42996588 1.176 11913155
0.4635354 -0.42996588 1.176 11913155
0.46706584 -0.43069714 1.1780001 11715776
0.46980789 -0.43069714 1.1780001 11584190
0.47335225 -0.43142837 1.1800001 11780799
0.47609895 -0.43142837 1.1800001 11649213
0.47884569 -0.43142837 1.1800001 11649213
0.48240867 -0.4321596 1.182 11386041
0.48516002 -0.4321596 1.182 11188662
0.48791143 -0.4321596 1.182 11188662
0.49066281 -0.4321596 1.182 11057076
0.49341419 -0.4321596 1.182 11122869
0.49616554 -0.4321596 1.182 11386041
0.49891695 -0.4321596 1.182 11319734
0.50166833 -0.4321596 1.182 11385012
0.50356621 -0.43142837 1.1800001 9936283
0.50631291 -0.43142837 1.1800001 8291460
0.50905967 -0.43142837 1.1800001 6316900
0.51180637 -0.43142837 1.1800001 7171437
0.51368099 -0.43069714 1.1780001 6711139
0.51642305 -0.43069714 1.1780001 7171431
0.51916516 -0.43069714 1.1780001 7105638
0.52102107 -0.42996588 1.176 7105387
0.52286774 -0.42923465 1.174 6908261
0.52470511 -0.42850342 1.1720001 7368810
0.52743322 -0.42850342 1.1720001 5526860
0.53016132 -0.42850342 1.1720001 4540222
0.53198004 -0.42777219 1.1700001 4211257
0.53378952 -0.42704099 1.1680001 4342843
0.53650826 -0.42704099 1.1680001 4408636
0.5401504 -0.42777219 1.1700001 4277048
0.54287386 -0.42777219 1.1700001 4211255
0.54559731 -0.42777219 1.1700001 4013876
0.54832071 -0.42777219 1.1700001 4013876
0.55104417 -0.42777219 1.1700001 4211255
0.55471426 -0.42850342 1.1720001 3883060
0.55744237 -0.42850342 1.1720001 3818039
0.55921453 -0.42777219 1.1700001 3950138
0.56193799 -0.42777219 1.1700001 3819068
0.56369621 -0.42704099 1.1680001 3754051
0.56641495 -0.42704099 1.1680001 3228477
0.56913376 -0.42704099 1.1680001 3623750
0.57185256 -0.42704099 1.1680001 3689543
0.57358748 -0.4263097 1.166 3754823
0.57630157 -0.4263097 1.166 3886409
0.58000892 -0.42704099 1.1680001 4083788
0.58172989 -0.4263097 1.166 3886409
0.58444399 -0.4263097 1.166 3951950
0.586151 -0.42557847 1.164 4083536
0.58784872 -0.42484728 1.1620001 4083536
0.59055358 -0.42484728 1.1620001 4282198
0.59325838 -0.42484728 1.1620001 3887440
0.59596324 -0.42484728 1.1620001 3887440
0.633255 -0.42996588 1.176 4412755
0.63923728 -0.4321596 1.182 4412755
0.64579064 -0.43471891 1.189 4281169
0.65183115 -0.43691263 1.1950001 4413268
0.6578995 -0.43910635 1.2010001 4413268
0.66289556 -0.4405688 1.205 4347475
0.66791034 -0.44203129 1.2090001 4215376
0.67238885 -0.44312811 1.212 4413268
0.67632431 -0.44385937 1.2140001 4479061
0.65647489 -0.4237504 1.159 4545624
0.66381192 -0.42155668 1.153 4675925
0.66996413 -0.4237504 1.159 4741718
0.67556381 -0.42557847 1.164 4610645
0.68176961 -0.42777219 1.1700001 4545622
0.68683314 -0.42923465 1.174 4414036
0.69191545 -0.43069714 1.1780001 4479829
0.69347805 -0.42996588 1.176 4479829
0.69621551 -0.42996588 1.176 4544854
0.69895291 -0.42996588 1.176 4676186
0.70049691 -0.42923465 1.174 4675673
0.70322973 -0.42923465 1.174 4741720
0.70716512 -0.42996588 1.176 4873306
-0.15756553 -0.44176006 1.2160001 792339
-0.15473501 -0.44176006 1.2160001 988948
-0.15190448 -0.44176006 1.2160001 1120534
-0.14882877 -0.44103351 1.2140001 988948
-0.1460029 -0.44103351 1.2140001 923155
-0.14294116 -0.44030687 1.212 857362
-0.14011995 -0.44030687 1.212 726546
-0.13729873 -0.44030687 1.212 792339
-0.13469945 -0.44103351 1.2140001 594962
-0.13187358 -0.44103351 1.2140001 858134
-0.1292603 -0.44176006 1.2160001 792339
-0.12642978 -0.44176006 1.2160001 792339
-0.12380254 -0.44248664 1.2180001 989718
-0.12116601 -0.44321319 1.22 660753
-0.11852015 -0.44393978 1.222 989718
-0.11567566 -0.44393978 1.222 858132
-0.11283117 -0.44393978 1.222 726546
-0.10962666 -0.44248664 1.2180001 858132
-0.10644078 -0.44103351 1.2140001 792339
-0.10250536 -0.43631074 1.2010001 594960
-0.099045567 -0.43340442 1.1930001 660753
-0.095542327 -0.43013477 1.184 660753
-0.092002638 -0.4265019 1.174 660753
-0.088813648 -0.42432219 1.1680001 529167
-0.085652582 -0.42214242 1.1620001 726546
-0.082590841 -0.42032599 1.1570001 923155
-0.080173872 -0.42177913 1.161 857362
-0.072649866 -0.44176006 1.2160001 923155
-0.068916954 -0.45447519 1.251 594960
-0.066004962 -0.45447519 1.251 594960
-0.063092962 -0.45447519 1.251 594960
-0.060325291 -0.45556507 1.2540001 726546
-0.057497874 -0.45629165 1.256 594960
-0.051732857 -0.4570182 1.258 725776
-0.048998546 -0.45883465 1.263 791569
-0.046131562 -0.45956126 1.2650001 857362
-0.043186978 -0.45956126 1.2650001 725776
-0.037238844 -0.45883465 1.263 726029
-0.034353234 -0.45956126 1.2650001 857615
-0.031358995 -0.45883465 1.263 660236
-0.028419068 -0.45883465 1.263 857615
-0.025418626 -0.45774481 1.2600001 726029
-0.022485683 -0.45774481 1.2600001 726029
-0.019599292 -0.45883465 1.263 725776
-0.016659368 -0.45883465 1.263 725776
-0.013741168 -0.45956126 1.2650001 725776
-0.010813656 -0.46028784 1.2670001 725776
-0.0078644203 -0.46028784 1.2670001 528397
-0.0049268226 -0.46137771 1.2700001 659983
-0.0019768092 -0.46283084 1.274 462604
0.00098872127 -0.46283084 1.274 659983
0.0039635636 -0.46392071 1.2770001 593677
0.0069360766 -0.46392071 1.2770001 725776
0.0098853121 -0.46283084 1.274 528397
0.012850843 -0.46283084 1.274 725776
0.015791545 -0.46210429 1.2720001 659983
0.01875242 -0.46210429 1.2720001 725776
0.021713294 -0.46210429 1.2720001 528397
0.02467417 -0.46210429 1.2720001 725776
0.027591594 -0.46137771 1.2700001 659983
0.030475654 -0.46028784 1.2670001 659983
0.033424888 -0.46028784 1.2670001 659983
0.036316708 -0.45956126 1.2650001 791056
0.039261289 -0.45956126 1.2650001 1054228
0.04220587 -0.45956126 1.2650001 725263
0.045150451 -0.45956126 1.2650001 856849
0.048095029 -0.45956126 1.2650001 856849
0.050958913 -0.45883465 1.263 922642
0.053898841 -0.45883465 1.263 856849
0.056838766 -0.45883465 1.263 856849
0.05977869 -0.45883465 1.263 922642
0.062569648 -0.45774481 1.2600001 922895
0.065502591 -0.45774481 1.2600001 922895
0.065279081 -0.37273505 1.026 3162688
0.067667335 -0.37273505 1.026 4215889
0.070260435 -0.37382492 1.029 5268577
0.07265567 -0.37382492 1.029 6913402
0.075123839 -0.37418821 1.0300001 7045758
0.077521406 -0.37418821 1.0300001 7308930
0.080074146 -0.3749148 1.0320001 7637125
0.082556285 -0.37527806 1.033 7769481
0.085125335 -0.37600467 1.0350001 7966860
0.087534539 -0.37600467 1.0350001 7966858
0.089943737 -0.37600467 1.0350001 7966858
0.09244217 -0.37636793 1.036 8822167
0.094853692 -0.37636793 1.036 8032653
0.097265221 -0.37636793 1.036 8361618
0.10258099 -0.37818438 1.041 9414304
0.11432286 -0.38508689 1.0600001 8558995
0.12310305 -0.38944635 1.072 8493202
0.12501258 -0.38762993 1.067 8624788
0.12689881 -0.38581347 1.062 8755604
0.1290054 -0.3847236 1.059 8493202
0.13466956 -0.37309834 1.0270001 8624788
0.13572557 -0.36946547 1.0170001 8822167
0.13894093 -0.36546925 1.006 8953751
0.14128263 -0.36546925 1.006 8887958
0.14348155 -0.36510596 1.005 9019544
0.14553075 -0.36437938 1.003 8822165
0.14786544 -0.36437938 1.003 8822678
0.15005043 -0.36401612 1.0020001 9085850
0.15238282 -0.36401612 1.0020001 9349022
0.1548696 -0.36437938 1.003 9480610
0.20244305 -0.42504874 1.1700001 10401197
0.20551719 -0.42577532 1.1720001 10335404
0.20824531 -0.42577532 1.1720001 10335404
0.21061337 -0.42504874 1.1700001 10138025
0.21260746 -0.42359558 1.166 10335404
0.21495226 -0.422869 1.164 10532785
0.21710077 -0.42177913 1.161 10532785
0.21904597 -0.42032599 1.1570001 10598578
0.22058927 -0.41814622 1.151 10532785
0.22210462 -0.41596651 1.1450001 10532785
0.22359203 -0.41378677 1.1390001 10598578
0.27786312 -0.42795506 1.1780001 8624788
0.28155798 -0.42940822 1.182 5860201
0.2892465 -0.43267784 1.1910001 11782080
0.2929996 -0.43413097 1.1950001 11058357
0.29627624 -0.43485755 1.197 11124150
0.29906255 -0.43485755 1.197 11387324
0.30235314 -0.43558413 1.199 11387324
0.3051441 -0.43558413 1.199 11321531
0.30742142 -0.43485755 1.197 11453117
0.30968943 -0.43413097 1.1950001 11387324
0.31194809 -0.43340442 1.1930001 11124152
0.31314221 -0.43122464 1.187 11124152
0.31457454 -0.42940822 1.182 11321531
0.316789 -0.42868164 1.1800001 11386811
0.31899413 -0.42795506 1.1780001 11321531
0.32118994 -0.42722845 1.176 11387324
0.32337648 -0.4265019 1.174 11189945
0.3261092 -0.4265019 1.174 11321531
0.32828179 -0.42577532 1.1720001 11321531
0.33100989 -0.42577532 1.1720001 11518910
0.333738 -0.42577532 1.1720001 11584703
0.3358919 -0.42504874 1.1700001 11387324
0.33861536 -0.42504874 1.1700001 11518910
0.34075534 -0.42432219 1.1680001 11387324
0.34347412 -0.42432219 1.1680001 11453117
0.3456001 -0.42359558 1.166 11386811
0.34831423 -0.42359558 1.166 11584190
0.35042629 -0.422869 1.164 11518397
0.35252899 -0.42214242 1.1620001 11584190
0.35523382 -0.42214242 1.1620001 11518397
0.35793865 -0.42214242 1.1620001 11584190
0.36064345 -0.42214242 1.1620001 11518397
0.36334828 -0.42214242 1.1620001 11518397
0.36668316 -0.422869 1.164 11518397
0.36939263 -0.422869 1.164 11584190
0.37274143 -0.42359558 1.166 11649983
0.37609962 -0.42432219 1.1680001 11584190
0.37881842 -0.42432219 1.1680001 11715776
0.3821905 -0.42504874 1.1700001 11649983
0.3855719 -0.42577532 1.1720001 11847362
0.38896263 -0.4265019 1.174 11584190
0.39169541 -0.4265019 1.174 11913155
0.39577204 -0.42795506 1.1780001 11715776
0.39851412 -0.42795506 1.1780001 11649983
0.40193743 -0.42868164 1.1800001 11715776
0.40468419 -0.42868164 1.1800001 11715776
0.40743086 -0.42868164 1.1800001 11649983
0.41017762 -0.42868164 1.1800001 11649983
0.41292435 -0.42868164 1.1800001 11715776
0.41496652 -0.42795506 1.1780001 11715776
0.41770861 -0.42795506 1.1780001 11715776
0.4197368 -0.42722845 1.176 11913155
0.42247424 -0.42722845 1.176 11715776
0.42521161 -0.42722845 1.176 11715776
0.42722124 -0.4265019 1.174 11847362
0.42995399 -0.4265019 1.174 11847362
0.43268675 -0.4265019 1.174 11715776
0.4354195 -0.4265019 1.174 11649983
0.43815228 -0.4265019 1.174 11913155
0.44088504 -0.4265019 1.174 11649983
0.44361776 -0.4265019 1.174 11913155
0.44635054 -0.4265019 1.174 11913155
0.4490833 -0.4265019 1.174 11847362
0.45258573 -0.42722845 1.176 11847362
0.45532316 -0.42722845 1.176 11847362
0.45806056 -0.42722845 1.176 11978948
0.460798 -0.42722845 1.176 11978948
0.4635354 -0.42722845 1.176 11978948
0.46706584 -0.42795506 1.1780001 11913153
0.46980789 -0.42795506 1.1780001 12109762
0.47335225 -0.42868164 1.1800001 11846590
0.47609895 -0.42868164 1.1800001 11715004
0.47965729 -0.42940822 1.182 11649211
0.48240867 -0.42940822 1.182 11715004
0.48598093 -0.43013477 1.184 11188662
0.48873699 -0.43013477 1.184 11517627
0.49273837 -0.43122464 1.187 11517627
0.4955014 -0.43122464 1.187 11320248
0.4982644 -0.43122464 1.187 11517627
0.50102741 -0.43122464 1.187 11386039
0.50379044 -0.43122464 1.187 11517625
0.50527316 -0.43013477 1.184 11517625
0.50802922 -0.43013477 1.184 11189430
0.50992244 -0.42940822 1.182 11057844
0.51267385 -0.42940822 1.182 10926260
0.51455307 -0.42868164 1.1800001 11254453
0.51642305 -0.42795506 1.1780001 11384495
0.51916516 -0.42795506 1.1780001 9738387
0.52102107 -0.42722845 1.176 7500655
0.52286774 -0.4265019 1.174 7105644
0.52470511 -0.42577532 1.1720001 7237481
0.52743322 -0.42577532 1.1720001 6645087
0.52925658 -0.42504874 1.1700001 6711137
0.53198004 -0.42504874 1.1700001 6777700
0.53470349 -0.42504874 1.1700001 6514782
0.53834558 -0.42577532 1.1720001 4869957
0.54107374 -0.42577532 1.1720001 4277050
0.54380184 -0.42577532 1.1720001 4408379
0.54652995 -0.42577532 1.1720001 4605758
0.54925799 -0.42577532 1.1720001 4473402
0.5519861 -0.42577532 1.1720001 4473400
0.55471426 -0.42577532 1.1720001 4408377
0.55744237 -0.42577532 1.1720001 3948853
0.55921453 -0.42504874 1.1700001 3883060
0.56193799 -0.42504874 1.1700001 3554615
0.56466144 -0.42504874 1.1700001 2765359
0.56641495 -0.42432219 1.1680001 2569265
0.56913376 -0.42432219 1.1680001 2635572
0.57185256 -0.42432219 1.1680001 3228479
0.57457137 -0.42432219 1.1680001 4610132
0.57630157 -0.42359558 1.166 4215374
0.57901573 -0.42359558 1.166 4281167
0.58172989 -0.42359558 1.166 4215374
0.58444399 -0.42359558 1.166 4215887
0.586151 -0.422869 1.164 4215889
0.58784872 -0.42214242 1.1620001 4084049
0.59055358 -0.42214242 1.1620001 4084049
0.59325838 -0.42214242 1.1620001 3887440
0.633255 -0.42722845 1.176 4149581
0.6381557 -0.42868164 1.1800001 4149581
0.64470434 -0.43122464 1.187 4083788
0.64964926 -0.43267784 1.1910001 4411983
0.65570825 -0.43485755 1.197 4280397
0.66179532 -0.43703729 1.2030001 4280399
0.66680539 -0.43849045 1.207 4149583
0.67130262 -0.43413097 1.1950001 4478548
0.67672455 -0.42359558 1.166 4478546
0.68176961 -0.42504874 1.1700001 4413266
0.68683314 -0.4265019 1.174 4479829
0.69191545 -0.42795506 1.1780001 4414036
0.69347805 -0.42722845 1.176 4610645
0.69621551 -0.42722845 1.176 4676438
0.69776422 -0.4265019 1.174 4676186
0.70049691 -0.4265019 1.174 4675673
0.70322973 -0.4265019 1.174 4939099
0.70596248 -0.4265019 1.174 4544854
0.70869523 -0.4265019 1.174 4610647
0.71142799 -0.4265019 1.174 4676440
-2.2041163 -1.5922025 4.4110003 6121307
-2.1938486 -1.5922025 4.4110003 6121307
-2.1835809 -1.5922025 4.4110003 6055512
-2.1733134 -1.5922025 4.4110003 6055512
-2.1630456 -1.5922025 4.4110003 6055512
-2.0398343 -1.5922025 4.4110003 5792340
-2.0295668 -1.5922025 4.4110003 5792340
-2.019299 -1.5922025 4.4110003 5792340
-2.0090313 -1.5922025 4.4110003 5792340
-1.9987637 -1.5922025 4.4110003 5989719
-1.9884962 -1.5922025 4.4110003 5660754
-1.9656712 -1.5820956 4.3830004 5594961
-0.15756553 -0.43892956 1.2160001 1055513
-0.15473501 -0.43892956 1.2160001 1055513
-0.15165465 -0.43820766 1.2140001 989720
-0.14882877 -0.43820766 1.2140001 988950
-0.1460029 -0.43820766 1.2140001 858132
-0.14294116 -0.43748569 1.212 792339
-0.14035118 -0.43820766 1.2140001 726546
-0.13752532 -0.43820766 1.2140001 792339
-0.13469945 -0.43820766 1.2140001 660755
-0.13187358 -0.43820766 1.2140001 989720
-0.12904771 -0.43820766 1.2140001 660755
-0.12642978 -0.43892956 1.2160001 792339
-0.12380254 -0.43965149 1.2180001 989718
-0.12116601 -0.44037339 1.22 594960
-0.11881112 -0.44217822 1.225 1055511
-0.11567566 -0.44109532 1.222 858132
-0.11310817 -0.44217822 1.225 792339
-0.10998668 -0.44109532 1.222 792339
-0.10661613 -0.43892956 1.2160001 726546
-0.10284676 -0.43495896 1.205 594960
-0.099377654 -0.43207127 1.197 594960
-0.095784418 -0.42846167 1.187 529167
-0.092316106 -0.42521304 1.1780001 726546
-0.088813648 -0.42160341 1.1680001 660753
-0.085800007 -0.42015955 1.164 660753
-0.080242932 -0.41943762 1.1620001 660753
-0.071197353 -0.44759262 1.24 725776
-0.068916954 -0.45156321 1.251 660753
-0.066004962 -0.45156321 1.251 660753
-0.063244268 -0.45264611 1.2540001 529167
-0.060325291 -0.45264611 1.2540001 858132
-0.057497874 -0.45336804 1.256 660753
-0.051732857 -0.45408994 1.258 594960
-0.048998546 -0.45589474 1.263 792339
-0.046131562 -0.4566167 1.2650001 857362
-0.043186978 -0.4566167 1.2650001 462606
-0.040242396 -0.4566167 1.2650001 791569
-0.037297815 -0.4566167 1.2650001 725776
-0.034353234 -0.4566167 1.2650001 725776
-0.031408656 -0.4566167 1.2650001 528397
-0.028419068 -0.45589474 1.263 923155
-0.025479143 -0.45589474 1.263 659983
-0.022539217 -0.45589474 1.263 659983
-0.019599292 -0.45589474 1.263 791569
-0.016685748 -0.4566167 1.2650001 725776
-0.013741168 -0.4566167 1.2650001 659983
-0.010813656 -0.45733863 1.2670001 791569
-0.0078830421 -0.45842153 1.2700001 528397
-0.0049268226 -0.45842153 1.2700001 791569
-0.0019768092 -0.45986533 1.274 659983
0.00098872127 -0.45986533 1.274 725776
0.0039635636 -0.46094823 1.2770001 659983
0.0069360766 -0.46094823 1.2770001 725776
0.0098853121 -0.45986533 1.274 528397
0.012850843 -0.45986533 1.274 725776
0.015816374 -0.45986533 1.274 725776
0.01875242 -0.45914343 1.2720001 725776
0.021713294 -0.45914343 1.2720001 528397
0.024635375 -0.45842153 1.2700001 659983
0.027526416 -0.45733863 1.2670001 791569
0.030475654 -0.45733863 1.2670001 659983
0.033372127 -0.4566167 1.2650001 725776
0.036316708 -0.4566167 1.2650001 791569
0.039261289 -0.4566167 1.2650001 791569
0.04220587 -0.4566167 1.2650001 791056
0.045150451 -0.4566167 1.2650001 922895
0.048095029 -0.4566167 1.2650001 791309
0.051039614 -0.4566167 1.2650001 857102
0.053898841 -0.45589474 1.263 791569
0.056838766 -0.45589474 1.263 791569
0.059636701 -0.4548119 1.2600001 791569
0.062718615 -0.45589474 1.263 857362
0.06565854 -0.45589474 1.263 988948
0.065279081 -0.37034681 1.026 3689032
0.067667335 -0.37034681 1.026 4215889
0.070260435 -0.37142971 1.029 5992300
0.07265567 -0.37142971 1.029 6847609
0.075123839 -0.37179068 1.0300001 7308160
0.077521406 -0.37179068 1.0300001 7373953
0.080074146 -0.37251261 1.0320001 7768711
0.082556285 -0.37287354 1.033 7769481
0.085125335 -0.37359548 1.0350001 7901067
0.087534539 -0.37359548 1.0350001 7966860
0.089943737 -0.37359548 1.0350001 7901578
0.09244217 -0.37395641 1.036 7901578
0.094853692 -0.37395641 1.036 8098957
0.097265221 -0.37395641 1.036 8033164
0.11389144 -0.38117567 1.056 8427409
0.12275854 -0.38586816 1.069 7177344
0.12466108 -0.38406336 1.064 9216155
0.12654033 -0.38225853 1.059 8821397
0.13343818 -0.37395641 1.036 8558995
0.13453841 -0.37034681 1.026 8887960
0.13894093 -0.36312759 1.006 8953751
0.14128263 -0.36312759 1.006 9019544
0.14348155 -0.36276659 1.005 9019544
0.14553075 -0.36204469 1.003 8822165
0.14786544 -0.36204469 1.003 8888471
0.15020017 -0.36204469 1.003 9151643
0.15238282 -0.36168376 1.0020001 9349022
0.15471521 -0.36168376 1.0020001 9612194
0.20006101 -0.42304724 1.1720001 10466990
0.20313515 -0.42376915 1.174 10466990
0.2062186 -0.42449108 1.176 10401197
0.20895603 -0.42449108 1.176 10401197
0.2109734 -0.42304724 1.1720001 10269611
0.21297216 -0.42160341 1.1680001 10401197
0.21495226 -0.42015955 1.164 10532013
0.21728776 -0.41943762 1.1620001 10663601
0.21942462 -0.41835472 1.159 10729394
0.22097255 -0.41618896 1.153 10860980
0.22249258 -0.41402319 1.1470001 10729394
0.22398463 -0.41185743 1.141 10860980
0.22525015 -0.4093307 1.1340001 10926773
0.27644783 -0.42304724 1.1720001 7242365
0.28108159 -0.42593494 1.1800001 5992298
0.2925092 -0.43062744 1.1930001 11124150
0.29578122 -0.43134937 1.1950001 11189943
0.29906255 -0.43207127 1.197 11189945
0.30235314 -0.4327932 1.199 11189945
0.3051441 -0.4327932 1.199 11387324
0.30742142 -0.43207127 1.197 11189945
0.30968943 -0.43134937 1.1950001 11387324
0.31194809 -0.43062744 1.1930001 11321531
0.31366983 -0.42918357 1.189 11124152
0.31510681 -0.42737877 1.184 11453117
0.316789 -0.42593494 1.1800001 11453117
0.31899413 -0.42521304 1.1780001 11321531
0.32173622 -0.42521304 1.1780001 11189945
0.32392737 -0.42449108 1.176 11321531
0.32666475 -0.42449108 1.176 11453117
0.32884198 -0.42376915 1.174 11453115
0.33157474 -0.42376915 1.174 11453115
0.33430752 -0.42376915 1.174 11387322
0.33704025 -0.42376915 1.174 11387322
0.33919418 -0.42304724 1.1720001 11453117
0.34192231 -0.42304724 1.1720001 11387324
0.34406224 -0.42232531 1.1700001 11518910
0.34678569 -0.42232531 1.1700001 11387324
0.3489117 -0.42160341 1.1680001 11715776
0.35102838 -0.42088145 1.166 11584190
0.35313573 -0.42015955 1.164 11255225
0.35584521 -0.42015955 1.164 11584190
0.35855472 -0.42015955 1.164 11518397
0.36064345 -0.41943762 1.1620001 11518397
0.36334828 -0.41943762 1.1620001 11584190
0.36668316 -0.42015955 1.164 11518397
0.36939263 -0.42015955 1.164 11584190
0.37274143 -0.42088145 1.166 11584190
0.37609962 -0.42160341 1.1680001 11649983
0.37946707 -0.42232531 1.1700001 11649983
0.38284379 -0.42304724 1.1720001 11913155
0.3855719 -0.42304724 1.1720001 11584190
0.38896263 -0.42376915 1.174 11649983
0.39236268 -0.42449108 1.176 11847362
0.39577204 -0.42521304 1.1780001 11715776
0.39919069 -0.42593494 1.1800001 11649983
0.40193743 -0.42593494 1.1800001 12043971
0.40537006 -0.42665684 1.182 11913155
0.40812144 -0.42665684 1.182 11847362
0.41087282 -0.42665684 1.182 11649983
0.4136242 -0.42665684 1.182 11715776
0.41567105 -0.42593494 1.1800001 11715776
0.41770861 -0.42521304 1.1780001 11715776
0.42045069 -0.42521304 1.1780001 11913155
0.42247424 -0.42449108 1.176 11847362
0.42521161 -0.42449108 1.176 11847362
0.42794904 -0.42449108 1.176 11847362
0.43068644 -0.42449108 1.176 11847362
0.43342385 -0.42449108 1.176 11649983
0.4354195 -0.42376915 1.174 11715776
0.43815228 -0.42376915 1.174 11847362
0.44163612 -0.42449108 1.176 11715776
0.44437349 -0.42449108 1.176 11913155
0.44711092 -0.42449108 1.176 11978948
0.44984835 -0.42449108 1.176 11715776
0.45258573 -0.42449108 1.176 11978948
0.45532316 -0.42449108 1.176 11978948
0.45806056 -0.42449108 1.176 12044741
0.460798 -0.42449108 1.176 11913155
0.46432376 -0.42521304 1.1780001 11847362
0.46706584 -0.42521304 1.1780001 11847360
0.46980789 -0.42521304 1.1780001 11847360
0.47335225 -0.42593494 1.1800001 12043969
0.47690591 -0.42665684 1.182 11715004
0.47965729 -0.42665684 1.182 11715004
0.48322493 -0.42737877 1.184 11978176
0.4872123 -0.42846167 1.187 11649211
0.49080089 -0.42918357 1.189 11649981
0.49356857 -0.42918357 1.189 11649981
0.49717119 -0.42990553 1.1910001 11452602
0.49994349 -0.42990553 1.1910001 11913153
0.50271583 -0.42990553 1.1910001 11847360
0.50548816 -0.42990553 1.1910001 11715774
0.50740695 -0.42918357 1.189 11452602
0.51017463 -0.42918357 1.189 11386809
0.51207948 -0.42846167 1.187 11255223
0.51354128 -0.42737877 1.184 11452602
0.51542521 -0.42665684 1.182 11123637
0.51642305 -0.42521304 1.1780001 11189430
0.51916516 -0.42521304 1.1780001 11123120
0.52102107 -0.42449108 1.176 11385778
0.52286774 -0.42376915 1.174 11253939
0.52470511 -0.42304724 1.1720001 10660772
0.52743322 -0.42304724 1.1720001 8949641
0.53016132 -0.42304724 1.1720001 7698034
0.53288943 -0.42304724 1.1720001 6711909
0.53561753 -0.42304724 1.1720001 6646116
0.53926426 -0.42376915 1.174 6909288
0.54199702 -0.42376915 1.174 6842466
0.54472983 -0.42376915 1.174 6842466
0.54746258 -0.42376915 1.174 6316122
0.55019528 -0.42376915 1.174 5920848
0.5519861 -0.42304724 1.1720001 5065539
0.55471426 -0.42304724 1.1720001 4474170
0.55744237 -0.42304724 1.1720001 4408634
0.56017041 -0.42304724 1.1720001 4474429
0.56193799 -0.42232531 1.1700001 3487280
0.56466144 -0.42232531 1.1700001 3355696
0.56641495 -0.42160341 1.1680001 2895662
0.56913376 -0.42160341 1.1680001 2633773
0.57087332 -0.42088145 1.166 2568752
0.57457137 -0.42160341 1.1680001 2635058
0.57630157 -0.42088145 1.166 2832437
0.58000892 -0.42160341 1.1680001 2372402
0.58172989 -0.42088145 1.166 3162688
0.58444399 -0.42088145 1.166 5335140
0.586151 -0.42015955 1.164 6059376
0.58784872 -0.41943762 1.1620001 5400931
0.63217801 -0.42376915 1.174 4543571
0.63707405 -0.42521304 1.1780001 4346192
0.64307493 -0.42737877 1.184 4740948
0.64855832 -0.42918357 1.189 4872020
0.65461272 -0.43134937 1.1950001 4543055
0.66069508 -0.43351516 1.2010001 4345678
0.68176961 -0.42232531 1.1700001 4544339
0.68683314 -0.42376915 1.174 4413266
0.69074064 -0.42449108 1.176 4479059
0.69347805 -0.42449108 1.176 4544852
-4.3428612 -2.3504877 6.5540004 6910823
-4.2470484 -2.3067343 6.4320002 6910823
-4.1925979 -2.2852163 6.3720002 6845030
-4.1017113 -2.2436149 6.2560005 6581604
-3.9440722 -2.1650739 6.0370002 6713192
-3.796567 -2.0915539 5.8320003 7042155
-3.600069 -1.990419 5.5500002 6910569
-2.2554545 -1.5819349 4.4110003 6318686
-2.2451868 -1.5819349 4.4110003 6318686
-2.2349191 -1.5819349 4.4110003 6318686
-2.2246516 -1.5819349 4.4110003 6318686
-2.2143838 -1.5819349 4.4110003 6252893
-2.2041163 -1.5819349 4.4110003 6318686
-2.1938486 -1.5819349 4.4110003 6318686
-2.1835809 -1.5819349 4.4110003 5989721
-2.1733134 -1.5819349 4.4110003 6055514
-2.1630456 -1.5819349 4.4110003 6055514
-2.1527781 -1.5819349 4.4110003 6120794
-2.1425107 -1.5819349 4.4110003 6186585
-2.1322429 -1.5819349 4.4110003 6054999
-2.1219752 -1.5819349 4.4110003 6054999
-2.0983031 -1.5718932 4.3830004 6055001
-2.0881007 -1.5718932 4.3830004 6120794
-2.0778983 -1.5718932 4.3830004 5989208
-2.0676956 -1.5718932 4.3830004 5989208
-2.0574932 -1.5718932 4.3830004 5923415
-2.0472908 -1.5718932 4.3830004 5726036
-2.0501018 -1.5819349 4.4110003 5923415
-2.0398343 -1.5819349 4.4110003 5857622
-2.0295668 -1.5819349 4.4110003 5726036
-2.019299 -1.5819349 4.4110003 5857620
-2.0090313 -1.5819349 4.4110003 5660754
-1.9987637 -1.5819349 4.4110003 5792340
-1.9884962 -1.5819349 4.4110003 5792340
-1.9656712 -1.5718932 4.3830004 5792340
-1.9554688 -1.5718932 4.3830004 5529168
-0.90201712 -1.532802 4.2740002 1776662
-0.89206845 -1.532802 4.2740002 1843225
-0.88211966 -1.532802 4.2740002 1974811
-0.87217098 -1.532802 4.2740002 1975065
-0.85697711 -1.5234776 4.2480001 1843479
-0.84708887 -1.5234776 4.2480001 1909272
-0.84232479 -1.532802 4.2740002 2105629
-0.83237606 -1.532802 4.2740002 4211005
-0.82762283 -1.5424851 4.3010001 3488822
-0.81761122 -1.5424851 4.3010001 2500904
-0.80759966 -1.5424851 4.3010001 2039836
-0.79758805 -1.5424851 4.3010001 1973784
-0.7875765 -1.5424851 4.3010001 1973784
-0.77756494 -1.5424851 4.3010001 1842198
-0.15782468 -0.4368163 1.2180001 1055513
-0.15473501 -0.43609905 1.2160001 989720
-0.15165465 -0.43538177 1.2140001 989720
-0.14907396 -0.43609905 1.2160001 858134
-0.1460029 -0.43538177 1.2140001 858132
-0.14294116 -0.43466449 1.212 858132
-0.14011995 -0.43466449 1.212 858132
-0.13729873 -0.43466449 1.212 989718
-0.13469945 -0.43538177 1.2140001 726546
-0.13187358 -0.43538177 1.2140001 989718
-0.12904771 -0.43538177 1.2140001 792339
-0.12642978 -0.43609905 1.2160001 792339
-0.12380254 -0.4368163 1.2180001 792339
-0.12116601 -0.43753356 1.22 660753
-0.11881112 -0.43932673 1.225 1055511
-0.11595964 -0.43932673 1.225 792339
-0.11329284 -0.44004402 1.2270001 792339
-0.11025669 -0.43932673 1.225 858132
-0.10679148 -0.4368163 1.2180001 792339
-0.10318816 -0.43358862 1.2090001 660753
-0.099709749 -0.43071952 1.2010001 726546
-0.0961072 -0.4271332 1.1910001 594960
-0.092472836 -0.42318821 1.1800001 792339
-0.089117803 -0.42031914 1.1720001 660753
-0.080381043 -0.41745004 1.164 726548
-0.078205392 -0.42031914 1.1720001 660755
-0.073008329 -0.43825081 1.222 989718
-0.071427025 -0.4461408 1.2440001 660753
-0.069082223 -0.44972712 1.2540001 660753
-0.066163242 -0.44972712 1.2540001 594960
-0.063244268 -0.44972712 1.2540001 529167
-0.060421504 -0.4504444 1.256 989718
-0.05758943 -0.45116165 1.258 660753
-0.051815104 -0.45187894 1.2600001 397581
-0.048998546 -0.45295483 1.263 726546
-0.046131562 -0.45367211 1.2650001 857362
-0.043186978 -0.45367211 1.2650001 594960
-0.037297815 -0.45367211 1.2650001 594960
-0.034353234 -0.45367211 1.2650001 594960
-0.031408656 -0.45367211 1.2650001 529167
-0.028419068 -0.45295483 1.263 792339
-0.025479143 -0.45295483 1.263 594960
-0.022574911 -0.45367211 1.2650001 659983
-0.01963033 -0.45367211 1.2650001 659983
-0.016685748 -0.45367211 1.2650001 725776
-0.013762893 -0.45438936 1.2670001 725776
-0.010839261 -0.45546529 1.2700001 725776
-0.0078830421 -0.45546529 1.2700001 725776
-0.0049268226 -0.45546529 1.2700001 659983
-0.0019768092 -0.45689979 1.274 659983
0.00098872127 -0.45689979 1.274 528397
0.0039635636 -0.45797572 1.2770001 659983
0.0069360766 -0.45797572 1.2770001 791569
0.0098853121 -0.45689979 1.274 725776
0.012850843 -0.45689979 1.274 791569
0.015791545 -0.45618254 1.2720001 659983
0.01875242 -0.45618254 1.2720001 659983
0.021713294 -0.45618254 1.2720001 659983
0.024635375 -0.45546529 1.2700001 528397
0.027526416 -0.45438936 1.2670001 725776
0.030475654 -0.45438936 1.2670001 791569
0.033372127 -0.45367211 1.2650001 659983
0.036316708 -0.45367211 1.2650001 725776
0.039261289 -0.45367211 1.2650001 857362
0.04220587 -0.45367211 1.2650001 791822
0.045079067 -0.45295483 1.263 791822
0.048018988 -0.45295483 1.263 660236
0.051039614 -0.45367211 1.2650001 989201
0.053898841 -0.45295483 1.263 857615
0.056838766 -0.45295483 1.263 791822
0.05977869 -0.45295483 1.263 791822
0.062718615 -0.45295483 1.263 922895
0.06565854 -0.45295483 1.263 988435
0.065279081 -0.36795855 1.026 4873819
0.067733295 -0.36831719 1.0270001 4282452
0.070260435 -0.36903447 1.029 6452851
0.07265567 -0.36903447 1.029 7110781
0.075123839 -0.36939311 1.0300001 7439746
0.07767193 -0.37011036 1.0320001 7702918
0.080151737 -0.37046897 1.033 7834504
0.08271613 -0.37118629 1.0350001 7834504
0.085125335 -0.37118629 1.0350001 8163469
0.087534539 -0.37118629 1.0350001 8098444
0.090030633 -0.3715449 1.036 7967371
0.09244217 -0.3715449 1.036 7967371
0.094853692 -0.3715449 1.036 8098957
0.097265221 -0.3715449 1.036 8427409
0.099869184 -0.37226218 1.0380001 8230030
0.10742733 -0.37333804 1.041 8624790
0.11048365 -0.37548986 1.0470001 8690581
0.11346004 -0.37728304 1.052 8427409
0.11668006 -0.37979347 1.059 7769479
0.11970767 -0.38158664 1.064 8887960
0.12218437 -0.38158664 1.064 7177344
0.12407526 -0.37979347 1.059 8690581
0.12618186 -0.37871757 1.056 8624788
0.12803085 -0.3769244 1.051 8690581
0.12985657 -0.37513122 1.046 8887960
0.13165902 -0.37333804 1.041 8822165
0.13292298 -0.37011036 1.0320001 8887958
0.13388278 -0.36616537 1.021 8953751
0.13532519 -0.36365494 1.0140001 8953751
0.13659923 -0.36078587 1.006 9019544
0.13894093 -0.36078587 1.006 9151130
0.14128263 -0.36078587 1.006 8953751
0.14319602 -0.35970998 1.003 9085337
0.14553075 -0.35970998 1.003 9019544
0.14786544 -0.35970998 1.003 9019544
0.15005043 -0.35935137 1.0020001 9216923
0.2034812 -0.42175364 1.176 10532013
0.20656933 -0.42247096 1.1780001 10532013
0.20931141 -0.42247096 1.1780001 10597806
0.21169344 -0.42175364 1.176 10532015
0.2137015 -0.42031914 1.1720001 10597806
0.21569094 -0.41888461 1.1680001 10860978
0.21766175 -0.41745004 1.164 10860978
0.21942462 -0.41565689 1.159 10926771
0.28108159 -0.42318821 1.1800001 8032914
0.29578122 -0.42856771 1.1950001 11124150
0.29906255 -0.42928496 1.197 11189943
0.30235314 -0.43000224 1.199 11321529
0.3051441 -0.43000224 1.199 11387324
0.30742142 -0.42928496 1.197 11387324
0.30968943 -0.42856771 1.1950001 11387324
0.31194809 -0.42785046 1.1930001 11518910
0.31419745 -0.4271332 1.1910001 11124152
0.31786287 -0.42462271 1.184 11452604
0.3200773 -0.42390546 1.182 11452604
0.32228243 -0.42318821 1.1800001 11386811
0.32502916 -0.42318821 1.1800001 11255225
0.32722032 -0.42247096 1.1780001 11584190
0.3299624 -0.42247096 1.1780001 11649981
0.33213961 -0.42175364 1.176 11452602
0.33487701 -0.42175364 1.176 11584188
0.33761442 -0.42175364 1.176 11584188
0.34035182 -0.42175364 1.176 11453117
0.34250578 -0.42103639 1.174 11518910
0.34523851 -0.42103639 1.174 11453117
0.34737849 -0.42031914 1.1720001 11387324
0.3501066 -0.42031914 1.1720001 11453117
0.35223261 -0.41960186 1.1700001 11518397
0.35434929 -0.41888461 1.1680001 11518397
0.35645664 -0.41816732 1.166 11584190
0.35917076 -0.41816732 1.166 11452604
0.36126417 -0.41745004 1.164 11584190
0.36397365 -0.41745004 1.164 11452604
0.36668316 -0.41745004 1.164 11452604
0.37274143 -0.41816732 1.166 11452604
0.37609962 -0.41888461 1.1680001 11584190
0.38284379 -0.42031914 1.1720001 11649983
0.38622987 -0.42103639 1.174 11649983
0.38962525 -0.42175364 1.176 11649983
0.39302999 -0.42247096 1.1780001 11584190
0.39644396 -0.42318821 1.1800001 11715776
0.3998673 -0.42390546 1.182 11715776
0.40261868 -0.42390546 1.182 11913155
0.40605596 -0.42462271 1.184 11913155
0.40881199 -0.42462271 1.184 11649983
0.41156802 -0.42462271 1.184 11649983
0.4136242 -0.42390546 1.182 11913155
0.41637555 -0.42390546 1.182 11847362
0.41841778 -0.42318821 1.1800001 11913155
0.42045069 -0.42247096 1.1780001 11978948
0.42319274 -0.42247096 1.1780001 11913155
0.42521161 -0.42175364 1.176 11715776
0.42794904 -0.42175364 1.176 11715776
0.43068644 -0.42175364 1.176 11847362
0.43342385 -0.42175364 1.176 11715776
0.43616128 -0.42175364 1.176 11847362
0.43889868 -0.42175364 1.176 11649983
0.44163612 -0.42175364 1.176 11715776
0.44437349 -0.42175364 1.176 11715776
0.44711092 -0.42175364 1.176 11715776
0.44984835 -0.42175364 1.176 11847362
0.45258573 -0.42175364 1.176 11978948
0.45532316 -0.42175364 1.176 12044741
0.45806056 -0.42175364 1.176 11978948
0.46158171 -0.42247096 1.1780001 11715776
0.46432376 -0.42247096 1.1780001 11913153
0.46706584 -0.42247096 1.1780001 11978946
0.47060552 -0.42318821 1.1800001 11846590
0.47335225 -0.42318821 1.1800001 11584188
0.47690591 -0.42390546 1.182 11584188
0.48046887 -0.42462271 1.184 11978946
0.48444933 -0.42569864 1.187 11715774
0.48803321 -0.42641589 1.189 11649981
0.4916265 -0.4271332 1.1910001 11978946
0.49522907 -0.42785046 1.1930001 11649981
0.49884093 -0.42856771 1.1950001 11518395
0.50162256 -0.42856771 1.1950001 11913153
0.50440419 -0.42856771 1.1950001 11913153
0.50633699 -0.42785046 1.1930001 11649981
0.50911397 -0.42785046 1.1930001 11518395
0.51629734 -0.42462271 1.184 11255223
0.51729983 -0.42318821 1.1800001 11518395
0.52004653 -0.42318821 1.1800001 11386809
0.52190715 -0.42247096 1.1780001 11057844
0.53744555 -0.42175364 1.176 11186603
0.54018295 -0.42175364 1.176 8949641
0.54292035 -0.42175364 1.176 7106414
0.54565775 -0.42175364 1.176 6908265
0.54839522 -0.42175364 1.176 7303019
0.55019528 -0.42103639 1.174 6842468
0.56193799 -0.41960186 1.1700001 4868160
0.56466144 -0.41960186 1.1700001 3683632
0.56641495 -0.41888461 1.1680001 2763302
0.56913376 -0.41888461 1.1680001 3422006
0.57185256 -0.41888461 1.1680001 2829871
0.57457137 -0.41888461 1.1680001 2831154
0.58715814 -0.41816732 1.166 2833469
-4.7178574 -2.5279934 7.0950003 6451042
-4.7013426 -2.5279934 7.0950003 6780007
-4.5897441 -2.4766853 6.9510002 6648421
-4.5281639 -2.4521003 6.8820004 6780007
-4.3803596 -2.3804827 6.6810002 6713960
-4.2413311 -2.3131406 6.4920001 6648169
-4.0725865 -2.2290525 6.2560005 6845548
-3.4621747 -1.9155029 5.3760004 7108718
-3.2956579 -1.8299893 5.1360002 6846059
-2.2955141 -1.5923331 4.4690003 6252893
-2.2702827 -1.582 4.4400001 6318686
-2.2599475 -1.582 4.4400001 6384479
-2.2496123 -1.582 4.4400001 6318686
-2.2392774 -1.582 4.4400001 6252893
-2.2289422 -1.582 4.4400001 6318686
-2.233098 -1.5923331 4.4690003 6121307
-2.2226954 -1.5923331 4.4690003 6121307
-2.2122927 -1.5923331 4.4690003 6055260
-2.2018902 -1.5923331 4.4690003 6055514
-2.1772666 -1.582 4.4400001 6055514
-2.1669314 -1.582 4.4400001 5792342
-2.1565964 -1.582 4.4400001 6121307
-2.1462612 -1.582 4.4400001 6121307
-2.135926 -1.582 4.4400001 6055514
-2.1255908 -1.582 4.4400001 6055514
-2.10144 -1.5716672 4.4110003 6055514
-2.0911725 -1.5716672 4.4110003 5923928
-2.0809047 -1.5716672 4.4110003 5923928
-2.0842502 -1.582 4.4400001 5792342
-2.0603695 -1.5716672 4.4110003 5923926
-2.06358 -1.582 4.4400001 5923926
-2.0532448 -1.582 4.4400001 5858133
-2.0429099 -1.582 4.4400001 5858133
-2.0325747 -1.582 4.4400001 5858133
-2.0222397 -1.582 4.4400001 5923926
-2.0119045 -1.582 4.4400001 5660756
-2.0015693 -1.582 4.4400001 5858135
-1.9782284 -1.5716672 4.4110003 5858135
-1.9679608 -1.5716672 4.4110003 5792340
-1.9576933 -1.5716672 4.4110003 5660752
-0.90201712 -1.5228533 4.2740002 1645846
-0.89206845 -1.5228533 4.2740002 1645846
-0.88211966 -1.5228533 4.2740002 1777432
-0.87217098 -1.5228533 4.2740002 1777432
-0.85697711 -1.5135893 4.2480001 1843225
-0.84708887 -1.5135893 4.2480001 1843225
-0.84232479 -1.5228533 4.2740002 1053711
-0.83237606 -1.5228533 4.2740002 5264463
-0.82762283 -1.5324734 4.3010001 5069137
-0.81761122 -1.5324734 4.3010001 1976613
-0.80759966 -1.5324734 4.3010001 2173224
-0.79758805 -1.5324734 4.3010001 2106918
-0.7875765 -1.5324734 4.3010001 1646365
-0.77756494 -1.5324734 4.3010001 1712158
-0.76755333 -1.5324734 4.3010001 1646365
-0.15782468 -0.43398112 1.2180001 792339
-0.15473501 -0.43326852 1.2160001 1055511
-0.15190448 -0.43326852 1.2160001 858132
-0.14882877 -0.43255591 1.2140001 989718
-0.1460029 -0.43255591 1.2140001 858132
-0.14294116 -0.43184325 1.212 989718
-0.14011995 -0.43184325 1.212 792339
-0.13752532 -0.43255591 1.2140001 858132
-0.13469945 -0.43255591 1.2140001 660753
-0.13187358 -0.43255591 1.2140001 1187097
-0.12904771 -0.43255591 1.2140001 792339
-0.12642978 -0.43326852 1.2160001 988948
-0.12400583 -0.43469372 1.22 988948
-0.12136464 -0.43540633 1.222 726546
-0.11881112 -0.43647525 1.225 1187097
-0.11614897 -0.43718788 1.2270001 858132
-0.11347751 -0.43790048 1.2290001 792339
-0.11043672 -0.43718788 1.2270001 858132
-0.10714219 -0.43540633 1.222 660753
-0.10361491 -0.43255591 1.2140001 726546
-0.10004184 -0.42934912 1.205 726546
-0.092786305 -0.42186669 1.184 726546
-0.080519155 -0.41545317 1.166 594962
-0.073187567 -0.43647525 1.225 1055511
-0.071714111 -0.44502661 1.2490001 594960
-0.069082223 -0.44680813 1.2540001 726546
-0.066163242 -0.44680813 1.2540001 660753
-0.063345134 -0.44752073 1.256 594960
-0.060517713 -0.44823334 1.258 792339
-0.05758943 -0.44823334 1.258 594960
-0.051815104 -0.448946 1.2600001 529167
-0.04907614 -0.45072752 1.2650001 858132
-0.046204496 -0.45144013 1.2670001 660753
-0.043255258 -0.45144013 1.2670001 529167
-0.040242396 -0.45072752 1.2650001 660753
-0.037297815 -0.45072752 1.2650001 594960
-0.034353234 -0.45072752 1.2650001 594960
-0.031408656 -0.45072752 1.2650001 529167
-0.028419068 -0.45001489 1.263 726546
-0.025519492 -0.45072752 1.2650001 529167
-0.022574911 -0.45072752 1.2650001 397581
-0.01963033 -0.45072752 1.2650001 397581
-0.016685748 -0.45072752 1.2650001 659983
-0.013762893 -0.45144013 1.2670001 528397
-0.010839261 -0.45250905 1.2700001 791569
-0.0078830421 -0.45250905 1.2700001 462604
-0.0049268226 -0.45250905 1.2700001 462604
-0.0019768092 -0.45393425 1.274 659983
0.00098872127 -0.45393425 1.274 659983
0.0039635636 -0.4550032 1.2770001 659983
0.0069360766 -0.4550032 1.2770001 725776
0.0098853121 -0.45393425 1.274 659983
0.01283067 -0.45322165 1.2720001 659983
0.015791545 -0.45322165 1.2720001 659983
0.018722935 -0.45250905 1.2700001 528397
0.021679154 -0.45250905 1.2700001 659983
0.02457718 -0.45144013 1.2670001 528397
0.027526416 -0.45144013 1.2670001 659983
0.030427547 -0.45072752 1.2650001 659983
0.033372127 -0.45072752 1.2650001 528397
0.036316708 -0.45072752 1.2650001 659983
0.039261289 -0.45072752 1.2650001 725776
0.04220587 -0.45072752 1.2650001 725776
0.045079067 -0.45001489 1.263 726029
0.048018988 -0.45001489 1.263 660236
0.050958913 -0.45001489 1.263 857615
0.053898841 -0.45001489 1.263 726029
0.056838766 -0.45001489 1.263 791822
0.05977869 -0.45001489 1.263 726029
0.062718615 -0.45001489 1.263 857615
0.065502591 -0.448946 1.2600001 856849
0.065279081 -0.36557028 1.026 5136737
0.067733295 -0.36592662 1.0270001 4347991
0.070260435 -0.36663923 1.029 5860714
0.07265567 -0.36663923 1.029 7308160
0.075123839 -0.36699554 1.0300001 7571332
0.07767193 -0.36770815 1.0320001 7637125
0.080151737 -0.36806443 1.033 7834504
0.08271613 -0.36877707 1.0350001 8097676
0.085125335 -0.36877707 1.0350001 8229260
0.087534539 -0.36877707 1.0350001 8229260
0.090030633 -0.36913335 1.036 8098957
0.09244217 -0.36913335 1.036 7901578
0.094853692 -0.36913335 1.036 8362129
0.097265221 -0.36913335 1.036 8427409
0.099869184 -0.36984599 1.0380001 8361616
0.10470156 -0.36984599 1.0380001 8427409
0.10732414 -0.37055859 1.0400001 8558995
0.11006156 -0.37162751 1.0430001 8690581
0.11313649 -0.37376532 1.049 9940648
0.11590881 -0.37483427 1.052 8032653
0.11892012 -0.37661579 1.057 8493204
0.12498696 -0.3726964 1.046 8822165
0.12911171 -0.37055859 1.0400001 8887958
0.13064721 -0.36806443 1.033 8887958
0.13215017 -0.36557028 1.026 9019544
0.13348939 -0.36271983 1.018 8953751
0.13505828 -0.36058202 1.0120001 9019544
0.1368708 -0.35915676 1.008 9216923
0.13894093 -0.35844415 1.006 9348509
0.14114219 -0.35808784 1.005 9085337
0.14319602 -0.35737523 1.003 9151130
0.14538565 -0.35701895 1.0020001 9085337
0.14771804 -0.35701895 1.0020001 9216923
0.20895603 -0.41901621 1.176 10663601
0.21133341 -0.41830361 1.174 10663601
0.2137015 -0.41759101 1.1720001 10729394
0.21569094 -0.4161658 1.1680001 10729392
0.21766175 -0.41474056 1.164 10729392
0.21980326 -0.41367164 1.161 10860978
0.22135587 -0.41153383 1.1550001 10926771
0.22288053 -0.40939596 1.149 10926771
0.28430939 -0.42115408 1.182 6849406
0.29528618 -0.42507347 1.1930001 11189943
0.29856285 -0.42578608 1.1950001 11387322
0.3018488 -0.42649868 1.197 11321529
0.30463511 -0.42649868 1.197 11452602
0.30742142 -0.42649868 1.197 11452602
0.31020772 -0.42649868 1.197 11321529
0.31247103 -0.42578608 1.1950001 11453115
0.31472507 -0.42507347 1.1930001 11321529
0.31696981 -0.42436087 1.1910001 11518908
0.31920519 -0.42364821 1.189 11518908
0.32143125 -0.42293561 1.187 11387322
0.32337493 -0.42186669 1.184 11453117
0.32777587 -0.42044148 1.1800001 11649983
0.3305226 -0.42044148 1.1800001 11452604
0.33326936 -0.42044148 1.1800001 11649981
0.33601609 -0.42044148 1.1800001 11715774
0.33876279 -0.42044148 1.1800001 11649981
0.3409307 -0.41972888 1.1780001 11518395
0.34308925 -0.41901621 1.176 11518395
0.34582666 -0.41901621 1.176 11452602
0.34856406 -0.41901621 1.176 11452602
0.35070404 -0.41830361 1.174 11584188
0.3528347 -0.41759101 1.1720001 11584190
0.35495603 -0.4168784 1.1700001 11584190
0.35706809 -0.4161658 1.1680001 11584190
0.35978687 -0.4161658 1.1680001 11584190
0.36188489 -0.41545317 1.166 11584190
0.36397365 -0.41474056 1.164 11386811
0.36668316 -0.41474056 1.164 11386811
0.36939263 -0.41474056 1.164 11452604
0.37609962 -0.4161658 1.1680001 11649983
0.38284379 -0.41759101 1.1720001 11584190
0.38622987 -0.41830361 1.174 11584190
0.38962525 -0.41901621 1.176 11649983
0.39302999 -0.41972888 1.1780001 11715776
0.39644396 -0.42044148 1.1800001 11715776
0.3998673 -0.42115408 1.182 11649983
0.40329993 -0.42186669 1.184 11715774
0.40605596 -0.42186669 1.184 11913153
0.40881199 -0.42186669 1.184 11780797
0.41156802 -0.42186669 1.184 11715774
0.4136242 -0.42115408 1.182 11847360
