# .PCD v0.7 - Point Cloud Data file format
VERSION 0.7
FIELDS x y z
SIZE 4 4 4
TYPE F F F
COUNT 1 1 1
WIDTH 1358
HEIGHT 1
VIEWPOINT 0 0 0 1 0 0 0
POINTS 1358
DATA ascii
0.032929789 -0.1617071 0.3983334
0.034665197 -0.16167326 0.39825001
0.036854595 -0.15954718 0.39837503
0.038706206 -0.15868859 0.39950001
0.039335039 -0.15684034 0.3985
0.040427476 -0.15728085 0.39925003
0.024228785 -0.15567885 0.39850003
0.039916046 -0.15567885 0.39850003
0.04106383 -0.15480798 0.39906251
0.041685209 -0.15316233 0.39875001
0.042530593 -0.15219547 0.39850003
0.043402106 -0.15132461 0.39850003
0.045286745 -0.14743142 0.39975002
0.046917576 -0.14270563 0.39875001
0.0050522937 -0.1416564 0.39825001
0.0015684225 -0.1381752 0.39825001
-0.0004646366 -0.13692492 0.39883336
0.0011331575 -0.13691273 0.39837503
0.0024378588 -0.13678385 0.39800003
-0.0031468291 -0.13502641 0.39974999
-0.001047031 -0.13497567 0.39908335
0.0011335132 -0.13521385 0.39850003
0.0028743546 -0.13510789 0.39818752
0.004178701 -0.13460946 0.39800003
-0.0030896757 -0.13321845 0.39991668
-0.0010478323 -0.13292021 0.39945832
0.0011350722 -0.13320343 0.39900005
0.0028793402 -0.13316153 0.398875
0.0050573978 -0.13309178 0.39866668
0.0071471008 -0.13286217 0.39850003
0.0089729885 -0.13253872 0.39831251
0.010710085 -0.13204166 0.39812502
0.01201249 -0.13200021 0.39800003
-0.0010490342 -0.13176192 0.39991668
0.0011372057 -0.13170703 0.39975002
0.0028857023 -0.13170703 0.39975002
0.0052898847 -0.13148849 0.39974999
0.0072545381 -0.13122892 0.39962503
0.0089100767 -0.13089284 0.3994
0.010730261 -0.13098264 0.39887506
0.012897473 -0.13084586 0.39845836
0.015063557 -0.13030162 0.39812502
0.009442565 -0.12995988 0.39975002
0.010752186 -0.12950262 0.3996875
0.012931223 -0.12900496 0.39950001
0.015095088 -0.12883012 0.39895836
0.016815498 -0.12907732 0.398375
0.018979652 -0.1285481 0.39808336
0.056616541 -0.12813254 0.39950001
0.013822444 -0.12741879 0.40000001
0.015129771 -0.12737897 0.39987502
0.016857708 -0.12721896 0.39937499
0.019022031 -0.12709077 0.39897224
0.021187251 -0.12699342 0.39866665
0.022919072 -0.12692706 0.39845836
0.025092244 -0.12646563 0.39837503
0.057454266 -0.12717988 0.39925003
0.019067058 -0.12564436 0.39991668
0.021248169 -0.12517457 0.39981252
0.02298256 -0.12509629 0.39956254
0.024966283 -0.12505439 0.39915001
0.027101642 -0.12511905 0.39864293
0.028920401 -0.12496193 0.39830002
0.030736055 -0.12421142 0.39812502
0.023445189 -0.12392229 0.40000001
0.024749646 -0.1234465 0.39987502
0.026919864 -0.12293664 0.39963892
0.028978333 -0.12294537 0.39910004
0.030765006 -0.12302202 0.39850003
0.032916285 -0.12291908 0.39816669
0.035078648 -0.12243293 0.39800003
0.036819492 -0.12243293 0.39800003
0.027819162 -0.12129992 0.40000001
0.029322471 -0.12118579 0.399625
0.03083265 -0.12110985 0.39937505
0.032989673 -0.12101296 0.39905557
0.035144661 -0.1209203 0.39875004
0.036869552 -0.12085722 0.39854166
0.038778108 -0.12079043 0.39832145
0.041171595 -0.12069342 0.39800003
0.042477228 -0.12069342 0.39800003
0.033060864 -0.11952677 0.39991668
0.035378594 -0.11918559 0.39974999
0.036958259 -0.11896545 0.39950001
0.039101321 -0.11913183 0.39908338
0.041095205 -0.1191488 0.39907143
0.042997748 -0.11918971 0.39879167
0.044899859 -0.11923752 0.39853573
0.046907589 -0.11871729 0.39866671
0.049051419 -0.11863043 0.398375
0.050762028 -0.11812125 0.39812502
0.061297596 -0.11872397 0.39868751
0.038754102 -0.11780343 0.40000001
0.040941089 -0.11780343 0.40000001
0.043128077 -0.11780343 0.40000001
0.044849619 -0.11772981 0.39975002
0.047198106 -0.11735082 0.39965001
0.049090181 -0.11692798 0.39940003
0.05083368 -0.11698106 0.39868754
0.052729331 -0.11661692 0.39818752
0.054663125 -0.11634467 0.39800003
0.059261046 -0.11661705 0.39818752
0.06135498 -0.11709122 0.39906251
0.062810965 -0.11736637 0.40000001
0.049673513 -0.11558186 0.39987502
0.050942656 -0.11504854 0.39954171
0.053055003 -0.11489251 0.39900002
0.05520216 -0.11482038 0.39875004
0.056946278 -0.1148204 0.39875004
0.058898382 -0.11498619 0.39889285
0.060996268 -0.11505757 0.39957145
0.05143863 -0.11343282 0.40000001
0.052734204 -0.11339737 0.39987502
0.054903477 -0.11336192 0.39975002
0.057089094 -0.11336192 0.39975002
0.058837593 -0.11336192 0.39975002
0.060186576 -0.11343282 0.40000001
0.037062742 -0.16132379 0.40062502
0.038412496 -0.16016074 0.40100002
0.027888712 -0.15928443 0.40100002
0.042770725 -0.15393054 0.40075001
0.044468045 -0.15023983 0.40025002
0.046391942 -0.14641313 0.40175003
-0.0063214572 -0.1340384 0.40150002
-0.004553936 -0.13457979 0.40050003
-0.0063234251 -0.13276349 0.40162504
-0.0049978211 -0.13298108 0.40095833
-0.0036757516 -0.13274643 0.40025002
0.05416438 -0.13291226 0.40075001
-0.0048570507 -0.13108647 0.40141666
-0.0032425998 -0.13117383 0.40079167
-0.0010507827 -0.13066822 0.40058336
0.0011393394 -0.13064104 0.40050003
0.0028911163 -0.13064104 0.40050003
0.0049056602 -0.13055357 0.4005
0.0072660204 -0.13012242 0.40025002
0.055075157 -0.13124257 0.40100002
-0.0032493412 -0.12969176 0.40162504
-0.0010529683 -0.12962449 0.40141669
0.0012883842 -0.12933184 0.40141669
0.002898335 -0.12921242 0.40150002
0.0050912271 -0.12915879 0.40133336
0.0072772298 -0.12901129 0.40087503
0.0090221995 -0.12889075 0.40050003
0.010770613 -0.12841317 0.40037501
0.0059753181 -0.12797625 0.40175003
0.0074366629 -0.1276305 0.40158334
0.009041911 -0.12741794 0.40137503
0.010791956 -0.12691312 0.40116668
0.012723518 -0.1268039 0.40082142
0.015144097 -0.12662375 0.40025002
0.013578526 -0.1255305 0.40141669
0.015181932 -0.12518567 0.40124997
0.016921025 -0.12506868 0.400875
0.019102819 -0.12456635 0.40066668
0.020846831 -0.1240772 0.40050003
0.017397407 -0.12358651 0.40175003
0.018854015 -0.12324259 0.40158334
0.020997593 -0.12310494 0.40100002
0.022946034 -0.12301134 0.40045005
0.024772856 -0.1222504 0.40025002
0.021493124 -0.12151268 0.40166673
0.023167444 -0.12097695 0.40125003
0.024807602 -0.12110815 0.40081254
0.026799504 -0.12091114 0.40044999
0.028711895 -0.12050107 0.40025002
0.024842348 -0.11996263 0.401375
0.027031103 -0.11949893 0.4012917
0.029216232 -0.11902288 0.40116668
0.030948455 -0.11893625 0.400875
0.032966614 -0.11859373 0.40090004
0.034583226 -0.11829133 0.40066668
0.035285719 -0.1173234 0.40135002
0.037085321 -0.11718436 0.40087497
0.038826767 -0.11671039 0.40075004
0.041000981 -0.11666187 0.40058336
0.043208942 -0.1167104 0.40075004
0.04494765 -0.11667399 0.40062505
0.046897024 -0.11640079 0.40043753
0.063513391 -0.11656489 0.40075001
0.037605722 -0.11568498 0.40175003
0.039045777 -0.11532035 0.40150002
0.04109462 -0.11517402 0.40149999
0.043303285 -0.11521001 0.40162504
0.045045961 -0.11517403 0.40150002
0.04700648 -0.11511817 0.40100002
0.048874851 -0.1146685 0.4005
0.061974883 -0.11437839 0.40025002
0.063396938 -0.11501287 0.40093753
0.064843006 -0.11524601 0.40175003
0.046967883 -0.11361281 0.40166667
0.048952743 -0.1128787 0.4011389
0.050919 -0.11299095 0.40050003
0.052783791 -0.11262904 0.40025002
0.054972146 -0.11262903 0.40025005
0.057160497 -0.11262904 0.40025002
0.058911186 -0.11262904 0.40025002
0.060820479 -0.11294404 0.40033337
0.063088134 -0.11308019 0.40096432
0.064829558 -0.11302787 0.40166673
0.04945159 -0.11126062 0.40162504
0.051254798 -0.11134551 0.40130004
0.052904591 -0.111133 0.40116668
0.054956809 -0.11117901 0.40093753
0.057099853 -0.11100124 0.40114284
0.059033837 -0.11111001 0.40108335
0.060788166 -0.11111001 0.40108332
0.062892854 -0.11103805 0.40121874
0.065262139 -0.11082178 0.40162504
0.055178165 -0.10953935 0.40175003
0.056496099 -0.10953935 0.40175003
0.061328519 -0.10953935 0.40175003
0.063295469 -0.10930282 0.40168756
0.065135874 -0.1092467 0.40175
0.037282318 -0.16316096 0.403
0.028873298 -0.16075984 0.40250003
0.039069254 -0.16149974 0.40325004
0.040291667 -0.15978095 0.40225002
0.021016 -0.15508288 0.40375003
0.015679093 -0.15117823 0.40275002
0.045626607 -0.14941797 0.40275002
0.0090901926 -0.14661029 0.40350002
0.0077614328 -0.14519733 0.40325001
0.047329396 -0.14483728 0.40225002
0.048785165 -0.14303847 0.40337503
-0.0081153307 -0.13246047 0.40337503
-0.007217465 -0.13305287 0.40250003
-0.0081203599 -0.13077849 0.40362501
-0.0067805038 -0.13090764 0.40266669
-0.0054501607 -0.13069135 0.40200001
-0.0067933244 -0.1289544 0.4034375
-0.0050185029 -0.1291341 0.40262499
-0.0032562835 -0.12865467 0.40250003
-0.0010551718 -0.12858804 0.40229169
0.00099802669 -0.12845491 0.40233335
0.0029045148 -0.12817535 0.40237504
0.004661595 -0.12809569 0.402125
-0.0050309673 -0.12769148 0.40362501
-0.0031165334 -0.12733145 0.40341666
-0.0012786712 -0.1273918 0.403375
0.0011476276 -0.12719099 0.40343753
0.0029108312 -0.12713182 0.40325004
0.0051090172 -0.12697431 0.40275002
0.007155709 -0.12667027 0.40225002
0.0090561276 -0.12629889 0.40200001
0.0051185316 -0.12588836 0.40350005
0.0071747378 -0.1251014 0.40333334
0.0090757031 -0.12481225 0.40287504
0.010824417 -0.12509745 0.40237504
0.012796504 -0.12480025 0.402125
0.0095370496 -0.12331942 0.40375003
0.010937683 -0.12335779 0.40329999
0.013046373 -0.12310677 0.40305558
0.015237066 -0.12300062 0.40270832
0.016901726 -0.12276117 0.40250006
0.018298775 -0.12242147 0.40225002
0.013510532 -0.1215548 0.40375003
0.015417383 -0.12121052 0.40358338
0.017029257 -0.12101968 0.40343753
0.018854445 -0.12110726 0.40285
0.02064676 -0.12082236 0.40229169
0.022683246 -0.12014943 0.40200001
0.017484015 -0.11979016 0.40375003
0.018947912 -0.11944661 0.40358338
0.020982226 -0.11896967 0.40310717
0.023155117 -0.11899763 0.40256253
0.024896644 -0.11890533 0.40224999
0.027090138 -0.11844154 0.40216669
0.021885436 -0.11795244 0.40350002
0.02320911 -0.11795244 0.40350002
0.025110768 -0.11760962 0.40333334
0.02671813 -0.11742021 0.40318751
0.028905993 -0.11735339 0.40295839
0.031098008 -0.11731085 0.40281254
0.032864932 -0.11688825 0.40287504
0.034462254 -0.11653515 0.40266669
0.064923704 -0.116708 0.40225002
0.066007912 -0.11618889 0.40350002
0.035263088 -0.11554476 0.40310001
0.036957245 -0.11477498 0.40266669
0.038825475 -0.11436371 0.40225002
0.040731527 -0.11407088 0.40225002
0.042930812 -0.11407087 0.40225002
0.044690244 -0.11407088 0.40225002
0.065803431 -0.1145104 0.40225002
0.066724591 -0.11414178 0.40250003
0.03706792 -0.11320484 0.40355006
0.039056733 -0.11299731 0.40312502
0.040807471 -0.11296227 0.403
0.04300632 -0.11295063 0.40295836
0.045234747 -0.11305781 0.40240002
0.046723485 -0.11255909 0.40208331
0.065762527 -0.11268224 0.40200001
0.067143992 -0.11278735 0.40237504
0.039117426 -0.1118493 0.40375003
0.040883418 -0.1118493 0.40375003
0.043081831 -0.11182622 0.4036667
0.045347262 -0.11104671 0.40340003
0.046865296 -0.11088125 0.40279999
0.048861131 -0.11075716 0.4021875
0.050816651 -0.11048601 0.40200001
0.067102276 -0.11095975 0.402125
0.068485111 -0.11106323 0.40250003
0.04747647 -0.10957533 0.40350002
0.049003642 -0.10952757 0.40300003
0.05106869 -0.10892233 0.40312499
0.053096861 -0.10889734 0.40262499
0.054595493 -0.10881313 0.40231252
0.057217203 -0.10899935 0.40218753
0.059217826 -0.10881863 0.40233335
0.060899805 -0.10866085 0.40240002
0.062685438 -0.10872901 0.40200001
0.065762527 -0.10872901 0.40200001
0.067112774 -0.10921912 0.4021875
0.069003858 -0.10898804 0.40295836
0.070463791 -0.10832004 0.40375003
0.053228743 -0.10740444 0.40362501
0.055024337 -0.10711446 0.40320006
0.056975815 -0.10729778 0.40281254
0.059088171 -0.1067757 0.40325004
0.061135489 -0.10689703 0.403375
0.062828287 -0.10721532 0.40291667
0.06496387 -0.10710453 0.40250003
0.067185715 -0.10713798 0.40262499
0.069075346 -0.10689704 0.40337503
0.056777351 -0.10567307 0.40375003
0.058984835 -0.10567307 0.40375003
0.063399822 -0.10567307 0.40375003
0.065115236 -0.1053707 0.4034375
0.067041874 -0.10503931 0.40335003
0.068676531 -0.1051992 0.40362501
0.021966796 -0.15644807 0.40500003
0.017570622 -0.15407769 0.40575001
0.019321524 -0.15477343 0.40525001
0.04402836 -0.15439151 0.40425003
0.016652415 -0.15290786 0.40500003
0.045051321 -0.15309663 0.40550002
0.013117587 -0.15034546 0.40525001
0.010881993 -0.14874154 0.40450001
0.01221622 -0.14927545 0.40475002
0.046796098 -0.14857426 0.40525001
0.006016219 -0.14476345 0.40450001
0.050216984 -0.14202377 0.40425003
0.051069472 -0.14105307 0.40400001
0.052113764 -0.1406039 0.40525001
0.053032737 -0.13891836 0.40550002
0.053919557 -0.13714607 0.40550002
0.054637432 -0.13495648 0.40425003
-0.009321562 -0.13273764 0.40466669
-0.010818553 -0.13094307 0.40550002
-0.0094637983 -0.13104182 0.40443751
-0.010818553 -0.12872772 0.40550002
-0.0091380468 -0.12902212 0.40468752
-0.010825222 -0.12747705 0.40575001
-0.0087442687 -0.12717181 0.40525004
-0.0068132505 -0.12712286 0.40462503
-0.0050403154 -0.12660295 0.40437502
-0.0034177897 -0.12641667 0.40425003
-0.00088363944 -0.12649111 0.40430003
0.0011507185 -0.12620036 0.40450001
0.0029171477 -0.12608337 0.40412503
-0.0068300888 -0.12566495 0.40562502
-0.0050527798 -0.12514427 0.405375
-0.0032785316 -0.12510569 0.40525004
-0.0010628396 -0.12510569 0.40525004
0.0011528522 -0.12510569 0.40525004
0.0029230812 -0.12500915 0.40493751
0.0046876785 -0.12483557 0.40437502
0.0064524133 -0.12431709 0.40412503
0.0029279757 -0.12389211 0.40562502
0.0046992712 -0.12337255 0.40537503
0.0067976578 -0.12291656 0.4049688
0.0089576803 -0.12285775 0.4041667
0.010426497 -0.12251291 0.40400001
0.061824642 -0.12281617 0.40500003
0.0075073452 -0.12146562 0.4054167
0.0091263903 -0.1210827 0.40512502
0.010884945 -0.12093327 0.40462503
0.012961154 -0.12059047 0.40432146
0.014844212 -0.12074719 0.40400001
0.010911847 -0.11946005 0.40562502
0.012939895 -0.11899503 0.40525001
0.015123054 -0.11906485 0.40471432
0.016979434 -0.11890743 0.40434998
0.018676689 -0.11841726 0.40408337
0.02014547 -0.1180986 0.40400001
0.015490542 -0.11735538 0.40550002
0.01710042 -0.1170992 0.40512502
0.018852113 -0.11697281 0.40468752
0.021055037 -0.11691856 0.40450004
0.023255777 -0.11686429 0.40431252
0.02487308 -0.11669914 0.40425003
0.026788609 -0.11640486 0.40425003
0.028980901 -0.11633287 0.40400001
0.031189755 -0.11633287 0.40400001
0.017570622 -0.1159501 0.40575001
0.018884072 -0.11584294 0.405375
0.020927014 -0.1155097 0.40545002
0.02346725 -0.11555928 0.40541664
0.025090061 -0.11539959 0.405375
0.026846591 -0.11532843 0.40512502
0.029061601 -0.11532843 0.40512502
0.031371083 -0.11508391 0.4052
0.033031438 -0.11482637 0.40491667
0.034745142 -0.11463805 0.40425003
0.033532951 -0.11281179 0.40562502
0.034802444 -0.11305682 0.40491667
0.036082707 -0.11246414 0.40437502
0.034858022 -0.11102192 0.40556252
0.037105806 -0.11111353 0.40468752
0.039190084 -0.11073086 0.40450001
0.040959358 -0.11073085 0.40450004
0.042721964 -0.11071382 0.40443751
0.044323053 -0.11051527 0.40425003
0.035318024 -0.10974327 0.40575001
0.037251849 -0.10933451 0.40555
0.039286971 -0.10923232 0.40549999
0.041060619 -0.10923232 0.40549999
0.042827595 -0.10921542 0.40543753
0.044990689 -0.10908636 0.4049584
0.046994749 -0.10879317 0.40441668
0.048875596 -0.10842064 0.40412503
0.045508623 -0.10793664 0.40562502
0.04739676 -0.10756347 0.40533337
0.048996676 -0.10736052 0.40512502
0.050928801 -0.10698234 0.40489289
0.052743983 -0.10643878 0.40465003
0.070860662 -0.10700363 0.40433335
0.072542854 -0.10613109 0.40550002
0.05366461 -0.10517938 0.40525001
0.05513607 -0.10502785 0.40466666
0.0568651 -0.10451085 0.40437502
0.05906406 -0.10448936 0.40429166
0.061268102 -0.10492017 0.40425003
0.062955737 -0.1047565 0.40430003
0.064643852 -0.10430995 0.4041667
0.069445938 -0.1046994 0.40425003
0.071081184 -0.10504993 0.40475008
0.072565213 -0.10483405 0.40562502
0.055727541 -0.10353646 0.40575001
0.057005726 -0.10299756 0.405375
0.058751706 -0.10294999 0.40518749
0.060957726 -0.10293417 0.40512502
0.063172728 -0.10293417 0.40512502
0.064904518 -0.10287052 0.40487504
0.067046866 -0.10320272 0.40444449
0.069321305 -0.10285471 0.40481251
0.071190938 -0.10299769 0.405375
0.059277024 -0.10176308 0.40575001
0.06105176 -0.10176308 0.40575001
0.063270189 -0.10176308 0.40575001
0.065166101 -0.10142573 0.40558335
0.066778496 -0.10125704 0.40549999
0.06900274 -0.10126749 0.40554169
0.070812836 -0.10176308 0.40575001
0.038963299 -0.16423506 0.40675002
0.039828364 -0.16324578 0.40650001
0.046023116 -0.15160424 0.40625003
-0.01176311 -0.13247943 0.40750003
-0.012927718 -0.13075413 0.40674999
-0.01171981 -0.13066092 0.40600002
-0.014882574 -0.1289171 0.40750003
-0.013068033 -0.12904519 0.40650004
-0.01171981 -0.12888645 0.40600002
-0.014659639 -0.1271362 0.40750003
-0.013078656 -0.12692799 0.40683338
-0.011505047 -0.12674594 0.40625
-0.0099439761 -0.12666835 0.40600002
-0.014445559 -0.12543222 0.40775001
-0.013101984 -0.12492901 0.40756252
-0.0112175 -0.12505373 0.40710005
-0.0090737119 -0.12513237 0.40677777
-0.0068438384 -0.12458403 0.40643752
-0.0050621275 -0.12404484 0.40612501
-0.0032845989 -0.12400665 0.40600002
-0.0010648066 -0.12400665 0.40600002
0.0011549857 -0.12400665 0.40600002
-0.0086492207 -0.1236501 0.40775001
-0.0067116786 -0.123252 0.40741667
-0.0050714756 -0.12293991 0.40687504
-0.003289792 -0.12286438 0.40662503
-0.0010662634 -0.12286443 0.40662503
0.0011567638 -0.12286451 0.40662503
0.00293339 -0.12278884 0.40637502
0.004707966 -0.12226982 0.40612501
-0.0046363729 -0.12186798 0.40775001
-0.0031482012 -0.12149625 0.40750003
-0.0010687406 -0.12134773 0.40750003
0.0011590067 -0.1213292 0.40743753
0.0029403532 -0.12085266 0.40733334
0.0046278583 -0.12090208 0.40690002
0.0067073922 -0.12073515 0.4061875
0.0051664696 -0.11993862 0.40725002
0.0070753819 -0.1193129 0.40728575
0.0091629522 -0.11890158 0.40674999
0.010935387 -0.11838483 0.40649998
0.010962151 -0.1173407 0.40750003
0.012727742 -0.11718381 0.40695834
0.014641173 -0.11676809 0.40654168
0.016693532 -0.11602155 0.40600002
0.067346245 -0.11609299 0.40625003
0.015195339 -0.11533692 0.4075
0.017169012 -0.11490215 0.40675002
0.018927814 -0.11477862 0.40631253
0.020714637 -0.11438777 0.40650001
0.022748295 -0.11468638 0.40630001
0.025151817 -0.1143526 0.40637502
0.026912723 -0.11428224 0.40612501
0.02868041 -0.11424707 0.40600002
0.030456245 -0.11424707 0.40600002
0.017646406 -0.11377865 0.40750003
0.018971555 -0.11370885 0.40725002
0.020909974 -0.11345837 0.40741667
0.022993589 -0.11333313 0.40750003
0.025209909 -0.11328091 0.40731251
0.027073219 -0.11298238 0.40720001
0.028733391 -0.11312453 0.40675002
0.030938074 -0.11305511 0.40650001
0.032686099 -0.11295085 0.40612501
0.028934905 -0.1117006 0.40750003
0.030990623 -0.11102349 0.40719447
0.033059485 -0.1109708 0.40635005
0.070054717 -0.11172279 0.40650001
0.03161484 -0.10905143 0.40758336
0.033282205 -0.1089869 0.40690002
0.034845661 -0.1088663 0.40645003
0.036553785 -0.10842088 0.40633333
0.038915403 -0.10810295 0.40625003
0.041136563 -0.10810296 0.40625003
0.042913493 -0.10810296 0.40625003
0.044218957 -0.10803643 0.40600002
0.033252422 -0.10757805 0.40762502
0.035166215 -0.10722605 0.4074167
0.036795858 -0.10706654 0.40737504
0.039007112 -0.10702283 0.40720835
0.041218769 -0.10698449 0.40706253
0.042992715 -0.10696813 0.40700004
0.044752225 -0.10691877 0.40681252
0.046751093 -0.10672165 0.40640002
0.049117483 -0.10629468 0.40612501
0.043071941 -0.10582893 0.40775001
0.044841539 -0.10579649 0.40762502
0.047046121 -0.10529698 0.40741667
0.049152412 -0.10496078 0.40714997
0.050956517 -0.10509236 0.406625
0.052527618 -0.10482613 0.40616667
0.073520213 -0.10493112 0.40600002
0.074499771 -0.10461617 0.40650001
0.04974477 -0.10356937 0.40762502
0.051155426 -0.10327027 0.40750003
0.05280529 -0.10300753 0.40716669
0.054696877 -0.10285696 0.40657145
0.073228315 -0.1029788 0.40635005
0.074938498 -0.10277514 0.40695006
0.053326998 -0.10137363 0.40775001
0.055169594 -0.10099458 0.40725002
0.057175692 -0.10108293 0.40658334
0.05886779 -0.10090939 0.4066
0.060738776 -0.10064922 0.40662503
0.062948994 -0.1006287 0.40654168
0.064976998 -0.10040867 0.40625
0.066902012 -0.10011292 0.40625003
0.068657942 -0.10008211 0.40612501
0.071196251 -0.10070451 0.40625
0.073113561 -0.10093448 0.40669999
0.075128779 -0.10086608 0.40750003
0.076512344 -0.10137363 0.40775001
0.055539191 -0.099560983 0.40762502
0.057313409 -0.099100187 0.40756252
0.058950543 -0.099253796 0.40758336
0.060869481 -0.099530458 0.40750003
0.063084386 -0.099510103 0.4074167
0.065295339 -0.099039257 0.40731251
0.067015164 -0.098948076 0.40693751
0.068763465 -0.098902553 0.40675002
0.07103835 -0.09897352 0.40704167
0.073346376 -0.099085063 0.40750003
0.074728861 -0.099591509 0.40775001
0.067149028 -0.097809397 0.40775001
0.068890259 -0.097749427 0.40750003
0.070716009 -0.097809397 0.40775001
0.072499499 -0.097809397 0.40775001
0.038190749 -0.16563137 0.40800002
0.040942747 -0.16325611 0.40875003
0.041939031 -0.16186465 0.40975001
0.023050016 -0.15869276 0.40850002
0.045440175 -0.15531184 0.40900001
0.046391301 -0.15371194 0.40950003
0.047286868 -0.15102731 0.40950003
-0.0073474683 -0.13679263 0.40975001
-0.0055382852 -0.13726802 0.40850002
0.05534701 -0.13760406 0.40950003
-0.0082134092 -0.13539971 0.40825003
-0.016705865 -0.12834103 0.40850002
-0.018625084 -0.1270287 0.40944999
-0.016710978 -0.12704071 0.40862501
-0.015346707 -0.12640074 0.40800002
-0.018316634 -0.12509477 0.40956253
-0.016724562 -0.12490996 0.40895835
-0.01505868 -0.12499127 0.40825
0.061427929 -0.12558605 0.40825003
-0.018100886 -0.12336118 0.40975001
-0.016746622 -0.12283833 0.4095
-0.014935697 -0.12312228 0.40895835
-0.013136208 -0.12302175 0.40862504
-0.011011795 -0.12289138 0.40856248
-0.0089306962 -0.12277577 0.4084
-0.0070229582 -0.12231464 0.40825
-0.014964473 -0.12157031 0.40975001
-0.0131642 -0.12149615 0.40950003
-0.010928606 -0.12108552 0.40962502
-0.0086863432 -0.12104843 0.4095
-0.0068890229 -0.12093758 0.40912503
-0.0051809317 -0.12102036 0.40850005
-0.0034516081 -0.12053033 0.40825
-0.0010706714 -0.12020859 0.40816668
0.0011606753 -0.12015951 0.40800002
-0.0064513502 -0.11977946 0.40975001
-0.0049547958 -0.1194079 0.4095
-0.0033100173 -0.11914945 0.40912503
-0.0010724198 -0.11906451 0.40883335
0.0011622072 -0.11898571 0.40856254
0.002947964 -0.11893117 0.40837502
0.0047327373 -0.11889464 0.40825003
0.0065162806 -0.11841255 0.40812504
-0.0028668779 -0.11798859 0.40975001
-0.00089500286 -0.11757284 0.40955001
0.0012542151 -0.11717169 0.40940005
0.0029548819 -0.11697357 0.40933335
0.0047452957 -0.11697357 0.40933335
0.006981357 -0.11694156 0.40922225
0.0092089912 -0.1168184 0.40879169
0.010979101 -0.11662881 0.40812504
0.0096787764 -0.11530231 0.40975001
0.011099005 -0.11533993 0.40925002
0.012787686 -0.11505536 0.40887502
0.014564887 -0.11452139 0.40856251
0.069591075 -0.11419746 0.40900001
0.013263248 -0.11351146 0.40975001
0.015331847 -0.11320016 0.40916669
0.017157897 -0.11301357 0.4086
0.019023962 -0.11268393 0.40837502
0.020659348 -0.11252388 0.40833339
0.023050016 -0.11227247 0.40850005
0.025268003 -0.11220377 0.40825003
0.026590966 -0.11213505 0.40800002
0.017290367 -0.11168651 0.40962502
0.019225633 -0.11135396 0.4095
0.020867512 -0.11120471 0.4095
0.022910397 -0.11121269 0.40920001
0.025051942 -0.11100665 0.40910006
0.027078392 -0.1109671 0.40862504
0.028678775 -0.11067158 0.40808335
0.025132878 -0.10968911 0.40968752
0.027216073 -0.1091064 0.40935001
0.028788541 -0.10895972 0.40880004
0.03046372 -0.10888801 0.40808335
0.072407044 -0.1090343 0.40975001
0.029138098 -0.10712866 0.40931252
0.030992525 -0.10707647 0.4086875
0.033059619 -0.10639331 0.40855002
0.034947667 -0.10627753 0.40833339
0.030728038 -0.10542041 0.40962502
0.032960989 -0.10495126 0.4095417
0.035191216 -0.10492445 0.40943751
0.036927495 -0.10521585 0.40883335
0.038885556 -0.10528513 0.40860718
0.041035503 -0.10503471 0.40856248
0.04315117 -0.10468427 0.40850005
0.044917237 -0.10463628 0.4083125
0.046681672 -0.1041425 0.40812504
0.04800595 -0.1041106 0.40800002
0.037458438 -0.10366172 0.40975001
0.038790643 -0.1036301 0.40962502
0.041201994 -0.10325296 0.40955001
0.043250129 -0.10313509 0.40943751
0.044999741 -0.10304063 0.4090625
0.046746079 -0.10294616 0.40868753
0.048743423 -0.10273431 0.40820003
0.05068282 -0.1023274 0.40800002
0.045061555 -0.10183979 0.40962502
0.046922866 -0.10108005 0.40945005
0.048902191 -0.10089402 0.40896878
0.051175822 -0.10108253 0.40837502
0.052775551 -0.10086191 0.40808335
0.076559253 -0.10054418 0.40800002
0.049943075 -0.099957883 0.40925002
0.051029306 -0.099445269 0.40935001
0.053048421 -0.099012472 0.40904167
0.054541677 -0.098881587 0.40850002
0.056036569 -0.09876097 0.40800002
0.059605733 -0.09876097 0.40800002
0.061009586 -0.098420247 0.40843752
0.062795945 -0.098420255 0.40843755
0.064067185 -0.09876097 0.40800002
0.075384997 -0.09907835 0.40808335
0.0771235 -0.098911889 0.40862501
0.07863187 -0.098229185 0.40950003
0.053588565 -0.097393714 0.40975001
0.055080879 -0.097259335 0.40918753
0.057037327 -0.097161852 0.40877783
0.059292596 -0.097194821 0.40891668
0.061168224 -0.096886575 0.4095
0.062959366 -0.096886583 0.4095
0.064981595 -0.097289078 0.40884376
0.067053393 -0.096631527 0.40880004
0.069059312 -0.096649982 0.40850005
0.070835173 -0.096635267 0.40843755
0.073175065 -0.096798956 0.40832147
0.075290091 -0.097066522 0.40837502
0.077265188 -0.096857138 0.40937501
0.06701652 -0.095583417 0.40966669
0.069207102 -0.095515363 0.40937501
0.0709977 -0.095067784 0.40937501
0.072732791 -0.094995283 0.4090625
0.074950494 -0.094971158 0.40895835
0.07713943 -0.095246233 0.4095
0.072832741 -0.093783379 0.40962502
0.075057313 -0.093316585 0.4095417
0.076887637 -0.093811996 0.40975001
0.040220279 -0.16574921 0.41050002
0.024959479 -0.16081586 0.41050002
0.043018091 -0.16075745 0.41150001
0.043454453 -0.15936056 0.41137502
0.045212679 -0.15741883 0.41100001
0.04656123 -0.15607131 0.41100001
0.04653291 -0.15507877 0.41075003
0.047431212 -0.15238594 0.41075003
0.048447181 -0.15095732 0.41175002
0.007016012 -0.14807789 0.41125003
0.048300102 -0.1487049 0.41050002
0.049287748 -0.14717917 0.41125003
0.050156638 -0.14619154 0.41100001
0.051473036 -0.14475673 0.41075003
0.053752042 -0.14170074 0.41100001
0.05458441 -0.13973421 0.41050002
0.061016999 -0.12838431 0.41150001
-0.020814609 -0.12620127 0.41025001
-0.019905262 -0.12657237 0.41000003
-0.023121277 -0.12474938 0.41137502
-0.021279618 -0.12495153 0.41056252
-0.019610418 -0.12465634 0.41008338
-0.023038117 -0.12316863 0.41150004
-0.021387011 -0.12298876 0.41090003
-0.019197527 -0.12295874 0.41020003
0.063639417 -0.12373751 0.41100001
-0.022691699 -0.12126391 0.41175002
-0.021222677 -0.12092197 0.41119999
-0.019044958 -0.12097716 0.41077781
-0.016782314 -0.12085841 0.41037503
-0.014978305 -0.12078534 0.41012502
-0.013180274 -0.12074853 0.41000003
-0.02118665 -0.11914019 0.41166672
-0.01907639 -0.11892995 0.41145834
-0.016820677 -0.11888774 0.41131252
-0.015005603 -0.11920989 0.41087499
-0.013201705 -0.11914945 0.4106667
-0.010954853 -0.11913332 0.41061112
-0.0087102512 -0.11913735 0.41062501
-0.0070009171 -0.11890727 0.41044998
-0.0052629411 -0.11843123 0.41025004
-0.0037652922 -0.11806059 0.41000003
-0.016388254 -0.11766471 0.41175002
-0.015033087 -0.11762899 0.41162503
-0.013230572 -0.11716123 0.4115625
-0.010976317 -0.11711974 0.41141668
-0.0087261153 -0.11710792 0.41137502
-0.0069257868 -0.11709006 0.41131249
-0.0051220432 -0.11698331 0.41093752
-0.0033215785 -0.11687656 0.41056252
-0.0013002288 -0.1165458 0.41018754
0.00071803248 -0.11626864 0.41000003
0.068990536 -0.11648133 0.41075003
-0.0069330856 -0.1158651 0.41175002
-0.0051298328 -0.11536244 0.4115625
-0.0033285117 -0.11487178 0.41141668
-0.001077647 -0.11514634 0.41079167
0.0011675411 -0.1150471 0.41043752
0.0029614992 -0.11499447 0.41025001
0.0047567156 -0.11501206 0.41031253
0.0070017949 -0.11504128 0.41041669
0.0090924455 -0.11484513 0.41025004
0.010581347 -0.11447668 0.41000003
-0.0010794136 -0.11354644 0.41150001
0.0012602545 -0.11323507 0.41135001
0.0029689735 -0.11303911 0.41129169
0.0047680438 -0.1130391 0.41129169
0.0070160124 -0.11302793 0.41125003
0.0092597706 -0.11297057 0.41104165
0.010955824 -0.11302873 0.41060001
0.012676079 -0.11300629 0.41008338
0.014168005 -0.11268473 0.41000003
0.0079250345 -0.1113661 0.41175002
0.0094238855 -0.11104363 0.41166672
0.011150336 -0.11102375 0.41114998
0.012846465 -0.11109526 0.41075
0.01507986 -0.11100499 0.41041672
0.017322026 -0.11054553 0.410375
0.018961774 -0.11036253 0.41025004
0.020457126 -0.11006388 0.41025001
0.011073257 -0.10953324 0.41162503
0.012869785 -0.10905021 0.41150001
0.01466306 -0.10900045 0.41131252
0.01690588 -0.10896184 0.4111667
0.019143267 -0.10890108 0.41093752
0.021008138 -0.10905403 0.41050005
0.022700155 -0.10916699 0.41025004
0.024763633 -0.10862932 0.41025001
0.026721314 -0.10820485 0.41000003
0.014678725 -0.1077669 0.41175002
0.016926346 -0.10774508 0.41166672
0.019169403 -0.1072517 0.41150001
0.020956555 -0.10718655 0.41125
0.022741519 -0.10712139 0.41100001
0.024973402 -0.10705618 0.41075003
0.027186077 -0.10692591 0.41025001
0.028514644 -0.10641291 0.41000003
0.02098217 -0.10596731 0.41175002
0.022769321 -0.10590296 0.41150001
0.025147591 -0.10526032 0.41150004
0.027235731 -0.10487557 0.41100001
0.028980499 -0.10513287 0.41025001
0.030756306 -0.10462095 0.41000003
0.027719021 -0.1032052 0.41150001
0.029048197 -0.1031315 0.41120836
0.030818725 -0.10303736 0.41083333
0.032953382 -0.10315199 0.41084376
0.035126515 -0.10293271 0.41092858
0.03699749 -0.1027994 0.41060004
0.038861662 -0.10247438 0.410375
0.040195785 -0.10244317 0.41025001
0.0371796 -0.10143749 0.41162503
0.038956366 -0.10092613 0.41137502
0.04100116 -0.10124159 0.41083336
0.043031894 -0.10106285 0.41056252
0.045130312 -0.10065025 0.41025001
0.046447944 -0.10014107 0.41000003
0.078163415 -0.10146829 0.41175002
0.04124324 -0.099668697 0.41175002
0.04301773 -0.099608183 0.41150001
0.045226566 -0.099067919 0.411125
0.046967626 -0.098947436 0.41062501
0.048719291 -0.098857075 0.41025004
0.050941437 -0.098369099 0.41008338
0.047082007 -0.097839385 0.41162503
0.048852753 -0.097330198 0.41137502
0.051064126 -0.097065568 0.41107148
0.052812323 -0.096718386 0.41068751
0.054517925 -0.096557163 0.41000003
0.07930959 -0.097168021 0.41068751
0.080815792 -0.096011162 0.41150001
0.053342942 -0.095517658 0.41131252
0.055105772 -0.095005058 0.41104165
0.056863416 -0.094937474 0.41075003
0.058852363 -0.095065698 0.41075
0.061064277 -0.094897702 0.41106251
0.063164271 -0.094957091 0.41083336
0.064921714 -0.094899409 0.41058335
0.06672433 -0.094460726 0.41062504
0.068743579 -0.094487056 0.41035002
0.077831209 -0.094765216 0.41000003
0.079420805 -0.095129535 0.41080004
0.081115961 -0.09451241 0.41150001
0.063755549 -0.093370095 0.41175002
0.06508638 -0.093341753 0.41162503
0.066866636 -0.093313403 0.41150001
0.069277823 -0.093452632 0.411125
0.071228944 -0.093132973 0.41070834
0.072966099 -0.092609629 0.41037506
0.074715525 -0.092105359 0.41012502
0.077257067 -0.092702769 0.41012502
0.079212122 -0.092941135 0.41065001
0.08124122 -0.092835575 0.41137502
0.082949318 -0.092751525 0.41166672
0.073121533 -0.091459297 0.41125
0.07487493 -0.090954207 0.41100001
0.076886125 -0.090977713 0.41070002
0.079061046 -0.090820551 0.41080004
0.081179433 -0.090968519 0.41106251
0.083053112 -0.091051504 0.41143751
0.08446686 -0.090670697 0.41175002
0.07678923 -0.089743644 0.41162503
0.078975625 -0.089221351 0.41129169
0.081167027 -0.089158297 0.41100001
0.083040565 -0.089239642 0.41137502
0.08446686 -0.089321002 0.41175002
0.079648055 -0.087653555 0.41166672
0.081249215 -0.087000735 0.41141668
0.083048932 -0.087000914 0.41141668
0.08446686 -0.087521397 0.41175002
0.081765383 -0.085271895 0.41175002
0.083116129 -0.085271895 0.41175002
0.035095185 -0.16880178 0.41358337
0.036852323 -0.16856369 0.41300002
0.039585948 -0.16776265 0.41325003
0.043148763 -0.16214776 0.41275001
0.044104811 -0.16053803 0.41325003
0.009304205 -0.1509646 0.41300002
0.048476595 -0.15014863 0.41200003
0.0079346579 -0.14933884 0.41225001
0.049467519 -0.14906952 0.41275001
0.050775502 -0.14713107 0.41237503
0.052207157 -0.14600042 0.41300002
0.001629466 -0.14445719 0.41375002
0.00072284846 -0.14320606 0.41275001
0.053481355 -0.14352614 0.41237503
-0.0019815816 -0.14114517 0.41200003
0.054850351 -0.14131646 0.41250002
-0.0064946483 -0.13861214 0.41250002
-0.0047045969 -0.13993634 0.41375002
0.055684905 -0.13934447 0.41200003
0.057731166 -0.13451132 0.41375002
-0.025004052 -0.12426437 0.41275001
-0.026405416 -0.12313472 0.41350001
-0.024996206 -0.12287403 0.41262501
-0.023606515 -0.12223788 0.41200003
0.064773813 -0.12238622 0.41250002
-0.026410738 -0.12089985 0.41358337
-0.025007496 -0.12112569 0.4128125
-0.023310943 -0.12076167 0.41208336
-0.0249465 -0.11919121 0.41330004
-0.023277393 -0.11897472 0.41255003
-0.021804437 -0.1186365 0.41200003
-0.02461165 -0.11733207 0.41375002
-0.022996999 -0.11717214 0.4131875
-0.020936057 -0.11701637 0.41263887
-0.018671595 -0.11696514 0.41245833
-0.016955186 -0.11676852 0.41240001
-0.015055776 -0.11645598 0.41225004
-0.013703397 -0.1160058 0.41225001
-0.020983914 -0.1154772 0.41358337
-0.018718705 -0.11545392 0.41350001
-0.016899843 -0.11538412 0.41325003
-0.015094647 -0.11494962 0.41331252
-0.013178629 -0.11506335 0.41275007
-0.01100395 -0.11515853 0.41244447
-0.0087456061 -0.11511609 0.41229168
-0.0069405204 -0.11463688 0.41218752
-0.0051369127 -0.1141694 0.41212502
0.071002573 -0.11413477 0.41200003
-0.012848392 -0.11371539 0.41375002
-0.011029948 -0.11362377 0.41341671
-0.0087686758 -0.11316037 0.41337499
-0.0069563747 -0.11309193 0.41312501
-0.0051431442 -0.11295505 0.41262501
-0.0033357365 -0.11286958 0.41231254
-0.001081162 -0.11237951 0.41216668
0.00072153506 -0.11233407 0.41200003
-0.006514329 -0.11190704 0.41375002
-0.005153914 -0.11183942 0.41350001
-0.0033444008 -0.11135367 0.41337505
-0.00097053527 -0.11095572 0.41315624
0.0011749723 -0.11081202 0.41304168
0.0028887533 -0.1109008 0.41270003
0.0047804206 -0.11108429 0.41237503
0.0068519027 -0.11094717 0.41220003
0.0088308854 -0.11053338 0.41200003
0.071947239 -0.11150133 0.41225001
0.00343712 -0.10958009 0.41350001
0.0047920132 -0.10954696 0.41337505
0.0070493543 -0.10905457 0.41322228
0.0092943637 -0.108886 0.41258335
0.011086708 -0.10876568 0.41212502
0.0079635289 -0.10738619 0.41375002
0.0094659152 -0.10701992 0.41349998
0.011104643 -0.10713691 0.4127917
0.0128985 -0.10703949 0.4124167
0.014703166 -0.10659468 0.4124375
0.016950332 -0.10654625 0.41225004
0.019192833 -0.10603164 0.41200003
0.01112706 -0.10554595 0.413625
0.012932473 -0.10506196 0.41350004
0.014732199 -0.10499845 0.41325003
0.016984597 -0.1049561 0.41308334
0.019221809 -0.10483965 0.41262501
0.021013882 -0.10477612 0.41237503
0.022807295 -0.10472855 0.41218752
0.024606392 -0.10426257 0.41212502
0.017464623 -0.10376951 0.41375002
0.019256748 -0.10367545 0.41337502
0.021071348 -0.10325472 0.41350004
0.022869544 -0.10320784 0.41331249
0.025094822 -0.10306744 0.41275001
0.02716287 -0.1027718 0.41216671
0.024695951 -0.10193035 0.413625
0.027061926 -0.10119242 0.41325003
0.029154161 -0.10080165 0.41270837
0.030925091 -0.1011408 0.41225004
0.032758079 -0.1007813 0.41262498
0.034868192 -0.10099109 0.41242856
0.037224762 -0.10066009 0.41212502
0.031009484 -0.099609964 0.41337502
0.032847345 -0.099248655 0.41375002
0.035256106 -0.09951371 0.41335002
0.037129272 -0.098990358 0.4132143
0.039094508 -0.099027939 0.41283336
0.040792007 -0.098803736 0.41265002
0.042931426 -0.098563924 0.41240001
0.044024765 -0.098047368 0.41250002
0.040991142 -0.09744031 0.41375002
0.04292573 -0.097080044 0.41350004
0.045069881 -0.097098663 0.41278124
0.047167793 -0.096665628 0.41237503
0.048956804 -0.096186154 0.41225001
0.050278675 -0.09612783 0.41200003
0.045501582 -0.095603079 0.413625
0.047447328 -0.095272802 0.41349998
0.049060576 -0.095035836 0.41312501
0.050806008 -0.094920807 0.41262501
0.052780367 -0.094595149 0.41218755
0.081815034 -0.095227487 0.41200003
0.082716078 -0.094327137 0.41200003
0.049587369 -0.093823627 0.41375002
0.051064607 -0.093465544 0.41349998
0.052975554 -0.093079396 0.41312504
0.055057265 -0.093044005 0.41270003
0.05712299 -0.093117252 0.41262501
0.058981348 -0.092749931 0.41300002
0.060977113 -0.093167931 0.41245002
0.062950194 -0.092835747 0.41237503
0.065185338 -0.092582591 0.41225001
0.066988513 -0.092582591 0.41225001
0.068770692 -0.092554517 0.41212502
0.070101529 -0.092526443 0.41200003
0.054983318 -0.091959685 0.41349998
0.057244122 -0.091959685 0.41350001
0.060861401 -0.091959685 0.41350001
0.063083902 -0.091678046 0.41325003
0.065095782 -0.091395058 0.41340002
0.067000195 -0.091602691 0.41325
0.068916842 -0.091848485 0.41300002
0.070976369 -0.091464698 0.41290003
0.073126212 -0.090540685 0.41280001
0.075293198 -0.089277364 0.41280001
0.076952323 -0.088581979 0.41250002
0.078210875 -0.088024713 0.41200003
0.085471019 -0.088528566 0.41225001
0.086686879 -0.088398598 0.41375002
0.077258587 -0.087105103 0.41333333
0.078732722 -0.086752944 0.41237503
0.080012955 -0.08622402 0.41200003
0.085153401 -0.086559199 0.41216668
0.086813539 -0.08671651 0.41291666
0.077638216 -0.085686088 0.41375002
0.078899786 -0.085130729 0.41325003
0.080802187 -0.084855296 0.41235003
0.083166599 -0.084423326 0.41200003
0.084994584 -0.084899247 0.41212502
0.086942077 -0.0850408 0.4128125
0.088443138 -0.085182503 0.41350001
0.079447955 -0.08387775 0.41375002
0.081146933 -0.083537668 0.4131875
0.083174668 -0.08282239 0.41300002
0.085084744 -0.083186015 0.41256252
0.087092966 -0.083023407 0.4131
0.088478781 -0.082956679 0.4136667
0.085278019 -0.081567734 0.41350001
0.08695358 -0.081433564 0.41358337
0.037467852 -0.17066342 0.41481251
0.038892783 -0.17049205 0.41550002
0.035130728 -0.16987658 0.41400003
0.036941551 -0.16942421 0.41400003
0.03882258 -0.16927795 0.41475001
0.048008583 -0.15514943 0.41575003
0.010691031 -0.15277915 0.41425002
0.012525586 -0.15396266 0.41500002
0.051083598 -0.14892942 0.41487503
0.0034558226 -0.14697257 0.41575003
0.053041279 -0.14751548 0.41600001
0.0025404571 -0.14571269 0.41475001
0.053238988 -0.14544921 0.41400003
-0.011045329 -0.13549732 0.41400003
0.058954895 -0.1343337 0.41600001
0.059864677 -0.13342461 0.41600001
0.060591854 -0.131211 0.41475001
-0.027408807 -0.12403487 0.41500002
-0.028596194 -0.12242482 0.41466668
-0.027359273 -0.12290544 0.41425002
0.066193387 -0.12244195 0.41575003
-0.03047117 -0.1208548 0.41550002
-0.028748747 -0.12076963 0.41468751
-0.027348265 -0.12104601 0.41408336
-0.03048932 -0.11941347 0.41575003
-0.028779145 -0.11908262 0.41512501
-0.026914686 -0.11886748 0.41437501
-0.025531935 -0.11830769 0.41400003
-0.03020421 -0.11797013 0.41600001
-0.028664974 -0.11757275 0.4156667
-0.026974177 -0.11686108 0.41529167
-0.025255643 -0.11691725 0.41441667
-0.023721108 -0.11649825 0.41400003
0.070441827 -0.11649825 0.41400003
-0.026565064 -0.11524287 0.41600001
-0.025076251 -0.11527145 0.41545004
-0.023320103 -0.11494175 0.41491672
-0.021219589 -0.11450601 0.41465002
-0.018741339 -0.11468882 0.41400003
-0.016930513 -0.11468882 0.41400003
-0.022464409 -0.11339061 0.41587502
-0.020467272 -0.11354503 0.41533336
-0.018805468 -0.11326472 0.41541663
-0.016983381 -0.11323055 0.4152917
-0.015157775 -0.11316239 0.41504169
-0.013425229 -0.11291535 0.41480002
-0.011056718 -0.11253981 0.4144167
-0.0087898877 -0.11207608 0.41437501
-0.012913268 -0.11156181 0.41583335
-0.010635867 -0.11106814 0.41568753
-0.0088097062 -0.11096794 0.41531253
-0.0070750923 -0.11110242 0.41480002
-0.0051665148 -0.11075078 0.4145
-0.0033524907 -0.11026502 0.41437501
-0.001991201 -0.11016523 0.41400003
-0.0070026796 -0.10975535 0.41587502
-0.005028341 -0.10937534 0.41558337
-0.0033595697 -0.10913627 0.41525003
-0.0010882651 -0.10903779 0.41487503
0.0011789203 -0.10892279 0.41443753
0.0028393811 -0.1087228 0.41425002
0.004800708 -0.10838851 0.41412503
0.07476408 -0.10916911 0.41537502
-0.0024557137 -0.10797016 0.41600001
-0.00048421769 -0.10760225 0.41575003
0.0011822302 -0.10741843 0.41562504
0.0029983586 -0.1068995 0.41537499
0.0047188504 -0.10695882 0.4149
0.0068874881 -0.10699843 0.41435003
0.0088737542 -0.10654636 0.41400003
0.0034579006 -0.10524289 0.41600001
0.0049092285 -0.10497232 0.41565004
0.0070801578 -0.10499651 0.4150278
0.0093385251 -0.10487341 0.41454169
0.010994986 -0.10451913 0.41433334
0.077872775 -0.10408302 0.41500002
0.0052774744 -0.10342472 0.41600001
0.0070926463 -0.10313529 0.41575003
0.0090906397 -0.10279246 0.41565004
0.011260109 -0.10304369 0.41520005
0.012976688 -0.10315457 0.41491666
0.014782611 -0.10309241 0.41466668
0.016913526 -0.10279254 0.41450003
0.019297648 -0.10253674 0.41425002
0.021115799 -0.10211518 0.41437501
0.022914432 -0.10205358 0.41412503
0.013465555 -0.10160655 0.41600001
0.014825643 -0.10157602 0.41587502
0.017086577 -0.10127242 0.41556254
0.019083051 -0.1009393 0.41550002
0.021160526 -0.10096937 0.41525003
0.022966376 -0.1009237 0.41506252
0.024755657 -0.1008174 0.41462502
0.026545051 -0.10027386 0.41425002
0.021653637 -0.099788368 0.41600001
0.023011263 -0.099758387 0.41587502
0.024815364 -0.099244013 0.41562504
0.027044011 -0.099084772 0.41495833
0.029271897 -0.098945528 0.41437501
0.031084362 -0.098493032 0.41437501
0.032887042 -0.098463319 0.41425002
0.03467802 -0.098403901 0.41400003
0.026649317 -0.097940758 0.41587502
0.029089218 -0.097524241 0.41565004
0.031256065 -0.097113721 0.41545001
0.032956369 -0.096856214 0.41512501
0.03472507 -0.097178474 0.41456252
0.036967486 -0.097114973 0.41429171
0.03922876 -0.09710516 0.41425002
0.041040678 -0.096652791 0.41425002
0.04237403 -0.096594468 0.41400003
0.033170898 -0.094920814 0.41591668
0.034796592 -0.095108926 0.41541669
0.036945082 -0.095198475 0.41531253
0.039155673 -0.095006213 0.41553572
0.041135576 -0.095061041 0.41520837
0.042908493 -0.094965734 0.41479167
0.044833299 -0.094729006 0.4144167
0.046901096 -0.094785035 0.41400003
0.035300437 -0.09342476 0.41600001
0.036210224 -0.09342476 0.41600001
0.041668944 -0.09342476 0.41600001
0.043159306 -0.093065582 0.41575003
0.044799291 -0.092858203 0.41550004
0.047004759 -0.093180746 0.41491669
0.049133353 -0.092906192 0.41450006
0.050855238 -0.092428058 0.41425002
0.052333567 -0.092070885 0.41400003
0.046658613 -0.091579057 0.41587502
0.048902754 -0.091069728 0.41562501
0.05109068 -0.090919025 0.4149375
0.052841987 -0.090809464 0.4144375
0.054895103 -0.090847887 0.41420001
0.057082921 -0.09068875 0.41430002
0.059177715 -0.090795845 0.41437501
0.060980923 -0.090782076 0.41431251
0.062632717 -0.09061753 0.41425002
0.065061875 -0.090334117 0.41433334
0.067505032 -0.090672024 0.4145
0.069167145 -0.090822823 0.41450003
0.071001425 -0.090397716 0.41462502
0.072252654 -0.090261452 0.41400003
0.049857024 -0.089788407 0.41600001
0.051342469 -0.089431413 0.41575003
0.052961458 -0.089199372 0.41537505
0.054761946 -0.089172527 0.41525003
0.057003796 -0.089127839 0.41504169
0.059284829 -0.089145824 0.41512504
0.061118975 -0.089172535 0.41525
0.062935263 -0.089172527 0.41525003
0.06476137 -0.089185886 0.41531253
0.066628106 -0.089253061 0.41562504
0.068935104 -0.089752436 0.41583335
0.07117267 -0.089707464 0.41562504
0.073061518 -0.089305699 0.41516671
0.07444001 -0.088842608 0.4144167
0.054860853 -0.087970227 0.41600001
0.056646369 -0.087917365 0.41575003
0.058937181 -0.087489247 0.41587505
0.061192568 -0.087917365 0.41575003
0.063048929 -0.087970227 0.41600001
0.064413615 -0.087970227 0.41600001
0.075183108 -0.087571278 0.41518751
0.076418646 -0.086747214 0.41450003
0.076856636 -0.084930822 0.41503131
0.08950951 -0.084884368 0.41425002
0.077511974 -0.082870245 0.41550002
0.079086132 -0.082982264 0.41470003
0.080784462 -0.082503214 0.41441667
0.082212195 -0.082118995 0.41400003
0.08950951 -0.083073474 0.41425002
0.090900265 -0.082635999 0.41508332
0.078922383 -0.081557572 0.41575003
0.081159025 -0.081066377 0.41556254
0.082851887 -0.080944464 0.4149375
0.084778734 -0.08060848 0.41437501
0.087244615 -0.080358058 0.41425002
0.08913742 -0.080883704 0.41462499
0.091156572 -0.081066519 0.41556254
0.08303915 -0.079764456 0.41587502
0.085002787 -0.079281285 0.41525
0.087140664 -0.079061761 0.41505003
0.089312032 -0.079226419 0.41543752
0.090797432 -0.079788432 0.41600001
0.085338712 -0.077970259 0.41600001
0.086664245 -0.077480569 0.41581252
0.088335872 -0.077635996 0.41583335
0.039465778 -0.17146006 0.41675001
0.031718373 -0.16827279 0.41675001
0.039873321 -0.16989017 0.41625002
0.030788466 -0.16726168 0.41650003
0.018969769 -0.159261 0.41700003
0.015321872 -0.15652719 0.41700003
0.016233847 -0.15743846 0.41700003
0.014383981 -0.15533602 0.41625002
0.050036799 -0.15215303 0.41750002
0.0062058526 -0.15023829 0.41725001
0.0048328615 -0.14873689 0.416875
-0.0010956231 -0.14402795 0.41775003
-0.010225641 -0.13755518 0.41750002
0.061869606 -0.13109007 0.41725001
-0.033032533 -0.12014823 0.41725001
0.06730438 -0.12189881 0.41700003
0.068298146 -0.1211326 0.41750002
-0.03289447 -0.11894499 0.41714287
-0.031142049 -0.11853129 0.41637504
0.070124283 -0.11930788 0.41750002
-0.032873888 -0.11713215 0.41755
-0.03072373 -0.11685149 0.416875
-0.029014453 -0.11654823 0.41633335
-0.030769929 -0.11565841 0.41750002
-0.028917659 -0.11509848 0.41712505
-0.027220577 -0.11484331 0.41675004
-0.025686113 -0.1144712 0.41650003
-0.028504044 -0.11390184 0.41775003
-0.027109403 -0.11379959 0.41737503
-0.025276244 -0.11330919 0.41725004
-0.023287678 -0.11264482 0.41704169
-0.020663861 -0.11258321 0.41625002
-0.022095516 -0.11155248 0.41750002
-0.020622252 -0.11121187 0.41725007
-0.01888101 -0.11098507 0.41708335
-0.017053198 -0.1109628 0.41700003
-0.015223254 -0.11091854 0.41683331
-0.013120952 -0.11050588 0.41665
-0.017083868 -0.10933727 0.41775003
-0.015252212 -0.10930455 0.41762501
-0.012831467 -0.10898273 0.41739291
-0.010669381 -0.10914025 0.41700006
-0.0088410601 -0.10908573 0.41679168
-0.0070172762 -0.10861992 0.41675001
-0.0053431191 -0.10840315 0.4165
-0.0038226899 -0.10803505 0.41625002
0.076332487 -0.10809994 0.41650003
-0.010688571 -0.10751145 0.41775003
-0.0088588279 -0.10747928 0.41762501
-0.0070310254 -0.10700674 0.41756251
-0.0052006543 -0.10692659 0.41725004
-0.0029169116 -0.10683045 0.416875
-0.00078875432 -0.10660406 0.41658333
0.0011843638 -0.10624768 0.41637504
0.077243365 -0.10627957 0.41650003
-0.0029224504 -0.10566454 0.41766667
-0.00048625586 -0.10531808 0.41750002
0.0011860051 -0.10503998 0.41700003
0.0028541104 -0.10474152 0.41641667
0.0016442345 -0.10379765 0.41750002
0.0031032828 -0.10300549 0.41725001
0.0046765641 -0.10294207 0.4165
0.0061909794 -0.10257724 0.41625002
0.0049891588 -0.10160773 0.41725001
0.0066579846 -0.10139474 0.41700003
0.0089385305 -0.10094533 0.41702783
0.011214581 -0.10090836 0.416875
0.012946213 -0.10072041 0.41685003
0.014854677 -0.10040824 0.41668752
0.016204648 -0.10075797 0.41625002
0.013065394 -0.099295244 0.41775003
0.015038949 -0.098951317 0.41758335
0.0166947 -0.099145956 0.41712502
0.018962003 -0.099076629 0.41683331
0.021145819 -0.09887486 0.41675004
0.023049373 -0.098557621 0.41656256
0.024860144 -0.098058507 0.41637504
0.081748664 -0.09802907 0.41625002
0.019460693 -0.097469419 0.41775003
0.021431698 -0.097126223 0.41758335
0.023094263 -0.096925601 0.41737503
0.024889998 -0.096809492 0.416875
0.026693441 -0.09673699 0.4165625
0.028734775 -0.096480548 0.41643751
0.030769985 -0.096209802 0.41625002
0.082956865 -0.097469419 0.41775003
0.023571957 -0.095643595 0.41775003
0.024931114 -0.095144205 0.41756251
0.026741501 -0.095087245 0.41731253
0.029007183 -0.095035054 0.41708335
0.031257767 -0.094944835 0.41668749
0.032610226 -0.094447233 0.41650003
0.026769606 -0.093817778 0.41775003
0.029273214 -0.093561478 0.41762501
0.031300031 -0.09324944 0.41725004
0.033085376 -0.093137696 0.41675001
0.034728725 -0.092911549 0.41641673
0.036853567 -0.092911549 0.41641667
0.038986389 -0.093081683 0.4165
0.041111778 -0.092930079 0.4165
0.042604323 -0.092571266 0.41625002
0.031328164 -0.091964424 0.41762501
0.033134997 -0.091453046 0.417375
0.034934476 -0.091384634 0.41706252
0.036775291 -0.091425657 0.41725004
0.03889259 -0.091560714 0.41745001
0.041350145 -0.091453046 0.417375
0.043233503 -0.091108017 0.41705003
0.044933975 -0.090860188 0.41675004
0.046586137 -0.090520918 0.41658333
0.045498695 -0.08925321 0.41775003
0.047048092 -0.089159191 0.4173125
0.048932385 -0.088945135 0.41684377
