# .PCD v0.7 - Point Cloud Data file format
VERSION 0.7
FIELDS x y z
SIZE 4 4 4
TYPE F F F
COUNT 1 1 1
WIDTH 1384
HEIGHT 1
VIEWPOINT 0 0 0 1 0 0 0
POINTS 1384
DATA ascii
0.29485434 0.4817982 0.085547686
0.29788309 0.48111165 0.084989272
0.30074367 0.48094738 0.084309198
0.27700815 0.48613405 0.087085955
0.2797634 0.48524356 0.087130673
0.28255248 0.48537979 0.086691864
0.28581059 0.48512587 0.086419336
0.28874075 0.48499778 0.086005144
0.29222488 0.48407671 0.085689291
0.29505432 0.48475945 0.084704898
0.29773128 0.48494357 0.083933733
0.092826098 0.48805588 0.084561542
0.27248341 0.48846218 0.086549036
0.27677438 0.48828498 0.085976921
0.27980748 0.4880158 0.085814588
0.28321213 0.48767909 0.085705571
0.28549674 0.48832762 0.085232943
0.28873092 0.48757973 0.085172214
0.29166949 0.4876487 0.084562697
0.29422423 0.48852274 0.083656795
0.29687312 0.4860318 0.083848394
0.092883527 0.4896501 0.084861539
0.26944464 0.49020618 0.086655863
0.27198985 0.49096802 0.085831873
0.27467194 0.49022844 0.085506886
0.27762035 0.49049193 0.084880233
0.28019425 0.49033618 0.084651485
0.28300491 0.49083775 0.084257126
0.28780627 0.48942298 0.084511034
0.28898165 0.49019074 0.084021248
0.093335308 0.493442 0.085473984
0.26596677 0.49301919 0.086876199
0.26899421 0.49322161 0.08605285
0.27206039 0.49346548 0.085041627
0.27476546 0.49319488 0.084387332
0.28478366 0.49184367 0.083642304
0.094245747 0.49587107 0.086041205
0.24888776 0.49709341 0.087309726
0.25088587 0.49650037 0.087330744
0.25292873 0.49681672 0.087074347
0.25731418 0.49703237 0.086475849
0.25980696 0.49566659 0.086768724
0.26281473 0.49659657 0.086176611
0.26628038 0.496068 0.085868061
0.26899546 0.49654958 0.085108347
0.2718541 0.49546519 0.084601082
0.092980884 0.49955356 0.084235325
0.094351985 0.49850246 0.085421026
0.09889964 0.49928051 0.087040402
0.24261613 0.5002225 0.087205537
0.24489695 0.50002861 0.086764291
0.2484567 0.49974415 0.08637625
0.25056964 0.49890044 0.086515024
0.25358877 0.49897709 0.086260103
0.25667283 0.49951866 0.085678406
0.25973275 0.49950233 0.085330568
0.26284099 0.49957362 0.085137717
0.26591322 0.49915856 0.085000239
0.26852992 0.49871275 0.084660999
0.27163622 0.49815536 0.084073849
0.097577296 0.50180829 0.085654728
0.10061456 0.5015735 0.086450636
0.10341717 0.50289464 0.086249404
0.11850482 0.50304061 0.087476388
0.22671521 0.50312907 0.087306105
0.22963394 0.50317836 0.087143444
0.23296456 0.50309747 0.087183461
0.23598666 0.50343674 0.087125428
0.23915298 0.50302196 0.08693739
0.24180886 0.50242126 0.086541712
0.24486364 0.50241983 0.085847609
0.24715003 0.50218421 0.085583322
0.25073814 0.50232351 0.085379973
0.25344458 0.50166345 0.085334592
0.25577417 0.50203371 0.084928766
0.25985977 0.50241095 0.08436849
0.26281548 0.5026803 0.084106237
0.26519608 0.50155222 0.08438208
0.098292381 0.50444824 0.084661387
0.10128215 0.50523114 0.084881686
0.10463995 0.50443912 0.085902646
0.11314661 0.5066337 0.086865142
0.11614722 0.50658613 0.086578541
0.11835059 0.50696027 0.086737491
0.18186769 0.5056113 0.088356644
0.2209979 0.50674051 0.086923584
0.22402409 0.5060001 0.086676583
0.2271232 0.50598544 0.086263396
0.22990939 0.5056935 0.086086676
0.23285408 0.50574112 0.08607062
0.23584132 0.50538892 0.086304791
0.23938526 0.5055117 0.085926116
0.24236314 0.50544995 0.085179619
0.24401671 0.50457585 0.085158862
0.24638061 0.50470251 0.084774427
0.25011876 0.50469571 0.084749468
0.25318113 0.50451136 0.084536873
0.2556403 0.50467074 0.084205389
0.097621948 0.50768816 0.084032118
0.10497858 0.5073024 0.08503326
0.11261749 0.51000208 0.086322844
0.11627274 0.50943494 0.085958682
0.11912114 0.50969356 0.08577396
0.12300234 0.50943124 0.086657457
0.126138 0.50975525 0.086850598
0.17636536 0.50928801 0.087563276
0.17867132 0.50918758 0.087434381
0.18244414 0.50888634 0.087432742
0.18499649 0.50838172 0.087572731
0.18784559 0.50828916 0.087608486
0.1983964 0.50961185 0.086898625
0.21263777 0.50971258 0.086696997
0.21557049 0.50962299 0.08648508
0.21843246 0.50881422 0.086575292
0.22042479 0.50953305 0.086055584
0.22427939 0.50894421 0.08568076
0.22712265 0.5086934 0.085303426
0.22965232 0.50821733 0.08517807
0.23310849 0.50879627 0.085106038
0.23546073 0.50820386 0.085260764
0.23848498 0.50817996 0.08508154
0.24208622 0.50823122 0.084443837
0.24727811 0.50781947 0.083897099
0.24907914 0.50773674 0.083947524
0.25343177 0.50763637 0.083702445
0.25606015 0.50698274 0.083544374
0.10663567 0.51039732 0.084895164
0.1100667 0.50996602 0.086059086
0.11507749 0.51056761 0.085746109
0.11995148 0.51182079 0.085037626
0.12199531 0.51141942 0.085307568
0.12580135 0.51142949 0.085933916
0.12852556 0.51160622 0.086193934
0.13069393 0.5120666 0.086326964
0.1346647 0.5129987 0.08653345
0.16475078 0.51195544 0.087169364
0.16681856 0.51282811 0.08689142
0.17550014 0.51238209 0.08665783
0.17889559 0.51113278 0.086804383
0.18109727 0.5116725 0.086706236
0.1848605 0.51150793 0.087095901
0.18794082 0.51135802 0.08724051
0.19118375 0.51096934 0.087049939
0.19426198 0.51042908 0.086959668
0.19728905 0.51070386 0.086795785
0.20048553 0.51020837 0.086879343
0.20279689 0.51198959 0.086469837
0.20609654 0.51151943 0.086576089
0.20892788 0.51183897 0.086192377
0.21154447 0.51251066 0.08572679
0.2146138 0.51175225 0.085673414
0.21791142 0.51122659 0.085665673
0.22054435 0.51149231 0.085324019
0.22337711 0.51207572 0.084928706
0.22652604 0.51206034 0.084612906
0.2292019 0.51102769 0.084529884
0.23209561 0.51123017 0.084363624
0.23612896 0.51158392 0.084418096
0.2389639 0.51141351 0.084226936
0.242357 0.51126271 0.083768271
0.2479648 0.51136535 0.083036184
0.24938862 0.51023769 0.083226256
0.09537039 0.51370806 0.083513238
0.097845852 0.51433152 0.08359161
0.10783771 0.51383257 0.084475487
0.10999873 0.51296502 0.085411198
0.1124562 0.51316845 0.085655019
0.11551015 0.51315957 0.085300468
0.11847085 0.51320577 0.084655888
0.12252467 0.51580697 0.083941408
0.12483516 0.51439273 0.084509008
0.1264205 0.5136891 0.085008048
0.13036141 0.5147664 0.08532846
0.13356212 0.51476777 0.08568041
0.13762662 0.5147922 0.086221188
0.13917519 0.51470155 0.086661622
0.148691 0.51531655 0.086855099
0.15172653 0.51563412 0.086441323
0.16175194 0.51395482 0.086885974
0.16484112 0.51473463 0.08648999
0.16771771 0.51477498 0.086356387
0.16914758 0.51324111 0.086766057
0.17271858 0.51455665 0.086334303
0.17565373 0.51408613 0.086138651
0.17914657 0.51459974 0.086052284
0.18163399 0.51469475 0.086298004
0.18516065 0.51440364 0.086740777
0.18812491 0.5143854 0.086751886
0.19144037 0.51494211 0.086424597
0.19430842 0.5136466 0.086371474
0.19741875 0.51348883 0.086207218
0.19974111 0.51385391 0.08603894
0.2020027 0.51444501 0.085779846
0.20582013 0.51468539 0.085420385
0.20881201 0.51572943 0.084835306
0.21150464 0.5141784 0.085075192
0.21420172 0.51441878 0.084788583
0.21716224 0.51470494 0.084556624
0.22004281 0.51523036 0.084307827
0.22316147 0.51503032 0.084202774
0.22652622 0.51492083 0.083934434
0.22922575 0.51497334 0.083814524
0.23269883 0.51384467 0.083920665
0.23616391 0.51412284 0.083829306
0.2390954 0.51423913 0.083676584
0.24235797 0.51314026 0.083428763
0.10867302 0.51639986 0.084040627
0.11228503 0.51632756 0.084815137
0.11532377 0.51635867 0.08468689
0.13044311 0.51740253 0.084544607
0.13385183 0.5170747 0.084705003
0.13779005 0.51791239 0.084718511
0.14033675 0.51768976 0.085490495
0.14187141 0.51860106 0.085609205
0.14461903 0.51827329 0.086030647
0.14813372 0.51774937 0.085923456
0.1513882 0.51790106 0.085669957
0.15492837 0.51768881 0.086057588
0.15867344 0.51713884 0.086634874
0.16078372 0.51745683 0.086524032
0.16351297 0.51715952 0.086330168
0.16787858 0.51752347 0.08594124
0.17016181 0.51843733 0.085507952
0.17284599 0.51740474 0.085561834
0.17582005 0.51654685 0.08552257
0.17830494 0.51646811 0.08555261
0.18179061 0.51720053 0.085784681
0.18454139 0.51767576 0.085906111
0.18793093 0.51804513 0.085852385
0.19127247 0.51717967 0.085796371
0.19431947 0.51724285 0.085443854
0.19684018 0.51741457 0.085179277
0.1997287 0.51634759 0.085288472
0.20114742 0.51742631 0.084910348
0.20538932 0.51824003 0.084435396
0.20968467 0.51843035 0.0842373
0.21140416 0.51775771 0.084206641
0.21330152 0.51803386 0.084019743
0.21678315 0.51757449 0.083950244
0.22003977 0.51826692 0.083541594
0.22370444 0.51757675 0.083478719
0.22671682 0.51710838 0.083402075
0.22919418 0.51785618 0.083139002
0.11302793 0.51909119 0.084052898
0.11530731 0.51943034 0.08415775
0.13986813 0.52070832 0.08421091
0.1446069 0.52131963 0.085010305
0.14756297 0.52121508 0.085012905
0.15076756 0.52104473 0.085044086
0.15400985 0.52074051 0.085289836
0.15753625 0.52021176 0.085744567
0.16116418 0.52015167 0.086138017
0.16259517 0.51958132 0.086244345
0.16642775 0.52044123 0.085684553
0.17048106 0.52069813 0.085116133
0.171634 0.51937795 0.085147746
0.17521408 0.52014112 0.084677793
0.17830992 0.52028197 0.084641069
0.18179367 0.52067381 0.084722079
0.18407345 0.51950395 0.085288063
0.18667895 0.52030021 0.085032433
0.19000036 0.52009594 0.084930815
0.19383796 0.51982439 0.084650405
0.19657339 0.52021265 0.084386438
0.19954145 0.51974005 0.084390454
0.20234573 0.51997006 0.084146418
0.20690642 0.5210728 0.083681777
0.20980835 0.52114415 0.0835521
0.21385081 0.5205012 0.083623126
0.21728325 0.52035022 0.083341882
0.22002989 0.52091074 0.082872815
0.14348206 0.52315497 0.084168024
0.1453719 0.52337164 0.084370084
0.14775941 0.52385998 0.084486246
0.1511495 0.52363157 0.08474306
0.15434818 0.52392942 0.084885545
0.15832786 0.5233078 0.084989347
0.1614591 0.52323902 0.085406065
0.16395548 0.52362657 0.085309446
0.16637231 0.52300894 0.085172981
0.17061973 0.52351004 0.084344529
0.17381287 0.52389491 0.083840854
0.17768762 0.52327472 0.083872147
0.18032077 0.52336556 0.083882123
0.18409106 0.5221504 0.084426403
0.1869511 0.52215272 0.084356695
0.19029532 0.52277464 0.083887383
0.19384906 0.52254838 0.083765015
0.15084498 0.52690488 0.084057763
0.15416102 0.52670735 0.084260732
0.15759388 0.52680969 0.084130891
0.1642105 0.52609187 0.084528282
0.16665249 0.52557027 0.084452555
0.17419139 0.52665192 0.083032638
0.19998567 0.52498358 0.08305224
0.1527961 0.52791518 0.083861358
0.63720036 -0.17717314 0.084494531
0.63843334 -0.17478435 0.08473853
0.62579906 -0.17245239 0.08428029
0.62728995 -0.16911004 0.084333152
0.6599943 -0.16793871 0.086027794
0.62658542 -0.16649014 0.084180884
0.6557405 -0.16611037 0.085657179
0.6586706 -0.16654262 0.086336553
0.6604597 -0.16649869 0.08628498
0.64952672 -0.16243139 0.085192852
0.65616983 -0.16388629 0.085878469
0.65872312 -0.16481923 0.086262763
0.64937544 -0.16042131 0.085533366
0.64704967 -0.15860733 0.085660025
0.65012121 -0.15741645 0.086098693
0.66098154 -0.15619798 0.085841432
0.65840179 -0.15477261 0.086017117
0.66267312 -0.15388921 0.086182892
0.67088336 -0.15329015 0.086208105
0.67314452 -0.15514211 0.085993104
0.67847776 -0.15339564 0.085250258
0.61797982 -0.14942384 0.086074702
0.62291294 -0.15049016 0.085436054
0.6264255 -0.15086681 0.085211538
0.6306628 -0.15142234 0.085271761
0.63713533 -0.15036876 0.085822202
0.64149618 -0.152376 0.085996121
0.64634883 -0.15031981 0.087360628
0.64943987 -0.15061688 0.087072507
0.65242457 -0.15150657 0.08671356
0.65699577 -0.1511879 0.086741701
0.65868056 -0.1524591 0.08645688
0.66029882 -0.15214361 0.086556666
0.6638552 -0.15099055 0.086781614
0.66727388 -0.15146819 0.086631358
0.67182046 -0.15102598 0.086435921
0.6735853 -0.15155888 0.086340375
0.67645121 -0.15093809 0.086170964
0.67966121 -0.15143099 0.085465327
0.6080749 -0.14670531 0.084870562
0.61043292 -0.14837711 0.085094944
0.61596501 -0.1485744 0.085898966
0.61862165 -0.14762786 0.086135074
0.62203664 -0.1478738 0.085838325
0.62447578 -0.14794867 0.085580558
0.62898356 -0.14825854 0.08543878
0.63131696 -0.14861876 0.085644066
0.63380486 -0.14709871 0.086011842
0.63710922 -0.14732045 0.086252667
0.64373785 -0.14709166 0.087426677
0.64553446 -0.1473237 0.08754655
0.64979714 -0.14877999 0.087352075
0.65270942 -0.1484324 0.087063916
0.65483105 -0.14816718 0.086908609
0.65889257 -0.14867979 0.087406449
0.66188264 -0.14966275 0.087226078
0.6650781 -0.1483378 0.087076545
0.66756564 -0.14771852 0.087054878
0.66991454 -0.14873116 0.086803101
0.67384279 -0.14840019 0.086597271
0.67950135 -0.14838026 0.086162746
0.59202033 -0.14379737 0.08483842
0.59801686 -0.14407882 0.084835321
0.60139519 -0.1451567 0.084547728
0.60905051 -0.14568661 0.085127681
0.61219209 -0.14522438 0.086023919
0.61407965 -0.14536169 0.086220577
0.6160658 -0.1462401 0.086276211
0.61952138 -0.14566948 0.086177044
0.62374789 -0.14461705 0.08539211
0.62505209 -0.14566198 0.085467786
0.62756425 -0.14553547 0.08575318
0.63138717 -0.14583413 0.085732602
0.63442999 -0.14477997 0.086034119
0.63710576 -0.14524347 0.086525276
0.64733487 -0.14483091 0.087843046
0.64969498 -0.14596179 0.087634906
0.65253282 -0.14505515 0.087367624
0.65583909 -0.14545833 0.08737804
0.65891355 -0.14472599 0.087704659
0.6609838 -0.14529741 0.08783263
0.66449523 -0.14510027 0.087667547
0.66734171 -0.14608648 0.087111548
0.67082262 -0.14531308 0.086882636
0.67400616 -0.14529268 0.086733937
0.67690796 -0.145184 0.086689219
0.68054265 -0.14492561 0.086634621
0.68162662 -0.14440437 0.086563714
0.54267818 -0.14148001 0.083777562
0.56836236 -0.14099714 0.084145904
0.57282144 -0.14060189 0.084612176
0.5749343 -0.14114429 0.0843945
0.59088027 -0.14083765 0.085201234
0.59650582 -0.14154577 0.085459374
0.60016614 -0.14131558 0.085331969
0.60821456 -0.1415049 0.085461907
0.61102289 -0.14273839 0.085898481
0.6126706 -0.14321738 0.086176507
0.61739439 -0.14382701 0.086242557
0.61876327 -0.14144759 0.085888453
0.62129939 -0.14334311 0.085449591
0.62556618 -0.14207004 0.085103959
0.62944216 -0.14397106 0.085429363
0.63150251 -0.14282644 0.085607558
0.63489598 -0.14233631 0.086046584
0.63777727 -0.14151038 0.086576208
0.6458925 -0.14380904 0.087765008
0.6489501 -0.14189515 0.087680005
0.65259212 -0.14276098 0.08758387
0.65577364 -0.14211255 0.087632515
0.6589455 -0.14251237 0.087905124
0.66157717 -0.14297719 0.087903626
0.66466618 -0.14186239 0.087253332
0.66768545 -0.14253691 0.086889639
0.67035437 -0.14263304 0.086775906
0.672795 -0.14225434 0.086560994
0.67624027 -0.14246404 0.086890772
0.67912775 -0.14269646 0.087011911
0.68318564 -0.14215404 0.086976543
0.68717951 -0.1409861 0.086663231
0.56258112 -0.13782644 0.084641866
0.56536198 -0.13984932 0.084303237
0.56928957 -0.138974 0.084630422
0.57530719 -0.13913451 0.084787689
0.57640737 -0.13958067 0.084723212
0.58853734 -0.13869509 0.085426502
0.58973414 -0.138082 0.08569368
0.59575713 -0.1383191 0.085524425
0.59846038 -0.13869283 0.085408658
0.60208356 -0.13861033 0.085192695
0.60517466 -0.1400473 0.085122369
0.61089373 -0.14006805 0.086085036
0.61366713 -0.13841259 0.086383663
0.61648434 -0.13950635 0.086225994
0.61984462 -0.13903464 0.085698254
0.62248963 -0.14071034 0.085194245
0.6241346 -0.13939814 0.085207835
0.62802982 -0.13951306 0.085366026
0.63160044 -0.13934615 0.085658908
0.63495123 -0.13928053 0.08643873
0.63803363 -0.1398444 0.086741127
0.63954532 -0.13818523 0.087093048
0.64268762 -0.13927603 0.087162681
0.64785135 -0.14009035 0.087452725
0.65037322 -0.13926986 0.087393448
0.65292686 -0.13915388 0.087472506
0.65490949 -0.13943408 0.087559111
0.65789187 -0.13921525 0.087774262
0.6617043 -0.139129 0.087557927
0.66420746 -0.13924262 0.087061986
0.66744506 -0.13982892 0.086916439
0.67032653 -0.13916975 0.086481586
0.67332679 -0.13948718 0.086568125
0.67751098 -0.13950756 0.086945765
0.68073684 -0.1403708 0.087137401
0.68248099 -0.13905354 0.087214768
0.68417615 -0.13849768 0.087390862
0.68872744 -0.13968951 0.086694993
0.55777735 -0.1352111 0.084807269
0.56069195 -0.13569547 0.085044034
0.56386566 -0.13643767 0.085026138
0.56424731 -0.13525209 0.085273139
0.56859159 -0.13518824 0.085057169
0.57096726 -0.13570431 0.085085332
0.57360953 -0.13749093 0.084896684
0.58333397 -0.13470688 0.085106649
0.58642513 -0.1363882 0.085340634
0.58966184 -0.13519435 0.085717924
0.59326017 -0.13721806 0.085645847
0.59706289 -0.13634515 0.08547765
0.60052204 -0.13588834 0.085382
0.60415804 -0.13624214 0.085359149
0.60779947 -0.13653606 0.085625954
0.61086094 -0.13701034 0.086087205
0.61650836 -0.13654311 0.086509705
0.62216514 -0.13606708 0.085446075
0.62549895 -0.13620381 0.085509337
0.6291675 -0.13669933 0.085740633
0.63127029 -0.13722041 0.086058252
0.63357919 -0.13599065 0.086250782
0.63719279 -0.13637429 0.08703322
0.6410796 -0.13623676 0.087478682
0.64387059 -0.13715915 0.087435633
0.64679652 -0.13649182 0.087143272
0.64969605 -0.13639136 0.087315463
0.65239012 -0.1360925 0.087470502
0.65562934 -0.13611315 0.087664679
0.65859896 -0.13659555 0.087595567
0.66161263 -0.13714983 0.087177962
0.6646921 -0.13597502 0.086707182
0.66754186 -0.13638729 0.086624652
0.67009056 -0.13638428 0.086377002
0.67364693 -0.136623 0.086594239
0.6769585 -0.13639778 0.087039657
0.67934179 -0.13688962 0.087006994
0.68334317 -0.13563651 0.087892801
0.68675393 -0.13505264 0.087743916
0.68943232 -0.13693692 0.087105855
0.69238782 -0.13537362 0.086944602
0.6935944 -0.13618942 0.086463042
0.51267886 -0.13180932 0.084628753
0.53289407 -0.13394883 0.08427301
0.55487782 -0.13243121 0.084756427
0.55946058 -0.13311665 0.085313931
0.56207031 -0.13357762 0.085321255
0.56580067 -0.13255951 0.08528731
0.57127857 -0.13334692 0.085225649
0.57388669 -0.13328029 0.085142747
0.57671255 -0.13312535 0.084957816
0.58100605 -0.1335198 0.085025862
0.58487588 -0.13308015 0.085568927
0.58741546 -0.13427816 0.085756965
0.59033662 -0.13262789 0.085850857
0.59290367 -0.134248 0.085619591
0.59612292 -0.13210197 0.085489184
0.59858012 -0.13383706 0.085335426
0.60368228 -0.13328516 0.085326999
0.61075586 -0.13350849 0.086119093
0.61327457 -0.13460144 0.086479627
0.61734718 -0.1337053 0.086543575
0.61924469 -0.13482633 0.086044297
0.62405717 -0.13362865 0.085693941
0.62822205 -0.13245307 0.085970432
0.63145065 -0.13448204 0.086222164
0.63491517 -0.13295344 0.086587578
0.64049494 -0.1331491 0.087570794
0.6432299 -0.13332495 0.087509871
0.64631188 -0.13435341 0.08723861
0.64958233 -0.13270015 0.087303743
0.65237153 -0.13340533 0.087609597
0.65638608 -0.13375737 0.087374456
0.65756625 -0.1332884 0.087418608
0.66151685 -0.13391151 0.087024406
0.66574353 -0.13353556 0.086582825
0.66654104 -0.13317007 0.086574644
0.67020941 -0.13337015 0.086480223
0.6733861 -0.13328002 0.086949155
0.67606205 -0.1334092 0.087364927
0.67846292 -0.13427699 0.087570414
0.68287808 -0.13361648 0.088133261
0.68496233 -0.13402934 0.087983184
0.68859518 -0.13307872 0.087454915
0.69161105 -0.13361162 0.087005004
0.69437492 -0.13311982 0.086804822
0.51094556 -0.1302446 0.084650174
0.51410544 -0.1293755 0.084771782
0.53000933 -0.12913099 0.084680893
0.55261934 -0.12993969 0.084914088
0.5571143 -0.13057673 0.085174605
0.56093055 -0.13023651 0.085489154
0.56336057 -0.13147461 0.085301019
0.56493545 -0.12932204 0.085365668
0.5677768 -0.13081294 0.085335054
0.57109171 -0.13049966 0.085378557
0.57521021 -0.130822 0.085293859
0.5804224 -0.13029309 0.085545078
0.58259726 -0.12957898 0.085771985
0.58679664 -0.12992081 0.085918389
0.58965623 -0.13051176 0.085868992
0.59184486 -0.1309735 0.08577273
0.59541941 -0.13009439 0.085727811
0.59735525 -0.12940313 0.085761011
0.60128915 -0.13101751 0.08560878
0.60458058 -0.12905502 0.085625313
0.60738301 -0.13011986 0.085855618
0.61085987 -0.13040397 0.086089507
0.61418098 -0.13098578 0.086377032
0.61698854 -0.1307683 0.086527102
0.61868632 -0.13080798 0.086252518
0.6223762 -0.13037285 0.086244583
0.62628955 -0.13032553 0.086327806
0.62912619 -0.13003545 0.086545803
0.63243866 -0.13052236 0.086532228
0.63459045 -0.13054194 0.086613581
0.63758969 -0.13032007 0.086979195
0.64033008 -0.13060597 0.087357678
0.64420384 -0.13059099 0.087173127
0.64644051 -0.13070428 0.087295994
0.6491822 -0.12989914 0.087333404
0.65236235 -0.13043198 0.087477088
0.65533757 -0.13022445 0.087242484
0.65802932 -0.13134961 0.087056763
0.6616385 -0.13020791 0.086793445
0.66426945 -0.13083346 0.086856321
0.66751516 -0.13049898 0.086938538
0.67089701 -0.1296403 0.087246291
0.67330259 -0.13022409 0.087351814
0.6763522 -0.13083823 0.087714024
0.67979878 -0.13050199 0.087896384
0.68167269 -0.1305173 0.088022046
0.68519849 -0.13082512 0.087835267
0.68770152 -0.12957065 0.087187029
0.69082773 -0.13056298 0.087087862
0.69559246 -0.12993945 0.086961649
0.69765812 -0.13114847 0.08680018
0.69910592 -0.12904914 0.086621717
0.51214844 -0.12698402 0.085210644
0.53155106 -0.12663168 0.08500912
0.5482887 -0.12621275 0.085197888
0.55130559 -0.12740554 0.085287727
0.55567282 -0.12730263 0.085393004
0.55900943 -0.12753697 0.085246198
0.56196582 -0.12769389 0.085198
0.56560493 -0.12750116 0.085385717
0.56872928 -0.12735079 0.085272647
0.57368439 -0.12658112 0.085428298
0.57765406 -0.12758008 0.085480265
0.5800032 -0.1272568 0.085713275
0.58447063 -0.12784332 0.085786685
0.58685905 -0.12737939 0.085877791
0.5922178 -0.12635291 0.085854284
0.59557748 -0.12792788 0.08575125
0.5991894 -0.12662172 0.086055189
0.60218 -0.12670174 0.08609654
0.60704738 -0.12771571 0.085839741
0.61061269 -0.12619773 0.086134091
0.61290538 -0.12786081 0.086443163
0.61694157 -0.12697114 0.086586289
0.62008435 -0.12746294 0.086438008
0.62341058 -0.12632443 0.086977996
0.62415206 -0.12752031 0.086925462
0.62781513 -0.12716679 0.087071508
0.63104224 -0.12709628 0.086987451
0.63419569 -0.12794398 0.086724155
0.63752139 -0.12760222 0.086872704
0.64016229 -0.12759914 0.087026887
0.64347076 -0.12768029 0.086960509
0.6460728 -0.12773272 0.086969301
0.64960897 -0.12714916 0.087054782
0.65260273 -0.12792303 0.087306686
0.65493298 -0.12761578 0.087121829
0.65833402 -0.12730344 0.086944595
0.6616962 -0.12672094 0.087081522
0.66567075 -0.12783642 0.087180592
0.66766983 -0.12704432 0.087557569
0.6705364 -0.12737611 0.087556131
0.67382783 -0.12751941 0.087573506
0.67619634 -0.12735172 0.087467089
0.67912394 -0.1273047 0.087366804
0.68287408 -0.12746061 0.087408908
0.68532276 -0.12771553 0.087241903
0.68848485 -0.12752266 0.087148204
0.69187629 -0.12773983 0.08702375
0.69434094 -0.12847942 0.087033905
0.69647545 -0.12723559 0.086915813
0.7004593 -0.12643737 0.086613975
0.51186687 -0.12352347 0.085640609
0.51444924 -0.12496642 0.085413069
0.52995384 -0.12390183 0.085549049
0.53400803 -0.1233279 0.085780598
0.5448246 -0.12439428 0.085258991
0.54705638 -0.12293048 0.085627429
0.54996532 -0.12407655 0.085458778
0.55357522 -0.12410475 0.085422046
0.55711776 -0.12478384 0.085359052
0.55812865 -0.12488166 0.085359052
0.56242657 -0.12450638 0.085134074
0.56876045 -0.12382611 0.085356645
0.57116473 -0.12516823 0.085414141
0.57463729 -0.12456745 0.085414238
0.58079231 -0.12465823 0.085741594
0.5831793 -0.12408569 0.085919462
0.58737421 -0.12340291 0.086071007
0.58947986 -0.12486522 0.08614371
0.59274936 -0.12318126 0.086105175
0.59682721 -0.12514754 0.08613769
0.60182256 -0.12380438 0.086496539
0.60446411 -0.1243698 0.08623904
0.60773039 -0.124465 0.086027488
0.61266959 -0.12398949 0.086501487
0.61615998 -0.12431967 0.087020181
0.61925656 -0.12461477 0.087006927
0.62241411 -0.12432811 0.087159872
0.62574118 -0.12571701 0.087491088
0.6284489 -0.12430433 0.087510474
0.63157344 -0.12405452 0.087193288
0.63494694 -0.12401324 0.086756684
0.63724971 -0.12466989 0.086498693
0.64028519 -0.12448966 0.086611435
0.64739311 -0.1244489 0.086842701
0.64975333 -0.12416712 0.087079555
0.65258247 -0.12388454 0.087151565
0.65547162 -0.12480449 0.087042354
0.65880018 -0.12361079 0.087160729
0.66224873 -0.12507705 0.087424397
0.66450262 -0.12457854 0.08770217
0.66798574 -0.12374895 0.087944306
0.67063779 -0.12446266 0.087777868
0.67370588 -0.12476191 0.087371819
0.6769737 -0.12402659 0.086875245
0.67914742 -0.12515475 0.086936101
0.68233782 -0.12455847 0.086859517
0.68536329 -0.12503445 0.086893007
0.68820202 -0.12486227 0.087013558
0.69104069 -0.12441695 0.086914249
0.69407618 -0.1248062 0.087066829
0.69696307 -0.12535347 0.087027825
0.70186222 -0.12396548 0.086766496
0.70410627 -0.12457452 0.086282618
0.51196414 -0.12072057 0.085988551
0.51424479 -0.12122888 0.08596354
0.51759809 -0.12076114 0.085794806
0.52428734 -0.12148983 0.085418738
0.52625459 -0.12159841 0.085683882
0.52955103 -0.12073979 0.086277738
0.5331232 -0.12166576 0.086319178
0.53600514 -0.12043309 0.086400926
0.53766853 -0.12084641 0.085999191
0.54137647 -0.12105376 0.085701093
0.54457819 -0.12145513 0.085739128
0.5489254 -0.12007152 0.086196281
0.55185628 -0.1217428 0.085829705
0.55287999 -0.12014059 0.086102679
0.55609089 -0.12069397 0.085762091
0.55927074 -0.12140312 0.085623398
0.56216544 -0.12177813 0.085544586
0.56566238 -0.12246584 0.085163064
0.57165635 -0.12122189 0.085824475
0.57386267 -0.12044308 0.085793719
0.57729357 -0.12138067 0.085586376
0.58061129 -0.12105229 0.085653454
0.58377814 -0.12148421 0.085778207
0.58916426 -0.12086507 0.08610595
0.59228975 -0.12170026 0.086265914
0.59579217 -0.12132314 0.086667232
0.59917349 -0.12125129 0.086842254
0.60149884 -0.12154875 0.086694449
0.60301566 -0.12151425 0.086462356
0.60671282 -0.12061457 0.086033285
0.61087471 -0.12099899 0.086695805
0.61339724 -0.12169459 0.087067351
0.62103707 -0.12248433 0.08702375
0.62214494 -0.12073409 0.087086186
0.62469715 -0.12152917 0.08725287
0.62892288 -0.12072451 0.087444596
0.63102931 -0.12161069 0.087262765
0.63519424 -0.12121348 0.086616918
0.63875222 -0.12166499 0.086525023
0.63998127 -0.12018637 0.08648812
0.6470921 -0.12044361 0.08705081
0.64979655 -0.12173671 0.087323554
0.65488172 -0.12146649 0.087609269
0.65859014 -0.12156381 0.087541722
0.66182441 -0.12097268 0.088041931
0.6635195 -0.12009155 0.088176586
0.66716951 -0.12180758 0.088168055
0.67007196 -0.12132785 0.087714583
0.67345762 -0.12169113 0.087168954
0.67614579 -0.12210698 0.087017268
0.67951465 -0.12199428 0.086801827
0.68233001 -0.12089375 0.086766578
0.68522853 -0.12178729 0.086719431
0.68853915 -0.12169466 0.086852618
0.69229233 -0.12191288 0.087081827
0.69365805 -0.12193795 0.087028086
0.69765347 -0.12031807 0.087009832
0.70010978 -0.12155513 0.086946413
0.70316356 -0.1217747 0.086800463
0.70588124 -0.12105356 0.086647287
0.70803702 -0.1203499 0.086221531
0.50039291 -0.11741351 0.085232876
0.50285566 -0.11755324 0.085407108
0.51094627 -0.11722488 0.086388215
0.51391166 -0.11811818 0.086423174
0.51783657 -0.11782862 0.08623302
0.52109009 -0.11912391 0.085909598
0.52639437 -0.11829396 0.086342834
0.52967113 -0.11876523 0.086668938
0.53167915 -0.11756289 0.087100215
0.53524953 -0.11820878 0.086781673
0.53877562 -0.11783993 0.086413629
0.54303902 -0.11948404 0.086105935
0.54363906 -0.11700875 0.086306483
0.54726464 -0.11858494 0.086280189
0.551301 -0.11855392 0.086390615
0.56175065 -0.11785026 0.085967034
0.56535208 -0.11824091 0.085810274
0.56868476 -0.11818136 0.086152196
0.57162386 -0.11831725 0.086259291
0.57433385 -0.1182007 0.085918337
0.57723057 -0.1182422 0.085678138
0.58028686 -0.11903176 0.085656509
0.58309221 -0.1184831 0.085852757
0.58671886 -0.11806532 0.086269967
0.59025478 -0.11820417 0.086486779
0.59297734 -0.11924196 0.086831145
0.59549946 -0.11918686 0.087115794
0.59819472 -0.11729901 0.087070853
0.60078776 -0.11845834 0.086630337
0.60437763 -0.11900457 0.086159103
0.60821182 -0.11814458 0.086283103
0.61148888 -0.11807401 0.087068588
0.61371768 -0.11891878 0.087268069
0.61507124 -0.11738308 0.087454945
0.619151 -0.11760806 0.087304145
0.62263387 -0.11846273 0.0871301
0.62595814 -0.11911121 0.087175794
0.62718236 -0.11720933 0.087150067
0.63137633 -0.11897967 0.087175295
0.63424319 -0.11738801 0.086990163
0.63698703 -0.11804659 0.086733155
0.64029813 -0.11833156 0.086677276
0.64426637 -0.11818423 0.08675582
0.64640123 -0.11843596 0.087089121
0.64934295 -0.11816747 0.087610304
0.65208554 -0.11905547 0.087889418
0.65602005 -0.11798998 0.08795201
0.65812987 -0.11972299 0.087771714
0.66049963 -0.11784475 0.087927051
0.66397709 -0.11817658 0.088052161
0.66827404 -0.11829285 0.087812573
0.67100191 -0.11879115 0.087547526
0.67415792 -0.11853774 0.087019496
0.67631346 -0.118319 0.087033585
0.67937404 -0.11839215 0.087073073
0.68168122 -0.11840822 0.086977415
0.68589079 -0.11903398 0.086781166
0.68762672 -0.1185699 0.086899236
0.69134593 -0.11770346 0.086767718
0.69379103 -0.11893236 0.086847812
0.69757211 -0.1181424 0.087085761
0.70047665 -0.11895783 0.087149814
0.70317143 -0.11850143 0.087242037
0.70548517 -0.11821731 0.087000817
0.71028936 -0.11755346 0.086701855
0.71178776 -0.1174468 0.086501583
0.50073248 -0.11539081 0.085600153
0.50241482 -0.11492563 0.085746318
0.50533521 -0.11527785 0.086119704
0.50800192 -0.11542045 0.086288206
0.5123449 -0.11494356 0.0865518
0.51524425 -0.11639299 0.086584166
0.51725298 -0.11545573 0.086614311
0.52021635 -0.11543258 0.086500056
0.52334565 -0.11502969 0.086617723
0.52731413 -0.11580481 0.087132193
0.53006172 -0.11580162 0.087179512
0.53209782 -0.11544036 0.087032571
0.53502691 -0.11514205 0.086906016
0.53871584 -0.11441134 0.086622052
0.54104507 -0.11574853 0.086452141
0.54553294 -0.11455208 0.086737707
0.54835922 -0.1162551 0.086705282
0.55021465 -0.11521246 0.087059498
0.55543566 -0.11690399 0.087097876
0.55937845 -0.11564226 0.086778872
0.56283158 -0.11490166 0.086370699
0.56604701 -0.11587564 0.086307265
0.56950605 -0.11561295 0.086592011
0.57082891 -0.11567774 0.086522251
0.57357627 -0.11493285 0.086166769
0.57704717 -0.11558584 0.085770115
0.58124739 -0.1161267 0.085838355
0.58378589 -0.11508474 0.086295724
0.58752418 -0.11452126 0.086843245
0.58853757 -0.11531247 0.086856492
0.59249091 -0.11559458 0.087192312
0.59550869 -0.1158242 0.086880505
0.59829241 -0.11546627 0.086599655
0.60453486 -0.11546405 0.086047277
0.61121738 -0.11485741 0.087138072
0.61424178 -0.11508352 0.087273784
0.61706448 -0.11561254 0.087403968
0.61951983 -0.11511002 0.087210171
0.62241882 -0.11538224 0.087153725
0.62485135 -0.11504953 0.087117366
0.62832969 -0.11570899 0.087242983
0.63123059 -0.1158103 0.08712256
0.63530391 -0.11582529 0.087034956
0.6401549 -0.11492085 0.086870976
0.64306718 -0.11508085 0.086895458
0.64590567 -0.11553359 0.086994149
0.64936334 -0.11493959 0.087547556
0.65254629 -0.11597288 0.087967761
0.65483874 -0.11408228 0.087836631
0.66212958 -0.11583915 0.08769504
0.66483021 -0.11643105 0.087902673
0.66749185 -0.11518862 0.087462537
0.67064512 -0.115532 0.087418184
0.67338431 -0.11575817 0.087352023
0.67643905 -0.11535726 0.087435998
0.6794911 -0.11532624 0.087406516
0.68185991 -0.1150624 0.08718887
0.6856842 -0.11554512 0.08685343
0.68916702 -0.11541932 0.08678057
0.69257802 -0.11487132 0.086896852
0.69482005 -0.11530042 0.087054871
0.69756478 -0.11546159 0.087249212
0.70108384 -0.11543151 0.087332189
0.70342153 -0.11608401 0.087239057
0.70676178 -0.11505115 0.087206967
0.71049082 -0.11509237 0.087201342
0.71297252 -0.11480173 0.087052718
0.71558094 -0.11389281 0.087133221
0.49681365 -0.11159435 0.08598689
0.49990487 -0.11213659 0.085955009
0.50237244 -0.11235929 0.086081907
0.50535464 -0.11378004 0.086243071
0.50816989 -0.11179374 0.086405218
0.51041543 -0.11239731 0.086514853
0.51415443 -0.11215337 0.086737186
0.51726025 -0.11278198 0.086924538
0.52118242 -0.11244303 0.086898625
0.5236575 -0.11187556 0.086936198
0.52685875 -0.11273441 0.087361991
0.52954847 -0.11250574 0.087385647
0.53265387 -0.11238933 0.087197058
0.53563994 -0.11148842 0.087169193
0.53859067 -0.11213201 0.086885139
0.54224777 -0.11282003 0.086957291
0.5438838 -0.11229941 0.087033369
0.54747844 -0.11239861 0.087289289
0.55070949 -0.1121321 0.087645575
0.55641723 -0.11358502 0.087418586
0.55955642 -0.11235535 0.087174855
0.56168705 -0.11218938 0.086566128
0.56563926 -0.11252186 0.086637408
0.56876904 -0.11173085 0.086827137
0.57119358 -0.11245998 0.086844407
0.57503951 -0.11248823 0.086100601
0.57762134 -0.11212777 0.085929066
0.5807147 -0.11309703 0.086069882
0.58304125 -0.11228209 0.086539283
0.58645189 -0.11241529 0.087128289
0.59045637 -0.1122082 0.086958505
0.59354705 -0.11305969 0.086714134
0.59833956 -0.11276285 0.086440951
0.60085148 -0.11296132 0.086183436
0.60469478 -0.1118066 0.086269513
0.60740298 -0.11214571 0.086670689
0.61084408 -0.11225092 0.086833499
0.61234993 -0.11247668 0.087150559
0.6159932 -0.11226755 0.087152287
0.61909777 -0.11247772 0.08719822
0.62274146 -0.11231432 0.087230377
0.62495005 -0.11207344 0.087097906
0.62829608 -0.11295788 0.087075427
0.63144684 -0.11232825 0.087173037
0.63569754 -0.11348394 0.087400384
0.63731652 -0.11113054 0.087675102
0.64049441 -0.11242451 0.087297767
0.64440203 -0.11192004 0.086991571
0.64663112 -0.11292061 0.087179109
0.64921862 -0.11297003 0.087338135
0.65192956 -0.11299393 0.087555893
0.65520281 -0.11160466 0.087615617
0.65899032 -0.11239702 0.087214857
0.66141087 -0.11251076 0.087153025
0.66426623 -0.11264607 0.087007582
0.6675365 -0.11244817 0.087241821
0.6700561 -0.11316024 0.087291241
0.67358935 -0.11371961 0.08758375
0.67695689 -0.11267035 0.08785747
0.67928904 -0.11226259 0.087880351
0.68277216 -0.11244049 0.087590277
0.6855647 -0.11257455 0.087352224
0.68853569 -0.11240713 0.08722423
0.69101208 -0.11366066 0.087044157
0.69475824 -0.11191682 0.087207519
0.69824737 -0.11286763 0.087134905
0.70062089 -0.11184621 0.087228604
0.70475006 -0.11364117 0.087209113
0.70700973 -0.11159024 0.087539203
0.70899475 -0.1128419 0.087554365
0.71210963 -0.11244534 0.087919809
0.71559751 -0.11238071 0.088073261
0.72215533 -0.11230087 0.087720737
0.72569513 -0.11325841 0.087026812
0.47969532 -0.10778354 0.085136838
0.48226073 -0.10835549 0.084830642
0.49167582 -0.10852993 0.086047232
0.49419743 -0.10983318 0.086162098
0.49640533 -0.1087817 0.08656694
0.49929222 -0.10955856 0.086372599
0.50226855 -0.10807953 0.08655908
0.5049606 -0.1096848 0.086502358
0.50864881 -0.10859439 0.086780265
0.51143837 -0.11020504 0.086659826
0.51583242 -0.10929173 0.086879663
0.5183894 -0.11090582 0.087047972
0.52019572 -0.10883515 0.087205097
0.52272046 -0.10940696 0.087476499
0.52671826 -0.10926027 0.087694094
0.52980995 -0.10923123 0.087676756
0.53341001 -0.10969114 0.08746203
0.53430414 -0.10922077 0.087379798
0.53796721 -0.10867025 0.087686174
0.54163486 -0.10979909 0.087840706
0.54503202 -0.10938626 0.087732516
0.54713988 -0.10936667 0.08776661
0.55234694 -0.10976017 0.087838538
0.5552156 -0.11027823 0.087960601
0.56016821 -0.10893394 0.086966649
0.56271088 -0.10920316 0.086734861
0.56550711 -0.1091809 0.087014966
0.57159233 -0.10899088 0.087383144
0.57431495 -0.10935294 0.08682254
0.57740808 -0.10923977 0.08638259
0.58094859 -0.10955898 0.086509056
0.584234 -0.10971598 0.087103434
0.5864771 -0.10851882 0.087155417
0.58844501 -0.1099493 0.087073728
0.59244663 -0.10867739 0.086112842
0.59590751 -0.10929561 0.086079784
0.60160857 -0.1094202 0.086490616
0.6040954 -0.10893104 0.086933583
0.60680598 -0.10938316 0.086915597
0.6102733 -0.10940585 0.087068088
0.61394483 -0.10965899 0.087026402
0.61716634 -0.10988507 0.087117165
0.61934906 -0.10954536 0.087309413
0.62146235 -0.1093716 0.087216325
0.62542009 -0.10947303 0.087193467
0.62822098 -0.10908824 0.087068498
0.63065958 -0.10999399 0.087044917
0.63443202 -0.10956109 0.087735645
0.63841313 -0.10882504 0.087866567
0.64116555 -0.10971505 0.08744999
0.64369828 -0.10890048 0.087301314
0.64654493 -0.11000819 0.087174028
0.64985472 -0.10929435 0.087362513
0.65230089 -0.1095277 0.087555446
0.65552002 -0.10881901 0.087528914
0.66133076 -0.10961022 0.086901255
0.66514373 -0.10961627 0.086739443
0.66782933 -0.10930653 0.087019689
0.67065662 -0.11031239 0.087393656
0.67366016 -0.10943328 0.087841988
0.67669225 -0.10875773 0.08798065
0.67971545 -0.1097113 0.087968841
0.68661481 -0.1106796 0.087495349
0.68839175 -0.11036779 0.087438993
0.69259918 -0.11005533 0.087281771
0.69433767 -0.10833753 0.087186709
0.69692278 -0.10963968 0.087043159
0.70085257 -0.10913079 0.086984292
0.70444614 -0.10943754 0.087135077
0.70710218 -0.1091074 0.087728217
0.70939553 -0.10946922 0.088107213
0.7126863 -0.10956624 0.088577703
0.7153793 -0.10934399 0.088911608
0.71852726 -0.10926946 0.089181207
0.724015 -0.1085237 0.08873865
0.72644615 -0.10976774 0.087509058
0.47336072 -0.10630425 0.084710397
0.47538283 -0.10674011 0.085042775
0.47824237 -0.10690692 0.085317969
0.4805325 -0.10700978 0.085243411
0.48774233 -0.10465065 0.086102448
0.48971206 -0.10642913 0.086106971
0.49288458 -0.10611096 0.086774975
0.49662566 -0.10587146 0.08705008
0.49972916 -0.10668099 0.086802565
0.50314528 -0.10583845 0.086868852
0.50588572 -0.10602787 0.087064326
0.50754952 -0.10628794 0.087186858
0.51128656 -0.10668878 0.08722014
0.51473594 -0.10562355 0.08736068
0.51778907 -0.10636963 0.087338261
0.52135128 -0.10640518 0.087795354
0.52392095 -0.10701792 0.08782398
0.52604932 -0.10593373 0.088098496
0.52925396 -0.1064764 0.088010713
0.53241426 -0.10644583 0.087809592
0.53546411 -0.10720588 0.087841995
0.53948438 -0.10619339 0.088280894
0.54245526 -0.10601845 0.08818379
0.54404384 -0.10682941 0.088072233
0.54777682 -0.10608575 0.087925449
0.55024558 -0.1064886 0.087880127
0.55400586 -0.10611413 0.087960318
0.55602056 -0.10690952 0.087832868
0.55965972 -0.10613608 0.087300256
0.56147492 -0.10625116 0.086997546
0.56540203 -0.10605204 0.087507538
0.56811386 -0.10674332 0.087756835
0.57158011 -0.10579763 0.08787214
0.57458276 -0.10681448 0.087239675
0.57693315 -0.10646936 0.08682555
0.58036566 -0.10653644 0.086932063
0.58656371 -0.10635987 0.087327279
0.59002256 -0.10660227 0.086645573
0.59224504 -0.10649437 0.086116359
0.59516782 -0.1062246 0.086023115
0.5981127 -0.10610033 0.086522765
0.60198486 -0.10658477 0.086886272
0.60508746 -0.10658363 0.086963907
0.60792589 -0.10697696 0.086987436
0.61029822 -0.1060388 0.086816691
0.61305892 -0.10669021 0.087135658
0.61610901 -0.10620616 0.087436832
0.61948979 -0.10697436 0.087639116
0.62272996 -0.10690384 0.08744517
0.62499642 -0.10671508 0.087381743
0.62721336 -0.10583093 0.087168507
0.63095224 -0.10628954 0.087206706
0.63513386 -0.10647927 0.087826572
0.63866496 -0.10614049 0.08776769
0.64058924 -0.10580088 0.087796353
0.64431942 -0.1060464 0.087554425
0.64710844 -0.10720839 0.087329052
0.65001929 -0.10677638 0.087480836
0.65266144 -0.10604506 0.087376319
0.6563738 -0.10517429 0.087220058
0.65868253 -0.1064005 0.087189808
0.66191149 -0.10659575 0.086993434
0.66423845 -0.10680054 0.086798571
0.6678248 -0.10620087 0.087131068
0.67056447 -0.10573851 0.087284528
0.67344463 -0.10653493 0.087631971
0.67719692 -0.10609826 0.08773049
0.67966849 -0.10683049 0.087751336
0.68343449 -0.10565114 0.087837733
0.68992263 -0.10535558 0.087896645
0.69241822 -0.10695486 0.087613776
0.69724452 -0.10602964 0.087164044
0.69949889 -0.10738708 0.087103531
0.70358068 -0.10642605 0.087337732
0.70683521 -0.10634771 0.088030353
0.70971686 -0.10713836 0.088602141
0.71312815 -0.10635188 0.089187518
0.7154898 -0.1066668 0.089514472
0.71853173 -0.10604894 0.089437552
0.72185957 -0.10739414 0.089254878
0.72500551 -0.10537281 0.088844374
0.72828215 -0.10719651 0.088272691
0.47519416 -0.10321094 0.08516968
0.47882688 -0.10383113 0.085546568
0.4819715 -0.10215639 0.086038388
0.4848406 -0.1028025 0.086333252
0.48839584 -0.10320766 0.086563833
0.49041212 -0.10365646 0.086863428
0.49366397 -0.10318108 0.087244965
0.49663338 -0.10356104 0.087170519
0.49965248 -0.10236856 0.087349579
0.50208795 -0.10354049 0.087270498
0.50542104 -0.10314722 0.087775216
0.50855774 -0.10362837 0.087980293
0.51197332 -0.10345307 0.087804303
0.51530963 -0.10276322 0.087919548
0.51712507 -0.10317792 0.087982409
0.52020437 -0.10341638 0.088161118
0.52341169 -0.10402926 0.088406242
0.52625394 -0.10319827 0.088533916
0.52934736 -0.10399045 0.088405594
0.53532445 -0.10370607 0.088126808
0.53836173 -0.10349708 0.08828897
0.54132193 -0.1039544 0.08802744
0.54450524 -0.10356954 0.087939367
0.54810756 -0.10323789 0.087749973
0.55048943 -0.1037271 0.087922782
0.55297822 -0.10427354 0.087986298
0.55568099 -0.10340673 0.088043533
0.55951208 -0.10304981 0.087632634
0.56271666 -0.10345615 0.087534867
0.56521356 -0.10403829 0.087752223
0.56867087 -0.10374609 0.088160865
0.57127202 -0.10252824 0.088009521
0.5743314 -0.10308882 0.087410636
0.5776853 -0.10352415 0.087122008
0.58057535 -0.10370251 0.087312214
0.58405197 -0.10358784 0.087450251
0.58634502 -0.10312502 0.087291196
0.58933538 -0.10306343 0.086886339
0.59244841 -0.10339047 0.086258508
0.59561485 -0.10297728 0.086683415
0.59886283 -0.10320987 0.086773604
0.60187048 -0.1034876 0.086893633
0.60371011 -0.10295589 0.086799614
0.60700256 -0.1035584 0.086713217
0.61013383 -0.10390092 0.086845435
0.61414045 -0.10338419 0.087379612
0.61652678 -0.10341221 0.087754779
0.61812747 -0.10401343 0.087871686
0.62208945 -0.10254639 0.087946028
0.62471253 -0.10367748 0.087631054
0.62866551 -0.1033325 0.087407455
0.63234299 -0.10368899 0.087537065
0.63578588 -0.10421308 0.087551199
0.6372416 -0.10400984 0.087746903
0.64269304 -0.10404756 0.087518603
0.64563632 -0.10373614 0.087516859
0.64949387 -0.10442767 0.087404676
0.65245533 -0.10290989 0.087196715
0.65474093 -0.10406829 0.087188803
0.65844893 -0.10291603 0.087082215
0.66060859 -0.10347186 0.087085955
0.66455352 -0.10259289 0.087333962
0.6669029 -0.10407288 0.0873136
0.67206973 -0.10304923 0.08742597
0.67630553 -0.10364226 0.087353595
0.67900991 -0.10366455 0.0873615
0.68209994 -0.10363284 0.08762195
0.68789828 -0.10354637 0.087853119
0.69132358 -0.10258562 0.087809093
0.69398326 -0.10425054 0.087651983
0.69790691 -0.10296424 0.087380491
0.70085406 -0.10330985 0.087504536
0.70312858 -0.10222034 0.088417217
0.70528185 -0.10371654 0.088540763
0.70938176 -0.10397385 0.089288585
0.71258819 -0.10363139 0.089514494
0.71562052 -0.10370733 0.089627065
0.71858484 -0.1038641 0.089372352
0.72102833 -0.10292637 0.089130126
0.72446781 -0.10299129 0.088675253
0.72795492 -0.10343479 0.088472113
0.73056203 -0.10322924 0.088385023
0.73397404 -0.10337602 0.087819919
0.47834811 -0.099817097 0.085675962
0.48182145 -0.10003629 0.086268641
0.48462069 -0.099465854 0.086836301
0.48723713 -0.10066694 0.086870775
0.49036074 -0.10078257 0.087158099
0.49385995 -0.10009866 0.087274849
0.49651757 -0.10087103 0.087267235
0.49961653 -0.099985927 0.087588817
0.50305301 -0.10028911 0.087957017
0.50597727 -0.099881902 0.088638186
0.50821799 -0.10090833 0.088734634
0.51178735 -0.10025755 0.088832654
0.51432818 -0.10053108 0.088471957
0.51729757 -0.10064191 0.088533297
0.52050775 -0.10110254 0.088652395
0.52327579 -0.10044022 0.088870741
0.52738631 -0.10049558 0.088915065
0.52955562 -0.10029771 0.088820793
0.53232956 -0.10125924 0.088393085
0.53572816 -0.10057162 0.08811029
0.53856355 -0.10019869 0.087634921
0.54166859 -0.10084517 0.087603882
0.54435748 -0.10037269 0.087537475
0.5468263 -0.10069081 0.0875443
0.55039078 -0.10062448 0.088087671
0.55365688 -0.10079973 0.088246144
0.55671233 -0.10037493 0.088329479
0.56214148 -0.10049713 0.087663613
0.56521976 -0.10042608 0.087897152
0.5681982 -0.10019311 0.088173635
0.57192779 -0.1005767 0.087958239
0.57458985 -0.10043975 0.087758742
0.57787365 -0.10022865 0.087323919
0.58063245 -0.10046342 0.087435693
0.58323371 -0.10032399 0.087597445
0.5861513 -0.10053609 0.087445118
0.58931971 -0.10006048 0.086954869
0.5926218 -0.10094042 0.086544544
0.59489143 -0.099961519 0.08661177
0.59822226 -0.10073718 0.086885139
0.60142589 -0.099883728 0.086799741
0.60499018 -0.10038036 0.086773008
0.60771322 -0.10103111 0.086564489
0.61054957 -0.10015227 0.086766481
0.61245596 -0.10077581 0.087061159
0.61718929 -0.099678859 0.08804325
0.61965096 -0.10109908 0.088134192
0.62362885 -0.10066348 0.087810516
0.62586576 -0.10089213 0.087730482
0.62716872 -0.099212408 0.087514654
0.63040173 -0.10133266 0.087483726
0.63417596 -0.10081898 0.087404795
0.63736039 -0.1014825 0.087153412
0.64175189 -0.10041425 0.08700864
0.64442784 -0.10161179 0.087287232
0.64625293 -0.099750325 0.087398812
0.64947039 -0.10071822 0.087290011
0.65265483 -0.10013759 0.087143205
0.65551192 -0.10092115 0.086946256
0.65884882 -0.099527888 0.0870829
0.66118824 -0.10056913 0.087327614
0.67004174 -0.1017088 0.087536827
0.67380643 -0.10060108 0.087329209
0.67755872 -0.10078603 0.087303564
0.680305 -0.10091392 0.087494947
0.6820637 -0.099491097 0.08767423
0.68622094 -0.10061133 0.087649509
0.68846011 -0.10092287 0.087773897
0.69296801 -0.10032896 0.087994173
0.69561356 -0.10198179 0.087537639
0.69769913 -0.099626191 0.088143148
0.70032966 -0.10044525 0.088275313
0.70371497 -0.10059848 0.089081496
0.70667905 -0.10162818 0.089365713
0.70916682 -0.10059276 0.089756235
0.71235168 -0.099980399 0.089454584
0.715312 -0.1002421 0.089179672
0.7186836 -0.10116882 0.089051843
0.72186673 -0.10021766 0.088593669
0.7246061 -0.10082441 0.08844889
0.72706324 -0.099731818 0.088245489
0.72979116 -0.10085855 0.088227786
0.73370469 -0.1009513 0.087708808
0.73624933 -0.10041437 0.087100826
0.47902462 -0.096998528 0.086383864
0.48125502 -0.096722849 0.086762309
0.48460397 -0.097427808 0.087126508
0.48727885 -0.097953588 0.087239012
0.49043584 -0.098153614 0.087274618
0.49363691 -0.097167179 0.087426223
0.49648938 -0.097190179 0.087676592
0.49959898 -0.096848898 0.087803192
0.50233483 -0.09725491 0.088338062
0.50545192 -0.097566299 0.089193724
0.50882882 -0.098074906 0.089350387
0.51227707 -0.097567633 0.089171112
0.51435626 -0.097277172 0.088964835
0.51695323 -0.097697608 0.088872097
0.51998943 -0.097776979 0.088954829
0.52365738 -0.09744636 0.089139573
0.52642334 -0.098293483 0.089068808
0.52949756 -0.097292848 0.088825442
0.53282875 -0.098023109 0.088418581
0.53547513 -0.096705876 0.087968424
0.53814375 -0.097160399 0.087734737
0.54110849 -0.097981118 0.08753407
0.5447064 -0.097118191 0.087624297
0.54772907 -0.09816616 0.087845996
0.55030757 -0.096823461 0.088612415
0.55322164 -0.097725973 0.088699698
0.55638301 -0.096977465 0.088653259
0.55939895 -0.098149292 0.088181019
0.56287366 -0.097898468 0.087892503
0.56502849 -0.097161695 0.088086769
0.56849545 -0.096969478 0.088109568
0.571796 -0.097218193 0.08803121
0.57375258 -0.097423241 0.087879956
0.57751924 -0.097288944 0.087831095
0.58123356 -0.097647354 0.087828465
0.58388662 -0.09753792 0.087786302
0.58653736 -0.097644262 0.087362461
0.58928609 -0.097303584 0.0869762
0.59239471 -0.097547233 0.086731799
0.59570479 -0.097510405 0.086807117
0.59919554 -0.097536549 0.086975247
0.60147345 -0.097288296 0.087002613
0.60426277 -0.096916996 0.087076768
0.60692286 -0.097250856 0.087010182
0.61061829 -0.096784778 0.087074876
0.6140871 -0.097584188 0.087507173
0.6188246 -0.096778117 0.088099733
0.62130845 -0.098206729 0.08801806
0.62511289 -0.097629823 0.087568603
0.62859935 -0.097043887 0.087336913
0.63086635 -0.098372251 0.087367862
0.63587099 -0.09738642 0.086835638
0.63773078 -0.097457141 0.086904913
0.6406765 -0.097949818 0.086791538
0.64385819 -0.097391844 0.086951584
0.6467852 -0.09771511 0.087393373
0.64957356 -0.098011158 0.087399669
0.65220225 -0.097521581 0.087359339
0.6555953 -0.097412609 0.087079607
0.65826219 -0.097843729 0.087201387
0.6612516 -0.097078152 0.08781597
0.66628098 -0.096131355 0.088516384
0.67102295 -0.097569689 0.087762184
0.67288911 -0.096604839 0.087675683
0.67577511 -0.098047458 0.08749488
0.68023038 -0.098273784 0.087634221
0.68294621 -0.097787142 0.087587915
0.68614155 -0.096815281 0.087550126
0.68894893 -0.097316928 0.087794445
0.69130599 -0.097293437 0.088044077
0.69473565 -0.097778782 0.08840704
0.69740361 -0.097079135 0.088696964
0.69993734 -0.097441681 0.088903852
0.70258689 -0.097547278 0.089407049
0.70584786 -0.097674146 0.089747801
0.70957702 -0.097824305 0.089616142
0.71298325 -0.097608671 0.089187071
0.7146349 -0.096470632 0.088853002
0.71861106 -0.097265631 0.088155366
0.72195792 -0.097956501 0.088029221
0.72443104 -0.097723208 0.087946706
0.72777241 -0.097508594 0.087874442
0.73038369 -0.097687021 0.08780884
0.73325324 -0.096943729 0.087467857
0.73707187 -0.096991435 0.086823545
0.73967701 -0.098456971 0.086383231
0.47030067 -0.092820778 0.085629523
0.47265318 -0.093911991 0.086084507
0.47554168 -0.094133936 0.086440019
0.47920007 -0.093864799 0.08690843
0.48219833 -0.094441183 0.087185763
0.48483378 -0.095448554 0.087258086
0.48744518 -0.094396181 0.087354556
0.4905813 -0.094273694 0.087402366
0.4937222 -0.09381751 0.087682284
