# .PCD v0.7 - Point Cloud Data file format
VERSION 0.7
FIELDS x y z
SIZE 4 4 4
TYPE F F F
COUNT 1 1 1
WIDTH 360
HEIGHT 1
VIEWPOINT 0 0 0 1 0 0 0
POINTS 360
DATA ascii
0.086893402 0.057882033 0.74965012
0.086577117 0.061002869 0.74974996
0.076681405 0.047307588 0.75784999
0.084086098 0.048617784 0.75371438
0.09086559 0.049237121 0.75358337
0.069443241 0.057656169 0.75962502
0.07517074 0.055165216 0.75649315
0.084303983 0.054658797 0.75120157
0.094508938 0.055762742 0.75195366
0.10063144 0.059047233 0.75266671
0.069454663 0.060156226 0.75975001
0.075231589 0.062334936 0.75665003
0.084670961 0.063776806 0.75105196
0.094711848 0.064669639 0.75213897
0.10222678 0.06573762 0.75330001
0.067766301 0.048276752 0.768875
0.071667321 0.047516588 0.76566672
0.085326836 0.046732362 0.76418757
0.092090599 0.048246585 0.76837504
0.0057296758 0.056769241 0.76864135
0.014986255 0.057475582 0.76832354
0.022098564 0.058673084 0.76933336
0.06760662 0.053988762 0.76655883
0.07088507 0.05098008 0.76325005
0.096165001 0.051921949 0.76075006
0.10204045 0.057771116 0.76112503
0.006676184 0.063752018 0.7682718
0.015596294 0.064902328 0.76677102
0.023915375 0.065196373 0.76810861
0.069016188 0.061334692 0.76412505
0.075868309 0.06603194 0.76460713
0.084756933 0.068747289 0.76296437
0.10707211 0.065531567 0.76437497
0.017192613 0.071409091 0.76853579
0.023689512 0.071685418 0.76892859
0.084596343 0.070971645 0.76900005
0.097982749 0.071141951 0.76720005
0.009892093 0.019139973 0.77975005
0.015715873 0.015757121 0.77778
0.02440886 0.01469185 0.77657145
0.032524131 0.016360253 0.77644122
0.009892093 0.020843966 0.77975005
0.01603736 0.024798483 0.77644849
0.025015423 0.024880277 0.7728501
0.034358803 0.024909874 0.77381253
0.04160919 0.02686438 0.77652502
-0.011923393 0.038863581 0.77890003
-0.0051062256 0.038161263 0.77848339
0.0013638239 0.039537124 0.77875006
0.017628103 0.031938341 0.77721441
0.02466999 0.034846406 0.77371883
0.034297198 0.034999285 0.77247214
0.044205464 0.035413239 0.77430308
0.051052868 0.038765457 0.77466673
-0.012985722 0.045241222 0.77761954
-0.0045730737 0.04523854 0.77446532
0.0049293018 0.046168704 0.77488393
0.014224152 0.049127828 0.77664292
0.02709276 0.042362325 0.77703583
0.03461007 0.043497421 0.77543491
0.044585209 0.044437993 0.7751416
0.054361727 0.045687843 0.77436662
0.06257242 0.047916897 0.77120006
0.07670863 0.04505698 0.77856255
0.083060056 0.04546424 0.77825004
-0.011254191 0.053471208 0.77632147
-0.0045647095 0.055251863 0.77241659
0.0052406243 0.051958386 0.77076924
0.015857525 0.053099353 0.77220589
0.024358949 0.055936117 0.77613747
0.031629324 0.059182398 0.77750003
0.056990281 0.051755551 0.77483338
0.063223436 0.0547399 0.77115631
0.09841685 0.05183937 0.77187502
0.10273101 0.05610754 0.77258331
-0.0030174956 0.064025402 0.77480274
0.0035568306 0.067598559 0.77178854
0.02808805 0.064654313 0.77100003
0.034030605 0.065837748 0.77393186
0.044231433 0.067679398 0.7752977
0.054646868 0.068860605 0.77360421
0.064839073 0.06608633 0.77408332
0.073831618 0.068168387 0.77372915
0.0071136924 0.072517812 0.77472502
0.014225147 0.074419267 0.77568752
0.02450967 0.074753977 0.77477098
0.034403931 0.072996676 0.77485943
0.04505663 0.072726987 0.77491075
0.054618791 0.073895633 0.77321881
0.061876483 0.073261626 0.77347225
0.085160397 0.075077176 0.7741608
0.094864719 0.075867757 0.77245146
0.016134243 -0.0022806865 0.78852779
0.023516933 -0.0024725692 0.7886458
0.0075706122 0.0054687643 0.78688753
0.014924227 0.0045366804 0.78416938
0.02451962 0.0046726116 0.78389585
0.031184601 0.0055480204 0.78630561
0.0073672878 0.014566576 0.78386366
0.012750141 0.011770622 0.78075004
0.03420328 0.013130134 0.78403574
-0.014567142 0.0265256 0.78738886
-0.0063699367 0.027395057 0.78751564
0.008867031 0.023728754 0.78346884
0.011627142 0.028586706 0.78175002
0.044127855 0.026889395 0.78200006
-0.021579521 0.036525924 0.78730559
-0.015373539 0.034900188 0.78319353
-0.0042540291 0.033406366 0.78329766
0.0034872899 0.037189789 0.78457701
0.015907448 0.034582306 0.78215635
0.020735726 0.039103966 0.78141671
0.048711244 0.032217801 0.78700006
0.052285001 0.037471205 0.78900003
-0.021392751 0.042894818 0.78568751
-0.017996615 0.045640454 0.78125
0.0077910037 0.042294677 0.78259385
0.013182593 0.045702945 0.78408337
0.023285581 0.044193063 0.78290004
0.035314299 0.048026867 0.78400004
0.056598838 0.041781723 0.78900003
0.065361321 0.046313059 0.78543758
0.072212934 0.046073731 0.78375006
0.08700157 0.046335887 0.78825003
0.095477879 0.049124815 0.78237504
-0.014861597 0.054879647 0.78396672
0.027119147 0.054707702 0.78483337
0.032333948 0.057674248 0.78625005
0.049696703 0.050402761 0.78900003
0.055665512 0.053274252 0.78555006
0.062410366 0.057950169 0.78612506
-0.011210069 0.060979772 0.78458333
-0.0068414188 0.06535776 0.78225005
0.018758167 -0.031704009 0.79412508
0.02044329 -0.031621985 0.79212505
0.016801981 -0.022599654 0.79879546
0.023782285 -0.02417344 0.79904801
0.0054445816 -0.013236964 0.79834098
0.014256897 -0.014655744 0.79669857
0.025140366 -0.014663989 0.79719853
0.031079834 -0.01355436 0.79835004
0.0048628077 -0.0048092827 0.79460996
0.013959209 -0.0062208157 0.79179347
0.025117654 -0.0066958903 0.79198754
0.030867662 -0.0048014754 0.79290009
-0.021323623 0.0091389837 0.79925007
-0.016949292 0.0091368398 0.79906255
0.0038842629 0.003477178 0.79116672
0.034318469 0.0090618012 0.79250002
-0.024427559 0.015623487 0.79695374
-0.015125383 0.01516415 0.7950694
-0.0054017538 0.017308857 0.7975626
0.0027547693 0.016688164 0.79836118
0.039393369 0.019391572 0.79000002
-0.024540184 0.025409389 0.79394835
-0.016288523 0.021898799 0.79050004
-0.0032918924 0.023893602 0.79343748
0.0043949652 0.026034083 0.79425007
0.010050671 0.02983466 0.79225004
0.044111256 0.024699312 0.79400003
-0.024898836 0.034669567 0.79315388
0.0060102036 0.033878691 0.79235005
0.012333238 0.035919659 0.79279697
0.04859437 0.030098269 0.79925007
-0.023134567 0.04486056 0.79387504
0.015822455 0.043098651 0.79210716
0.023796478 0.046643421 0.79142118
0.031764124 0.048963897 0.793625
0.06191355 0.044466987 0.79075003
0.026419567 0.051841531 0.7918182
0.0075468058 -0.031154308 0.80237502
0.01718579 -0.032446522 0.80181259
0.023598745 -0.032859694 0.80119443
0.0060260738 -0.024681371 0.80176145
0.013532306 -0.026009865 0.80150014
0.029513892 -0.023292769 0.80325001
0.031922534 -0.021282939 0.80483341
0.0033714473 -0.017745949 0.80062509
0.031144068 -0.018824374 0.80000001
-0.024664238 -0.0026820034 0.80843759
-0.015548473 -0.0034765112 0.80803758
-0.0044339811 -0.0024448952 0.80871159
-0.030373693 0.0074663148 0.80750006
-0.02510496 0.0046460475 0.80443972
-0.015060772 0.0042418293 0.80324996
-0.0047512003 0.0047999043 0.8047778
0.0014068036 0.0047953711 0.80329174
0.033628386 0.0045083337 0.80358338
-0.030270251 0.015358978 0.80475003
-0.027802533 0.011495943 0.80124998
-0.0038529439 0.012660919 0.80114067
0.0018396404 0.013091296 0.80068749
0.037361622 0.014429918 0.80200005
0.041106194 0.018920068 0.80662501
-0.030425411 0.022507027 0.80887502
0.053208947 0.035940375 0.80293751
0.018148476 -0.043328892 0.8188889
0.024669556 -0.043348916 0.81736261
0.032634038 -0.042771038 0.81853575
0.018438086 -0.038040631 0.81850004
0.026681209 -0.036357462 0.81557894
0.035271011 -0.035480563 0.81787509
-0.021417625 -0.021523535 0.81956255
-0.016189123 -0.021672284 0.81954169
-0.00035704707 -0.021074077 0.81950003
0.001430592 -0.02190173 0.81687504
0.028330436 -0.028248768 0.81334376
0.034105182 -0.026889671 0.81584376
-0.023964135 -0.014314237 0.81775004
-0.015123087 -0.01451213 0.81630301
-0.0048203785 -0.014752948 0.8161388
0.033551533 -0.015625041 0.81599998
-0.030806258 -0.0013737858 0.81900007
-0.025632991 -0.0069618067 0.81217313
-0.015077216 -0.0077431104 0.81120002
-0.0050508701 -0.006785396 0.81130886
0.033664603 -0.0022687961 0.81875002
-0.030630723 0.0021900833 0.81433338
0.034487948 0.0030987957 0.81700003
0.018617243 -0.051956318 0.82643759
0.025350733 -0.054918248 0.8256548
0.034796648 -0.05514418 0.82655185
0.043112382 -0.052905116 0.8282308
0.014862146 -0.044618547 0.82213342
0.024774361 -0.048912194 0.8208251
0.035747461 -0.046776082 0.82153565
0.042637669 -0.045038443 0.82440388
-0.015618335 -0.030081047 0.82093757
0.0082104038 -0.03518755 0.82500005
0.013031288 -0.035632733 0.82258332
0.039453577 -0.032129854 0.82750005
0.041001517 -0.038213141 0.82225001
-0.023711957 -0.02231586 0.82133341
-0.013431451 -0.025198961 0.82050008
-0.0054587577 -0.023462437 0.82059211
0.001436065 -0.025566816 0.82000005
0.035801634 -0.021260517 0.82675004
-0.027309561 -0.016638905 0.82156253
0.034828637 -0.014930024 0.82500005
-0.031088367 -0.0040983325 0.82650006
0.03373656 -0.0067559821 0.82050008
0.036346179 -0.071107544 0.83933336
0.042786323 -0.071132258 0.839625
0.027616225 -0.062790394 0.83441669
0.035383664 -0.065109417 0.83451718
0.045337878 -0.065338597 0.83585
0.051718514 -0.064172976 0.83771431
0.016028104 -0.050531846 0.83275002
0.023402596 -0.059264053 0.83616668
0.038677089 -0.0594519 0.83025002
0.046517856 -0.056472238 0.83195597
0.051372338 -0.057658032 0.83491677
-0.012296217 -0.041756175 0.83925009
-0.0049530952 -0.041752025 0.8391667
0.0057421648 -0.042007398 0.83816671
0.011964714 -0.04611697 0.83518755
0.046420388 -0.045222916 0.83565009
-0.021304797 -0.033911459 0.83663899
-0.014837454 -0.03596257 0.83591658
-0.0056950403 -0.036961447 0.83714128
0.0045089847 -0.037582524 0.83609998
0.03964429 -0.030468082 0.83150005
0.042380981 -0.036077939 0.83525008
-0.00036281996 -0.026874254 0.83275002
0.038529661 -0.026902242 0.83358335
-0.028763305 -0.017881908 0.83775002
0.036218435 -0.016936915 0.83637506
-0.031398684 -0.0077867657 0.83475006
0.046678308 -0.081532545 0.84920835
0.053461086 -0.081179209 0.84875005
0.036558125 -0.074162602 0.84425008
0.04514502 -0.075780854 0.84415394
0.054972004 -0.075198866 0.84576052
0.060889482 -0.072839499 0.84881252
0.027458167 -0.06630677 0.84833336
0.03108466 -0.069823563 0.84600002
0.056052811 -0.065798447 0.84300005
0.060920864 -0.068235926 0.84925002
-0.012726582 -0.052668553 0.84758335
-0.0054671615 -0.053070676 0.84784377
0.0014868525 -0.051517908 0.84900004
0.018078169 -0.054880116 0.84375
0.053767364 -0.054953761 0.8448
-0.020677837 -0.041086026 0.84425002
-0.015036358 -0.045740314 0.84338099
-0.0049728681 -0.046528485 0.84256244
0.0037598084 -0.046204865 0.84571165
0.048265669 -0.044780269 0.8444584
0.05151277 -0.049560212 0.84725004
-0.01874225 -0.039969724 0.84025002
0.043993875 -0.03512761 0.84512502
-0.026341144 -0.023667093 0.84825003
0.038422879 -0.022639655 0.84462506
0.040802106 -0.026377302 0.84606254
0.047123399 -0.084247291 0.85162503
0.055910219 -0.085966989 0.85523874
0.063519396 -0.084305361 0.85730773
0.05918527 -0.079534717 0.85100001
0.063767731 -0.076179437 0.85357141
-0.0017744267 -0.06174691 0.85575002
0.0021295149 -0.062100898 0.85850006
0.022899486 -0.06188523 0.85125005
0.059289593 -0.061045162 0.85250002
0.061800946 -0.065891318 0.85500008
-0.015411193 -0.054030292 0.85944998
-0.0040976489 -0.057707686 0.85186541
0.0041748579 -0.054896113 0.8527813
0.016399708 -0.054494411 0.852
0.020137051 -0.059182186 0.85250002
0.056725282 -0.054747239 0.85600001
-0.021760933 -0.042315908 0.85050005
-0.019071257 -0.048145115 0.85500002
0.0076941461 -0.048535537 0.85091668
0.011433132 -0.049232066 0.85225004
0.04902776 -0.042408381 0.85237503
0.051393408 -0.045677427 0.85558337
-0.024219606 -0.034935091 0.8519001
0.045008823 -0.033730332 0.85275006
0.054728597 -0.091840819 0.8689
0.065780342 -0.091484912 0.86433339
0.07144741 -0.090216331 0.86425006
0.039327014 -0.080796435 0.86450005
0.045176618 -0.086422548 0.86785001
0.067647487 -0.085852034 0.8617956
0.071380243 -0.085414663 0.86343753
0.02977873 -0.071123473 0.86175007
0.034503989 -0.075860105 0.86206257
0.067566618 -0.075467393 0.86293757
-0.005300174 -0.063067377 0.86489999
0.027910277 -0.06928046 0.86225003
0.063865393 -0.066113085 0.86393756
-0.0097901095 -0.059772275 0.86100006
0.0071934685 -0.057219788 0.865125
0.01384823 -0.054047417 0.86725008
0.057444625 -0.052600659 0.86687505
0.060072009 -0.058075625 0.86375004
-0.022030132 -0.044718787 0.86100006
0.053013179 -0.045352001 0.86418754
-0.024882946 -0.039120615 0.86200005
0.06679786 -0.095452793 0.87766671
0.072943464 -0.093922451 0.87770003
0.073949695 -0.085700236 0.87595004
0.068352289 -0.07204815 0.87300009
0.071044512 -0.076338373 0.87479168
-0.011801903 -0.060431782 0.87050003
-0.0041914727 -0.065111101 0.8736667
0.0048117894 -0.064009063 0.87478578
0.024526374 -0.066571213 0.87625003
0.065750085 -0.065088533 0.87460715
-0.016572241 -0.055711776 0.87106258
0.058957651 -0.052153062 0.87525004
0.061913662 -0.05461558 0.87643749
0.049810041 -0.092147484 0.88275003
0.053655967 -0.094049923 0.88250005
0.07528922 -0.08292266 0.88725007
0.072694302 -0.074021712 0.88518751
0.067819692 -0.063830279 0.88595009
0.071589492 -0.069526121 0.88950002
0.0092760865 -0.058438461 0.88350004
0.074793324 -0.075656109 0.89287508
