0.37380600000000003 0.234594 0.0025582500000000002 -0.13903952279038545 -0.76114438682633301 0.63350393329874977
0.32173000000000002 0.22992899999999999 0.23929900000000001 -0.36672330672396253 -0.0091956663693600529 -0.93028461022714226
0.31998500000000002 0.22963500000000001 0.23974699999999999 -0.19707739386935202 -0.017387682198574859 -0.98023373199121533
0.31806600000000002 0.22941300000000001 0.239921 0.029425310213862892 0.0085079090552119176 -0.99953077321427519
0.314193 0.22895299999999999 0.239339 0.29056635023593125 0.20283966711971124 -0.93510815714190798
0.311977 0.22884499999999999 0.23869499999999999 0.4718348147589278 0.20199167101743865 -0.85823730542373378
0.29341400000000001 0.122139 -0.0032572500000000002 0.058592424358798731 -0.10017792839418529 0.99324282553180721
0.37120300000000001 0.23497699999999999 0.0026615599999999999 -0.16753044346788137 0.11652516107628874 0.97895630001936262
0.369421 0.23485 0.0028256900000000001 -0.12970039647107101 -0.39954515602982255 0.90749185971464863
0.29200700000000002 0.226852 0.239705 0.12798773375701736 -0.19147078518512325 0.97311771046895201
0.29019099999999998 0.22640299999999999 0.24007000000000001 0.013248698933016528 -0.23126003849523319 0.97280176118866346
0.28825099999999998 0.22641500000000001 0.24016499999999999 0.18423210536302626 0.32754434197717763 -0.9267001863559996
0.29000999999999999 0.230851 0.158385 -0.064598008037195939 -0.99212171266966298 -0.10733873768142219
0.365535 0.232599 0.241176 0.032458716609314792 -0.45162564198718619 0.89161690832763962
0.36365799999999998 0.23361499999999999 0.24176700000000001 -0.0058909455205578554 -0.40701552865850493 0.91340224227429578
0.29349799999999998 0.12342599999999999 -0.0030016000000000001 0.044298430757427745 -0.098054684386573943 0.99419461269023113
0.35560599999999998 0.23583000000000001 0.24179200000000001 0.066242655611843781 -0.72128231776626373 0.68946626360918994
0.35302299999999998 0.23500199999999999 0.24169199999999999 -0.079743130032834439 -0.64562293124947445 0.75948144405074369
0.34936 0.23563600000000001 0.24108399999999999 -0.11917141904120798 -0.66604334454389302 0.736331743219379
0.36566700000000002 0.23486399999999999 0.0030101300000000002 0.1141354584527686 -0.81160759187736931 0.57294521023462108
0.36371500000000001 0.235157 0.0031232 0.13076419405844028 -0.97233382295591531 -0.19356565368934037
0.29993500000000001 0.230549 0.15937100000000001 -0.051737392043781201 0.99847410597860309 0.019305490274472696
0.29872199999999999 0.230431 0.15924199999999999 -0.046344152763754844 0.9986834762286021 0.02198940227848151
0.29215600000000003 0.23063500000000001 0.160245 -0.015020200248561297 -0.99709405715218946 -0.074684903268865316
0.36173899999999998 0.23544899999999999 0.0032462400000000001 -0.080740968296029531 -0.93495129632790519 0.34546630737799772
0.35788700000000001 0.23591500000000001 0.00336587 0.16101695378628036 0.98527982629856803 -0.05742128945304123
0.29482999999999998 0.147614 -0.00151071 0.037710129967935414 -0.0097472884706310096 0.99924118032898934
0.35603099999999999 0.23593700000000001 0.0035550500000000001 0.12207407256225403 0.99243607951692958 -0.012982637680077704
0.35161500000000001 0.235905 0.0037546599999999999 -0.13628921174407016 -0.96852398737013745 0.20829435098156274
0.31589699999999998 0.23084299999999999 0.239291 0.15464375184383441 -0.23306409746408921 -0.96008668175790879
0.38050600000000001 0.23477300000000001 0.0041870800000000001 -0.024384581085655915 -0.88302137406836056 0.46869888536639548
0.34679199999999999 0.23702100000000001 0.23959900000000001 -0.11964192444618313 -0.73621893740346334 0.66608369303213577
0.29995699999999997 0.230463 0.16130800000000001 -0.052983802315187949 0.99820483492558332 0.027925333004528152
0.29852499999999998 0.23041700000000001 0.161441 0.037779603220481767 -0.99878430548932506 -0.031664059889873843
0.29658899999999999 0.23030400000000001 0.16203500000000001 0.0023929443652439117 -0.99969667075283841 -0.024512044038725027
0.35787600000000003 0.23637 0.0055843400000000001 -0.069645428761820533 0.98146856154381534 -0.17851884201309481
0.29274299999999998 0.230548 0.161661 0.0019981343999032359 0.99861027400274505 0.052664296397867578
0.35596699999999998 0.23631199999999999 0.0057166300000000003 0.045618783261225163 0.99343588618049483 -0.10490027007849152
0.31740499999999999 0.23281399999999999 0.24013799999999999 -0.29861375704371557 0.616850416978446 0.72823443146953293
0.315529 0.23249 0.23919599999999999 -0.21847836452249855 0.75298578347732037 0.62070896087991168
0.31123600000000001 0.23187099999999999 0.238533 0.078305353770147523 -0.52200904359000011 0.84933787739696709
0.3518 0.23625199999999999 0.0059991000000000003 -0.01992574830194288 -0.99073265211965011 0.1343569000035793
0.29340300000000002 0.33152700000000002 -0.0081557699999999997 0.013215727693272113 0.049574846692302693 0.99868297227747493
0.34945700000000002 0.23627200000000001 0.0060131300000000002 0.034756807492858553 0.99470212085813869 -0.096745310445651378
0.30029699999999998 0.23037199999999999 0.16357099999999999 -0.0587033000347639 0.99705101086084125 0.049428780142783846
0.34741100000000003 0.23633899999999999 0.0060774699999999997 0.014834941358462047 -0.98623575105450323 0.16467837701668903
0.34540399999999999 0.236265 0.0061502800000000002 -0.10350123624330335 0.98972285060326226 -0.098672048168975943
0.29478700000000002 0.23034199999999999 0.16353799999999999 0.0057853830816741777 0.99997597361026802 0.0038185788972942905
0.29364299999999999 0.22995599999999999 0.239763 -0.21946765006118396 -0.064648189404434037 -0.97347550671978922
0.28973399999999999 0.229716 0.240345 -0.032730692693188908 -0.13748708704762722 -0.9899626268960775
0.28856700000000002 0.230153 0.163546 -0.014036451812623311 -0.99573087898584811 -0.091230448067417327
0.286215 0.22989000000000001 0.1638 -0.10558332847471311 0.98643585388506649 0.12568399626937868
0.28429900000000002 0.22959499999999999 0.163967 -0.30799610842202291 0.95057749213687093 0.039253390167814484
0.33263999999999999 0.23315 0.23994099999999999 0.018846171187833799 -0.79288624871729751 0.60907817103108441
0.34147699999999997 0.236125 0.0063047600000000004 -0.036147765702829682 0.9734831207246134 -0.2258848217542761
0.33959800000000001 0.23614099999999999 0.0064603999999999998 -0.024816814305917562 0.97295154556341634 -0.22967240956080234
0.32722000000000001 0.23378399999999999 0.240509 -0.036792458359439686 -0.82050902808854298 0.57044828848289408
0.31484400000000001 0.23364599999999999 0.24016000000000001 -0.23137367480335672 0.72247263000115192 0.65153627796709013
0.31124099999999999 0.23322599999999999 0.23976600000000001 0.25191712198611299 -0.91986911792393378 0.30063028713035161
0.461063 0.15509300000000001 -0.00349344 -0.27080890695241083 0.0052542956699249913 0.96261878658805189
0.38337700000000002 0.235128 0.0064948100000000002 -0.27744033402703916 0.92407858532892395 -0.26287949557061141
0.29010900000000001 0.23138800000000001 0.23988499999999999 -0.03293029094534719 0.33332989053576845 0.9422349919280576
0.30098900000000001 0.23397699999999999 0.241672 -0.12598237096676429 -0.99187228030610952 -0.017827556365092811
0.299041 0.23330699999999999 0.24107400000000001 -0.24962604720932785 -0.94897632351535199 0.19269347150833094
0.380743 0.235567 0.0057197000000000003 0.18891505171874995 0.93609112580135345 -0.29672294725898291
0.29496899999999998 0.23444300000000001 0.24044299999999999 -0.083775365002574279 -0.26335463223060912 0.96105464251590067
0.365456 0.23613200000000001 0.0069972599999999999 0.0086889489816668261 -0.99892668583173039 0.045497016372824897
0.55644700000000002 0.229488 0.23810600000000001 -0.017642064143551572 0.43109199725259589 0.90213549285987105
0.30636999999999998 0.23071 0.16733700000000001 -0.056676186358662763 0.99577970093743307 0.072184465785887969
0.30447099999999999 0.230491 0.167296 -0.076271830104439567 0.995665084616563 0.053232012999806413
0.54966599999999999 0.229296 0.238871 0.052620586497231212 0.78364838166362105 0.61897196042524827
0.54119499999999998 0.22828699999999999 0.23872099999999999 -0.059355905176437893 -0.42683652801629812 0.90237877572097047
0.29677700000000001 0.23034299999999999 0.16721900000000001 0.0474303265985066 0.99798076546680436 -0.042246371170203016
0.54026399999999997 0.22895099999999999 0.23861199999999999 -0.081717025262512746 -0.081995193729514693 0.99327695834923357
0.53835100000000002 0.228574 0.23860799999999999 -0.074409340906636548 -0.37110375307940102 0.92560534486152513
0.53643200000000002 0.229628 0.238515 -0.11443438650001839 -0.36636374013581646 0.92340802525214216
0.28881499999999999 0.22975200000000001 0.16753399999999999 0.058885102407943965 -0.99656135811034607 -0.058292402898388565
0.28694799999999998 0.229632 0.16758600000000001 0.058945390791963509 0.99410435324595137 0.091005361170819574
0.28460000000000002 0.229541 0.167624 -0.23346686019466978 0.96438624533311179 0.12430766268877347
0.28260299999999999 0.22911500000000001 0.16769300000000001 -0.33815969020528247 0.93596774009716277 0.098042916203451735
0.53436600000000001 0.22955400000000001 0.23833499999999999 -0.088856345114525351 -0.29569827749055311 0.95113988383518444
0.53191100000000002 0.23045099999999999 0.23796300000000001 0.07314084299289432 -0.044832065641981333 -0.99631345618563327
0.53003400000000001 0.230656 0.23805999999999999 0.05677631869487644 -0.26894857577950881 -0.96147964784577289
0.52803 0.23049800000000001 0.237761 -0.045811586631889979 -0.78027379035646105 -0.6237580545476189
0.30647099999999999 0.23055999999999999 0.169242 0.044500444799895858 -0.99854238038302046 -0.030542183805730646
0.30457400000000001 0.23031399999999999 0.16911399999999999 -0.053474672564861998 0.99824151283497498 0.025580098651508232
0.52337100000000003 0.230819 0.237875 0.054285155966367071 -0.95590887533119973 0.28860239760741369
0.294848 0.23058400000000001 0.16858899999999999 -0.0081839586698404139 0.99803655296974803 -0.062097196045822874
0.29156700000000002 0.32922299999999999 -0.0079099900000000004 -0.017887462162365902 0.0019934284660990988 0.99983801935130523
0.52145300000000006 0.230458 0.23799500000000001 0.071651828004759374 -0.8845503488968941 0.46090855471553094
0.28871999999999998 0.2298 0.16955999999999999 0.16224039941977789 -0.98462342947108339 0.064766927769602051
0.28672799999999998 0.22944600000000001 0.169654 -0.054672623599687997 -0.98812214067997162 -0.14361594384592938
0.284549 0.22943 0.169381 0.2119005260713131 -0.97363906422201385 0.084410542419664641
0.28244000000000002 0.22897200000000001 0.169595 0.29353797033598034 -0.95581570883641531 -0.015867914562856064
0.51986699999999997 0.22948299999999999 0.23835600000000001 0.21617086629703572 -0.6304130079131679 0.74555321474611114
0.51447900000000002 0.229541 0.238037 -0.048627366001230021 -0.97276642774291777 0.22662933687425646
0.56549499999999997 0.234902 0.23876700000000001 0.097230946983134517 -0.45829928732490532 -0.88346358509349254
0.36363099999999998 0.23620099999999999 0.0071674299999999998 -0.023278066772711319 0.99918464182393829 -0.032987621170573279
0.28856900000000002 0.229847 0.17152999999999999 -0.1711495687171592 0.98432168725649949 -0.042645528774404085
0.28655700000000001 0.22931699999999999 0.171519 -0.1284165947332008 0.99120832162542682 0.031862852000936026
0.36173699999999998 0.23622099999999999 0.0078358500000000001 0.00071168143510623103 -0.99998346658854642 0.0057061422246843102
0.35966599999999999 0.23606199999999999 0.0083392899999999992 -0.035616456876768662 0.99813105750791675 0.049657426812838343
0.50983100000000003 0.230185 0.236675 -0.063704755428353604 -0.82831330843831397 0.55663162612250872
0.50756599999999996 0.23002700000000001 0.23649000000000001 0.21472149249344263 -0.85178274600392112 0.47787114818893123
0.50316799999999995 0.22975699999999999 0.23765600000000001 0.26184947315476181 -0.92693180454116453 0.26876064283788603
0.499857 0.22883999999999999 0.238902 -0.017306179806932734 0.70564636534771674 0.70835280984269888
0.49763499999999999 0.22880300000000001 0.238732 0.045605601002130396 -0.21683144066016952 0.97514319743228983
0.288439 0.22986400000000001 0.175401 0.15942638916454141 -0.98278322014164821 -0.093382914100862996
0.49587999999999999 0.22861899999999999 0.23902499999999999 0.0203320253442704 -0.29258614189919857 0.95602299047352524
0.28545599999999999 0.22906399999999999 0.17590700000000001 -0.47826040081978966 0.87071824842425338 -0.11452825358266056
0.28026899999999999 0.22770199999999999 0.175459 0.22601920259421487 -0.96912561641285511 -0.098543694222809938
0.29114600000000002 0.15013000000000001 -0.0017262 0.083601263411296659 0.0071030011387083732 -0.99647397162738716
0.28830699999999998 0.22967199999999999 0.177282 0.18342254798388863 -0.93464644648347928 -0.30461810347860646
0.49401200000000001 0.228353 0.23902899999999999 -0.0079862136381325596 -0.30820620391759013 0.95128605385469356
0.28509299999999999 0.22875200000000001 0.17741799999999999 -0.54875377380753565 0.83457964917617733 -0.048436607157776049
0.35782999999999998 0.23597799999999999 0.0086882799999999996 -0.010180816446661672 0.99935675913461941 0.03438631920443596
0.35596299999999997 0.23588600000000001 0.0087900800000000005 0.0013939201782645701 0.99913399172461781 0.04158513637068504
0.290991 0.15412200000000001 -0.0020270100000000001 0.048877929632723159 -0.015416872241686011 -0.99868577042286044
0.34990500000000002 0.23617299999999999 0.00844139 -0.024728824396247601 -0.9988455849747333 -0.041182309557164634
0.34745799999999999 0.236314 0.0085290699999999997 -0.010315785643599581 -0.99961152746461024 -0.025891672916682137
0.28811700000000001 0.22928299999999999 0.17980199999999999 0.07582774970627322 0.99026990695607209 0.1166861763521915
0.34553200000000001 0.23632300000000001 0.0085637200000000004 0.013763716672780198 -0.99975394367932113 -0.017395752383727023
0.34159299999999998 0.23622699999999999 0.0086490400000000002 0.0086359550633099552 -0.99934363410768534 -0.035181262748645581
0.28322000000000003 0.227913 0.17971500000000001 -0.385400319389612 0.92260197100753139 -0.016498391054987214
0.33966600000000002 0.23624000000000001 0.0087312899999999992 0.019438904096218387 -0.99979910428605623 -0.0048867244998887227
0.49392000000000003 0.229408 0.23847599999999999 -0.022953080335784956 -0.03798319890857027 0.99901473097435889
0.29011999999999999 0.22921900000000001 0.182087 0.14305838543845756 -0.98550253032618396 -0.091208887047431547
0.48972199999999999 0.229125 0.23846600000000001 -0.085250555139207818 0.71429733596563261 0.69463059152390949
0.28699599999999997 0.228598 0.18156800000000001 0.20361983228226632 0.97188431840164913 -0.11823635458818796
0.46917999999999999 0.156227 -0.00198979 0.003204841157076596 0.014713903453341556 0.99988660859035583
0.48569699999999999 0.22842000000000001 0.237841 0.15132180068716186 -0.17515871130371402 -0.97284178492251083
0.56587799999999999 0.238177 0.23875399999999999 -0.058927484605256999 -0.63945108985357346 -0.76657018937809907
0.29431800000000002 0.22991200000000001 0.18393000000000001 0.12752368508205114 -0.97482161745889284 -0.18292217984137915
0.28878700000000002 0.327573 -0.0082102600000000005 0.10885112054704611 0.03754151585302147 -0.9933489156097719
0.29055799999999998 0.22920499999999999 0.18351799999999999 -0.17853653859763172 0.98003440990765223 0.087505769995677052
0.38463000000000003 0.234981 0.0086599299999999997 -0.34760033402908375 0.93602973264286127 0.054975880087568429
0.28717599999999999 0.22839899999999999 0.18316399999999999 0.28682765638552343 0.95514841644448845 0.073630143935579775
0.28501100000000001 0.22814699999999999 0.18312800000000001 0.1734975318123454 -0.98475460002667348 0.012529332836621498
0.34550399999999998 0.235955 0.010984300000000001 0.0080389388248512193 0.99685233264036943 0.078872063317910732
0.34164099999999997 0.23602400000000001 0.011001800000000001 -0.018333672094170764 0.99652490079499323 0.081252683420745098
0.28970299999999999 0.32796799999999998 -0.0080757699999999995 0.080790950704134015 0.026173196518621447 -0.99638736747728796
0.28939500000000001 0.32952900000000002 -0.0081461999999999993 0.083318733914452922 -0.0049523317016117192 -0.99651064369107967
0.33971299999999999 0.23597399999999999 0.0110624 -0.029338176706802346 0.99610733747084057 0.083123063130959102
0.35220800000000002 0.23544599999999999 0.0132675 0.058903724296753092 0.99277564627488513 0.10453165753711076
0.29635400000000001 0.229577 0.18587799999999999 -0.12142862827401112 0.98698905654169455 0.10539302871835447
0.49935299999999999 0.23175899999999999 0.23841999999999999 -0.077161578489675989 -0.63512143247311004 0.76854853901252473
0.48546400000000001 0.22947699999999999 0.23749400000000001 0.21877270563333154 -0.13500954014119537 -0.96639067014367164
0.55370699999999995 0.23680100000000001 0.23971200000000001 0.015986749118690843 -0.31944605977038332 0.94746959779709683
0.55071899999999996 0.236623 0.239952 -0.019235485757121737 -0.36590762113269243 0.93045236787527275
0.54859500000000005 0.23791300000000001 0.23974000000000001 -0.028313829814862398 -0.44002872710922281 0.89753721168531597
0.54672799999999999 0.238146 0.239452 -0.023425505760294087 -0.57155915424151482 0.82022641927860307
0.280754 0.22719 0.18512799999999999 0.28917156026389818 -0.9563964003363391 -0.041057693045707548
0.54524899999999998 0.23830200000000001 0.23979600000000001 0.015173061394777226 -0.78167472595164278 0.62350172495056821
0.53677399999999997 0.23718500000000001 0.238315 0.045627715785329863 -0.73752305740946922 0.6737787851673589
0.53512400000000004 0.236984 0.23841399999999999 0.075667233359804603 -0.63214351835727367 0.77114787297544973
0.28891099999999997 0.11256099999999999 -0.0058830599999999999 -0.32856521811638445 -0.53888372733685719 0.77566050940838061
0.35422799999999999 0.23510700000000001 0.015379500000000001 0.04916576758764582 0.99522878510565072 0.084275693973100543
0.29348999999999997 0.229463 0.18701200000000001 -0.18608778970174336 0.97876602550424474 -0.085955813314424617
0.286748 0.22874 0.18663099999999999 0.16656813959005526 0.97776000120456896 0.12743796497884502
0.28548499999999999 0.22840299999999999 0.18712300000000001 -0.033529570061963151 0.95087199273015566 0.30776325539746102
0.51879699999999995 0.235734 0.238177 0.2536991416502119 -0.27720019208816427 0.92671290000314066
0.51697899999999997 0.235487 0.238313 0.1391554629571404 -0.31726891750034003 0.93807046170175612
0.352377 0.23521800000000001 0.015484599999999999 -0.063519226682957786 -0.99399040473940303 -0.089153705069371703
0.346497 0.23560200000000001 0.015692399999999999 -0.01458905824396302 -0.9960556840543261 -0.087522760711843867
0.34402300000000002 0.235564 0.015759100000000002 0.013416964763623513 -0.99535439133039627 -0.095339502389241271
0.29251100000000002 0.23746400000000001 0.027702500000000001 0.12867784367101884 0.94437355092861264 0.30265592486296866
0.34160800000000002 0.235434 0.015882 0.027312828230419122 -0.99486533508746688 -0.097452421495610869
0.33971099999999999 0.23539199999999999 0.015501600000000001 0.039420447262313738 -0.99365414336907354 -0.10534453807916394
0.40976800000000002 0.22977700000000001 0.0153189 0.92667454480649702 -0.3512885667645102 0.13368107894615219
0.38550499999999999 0.23438200000000001 0.0144516 -0.31156130223472622 0.95000548845384769 0.020472587949933469
0.34653 0.23549100000000001 0.017607500000000002 -0.0079378949156033527 -0.99616980669954935 -0.087078734743287131
0.34409000000000001 0.23538000000000001 0.017703 0.022496927080990811 -0.99534702883786808 -0.093691944453836967
0.34165200000000001 0.235268 0.017825199999999999 0.035795266324007056 -0.99448451185063458 -0.098586279968352425
0.33974700000000002 0.235238 0.017919399999999999 0.039050392269870698 -0.99436917069189701 -0.098514056058403451
0.33586899999999997 0.235125 0.0175745 0.083406656740879395 -0.99189390229247731 -0.095863529072899106
0.40974500000000003 0.22977500000000001 0.0167958 0.88420387857981797 -0.37765126964489326 0.27488728533711188
0.34367900000000001 0.23514699999999999 0.0197009 -0.03712423029963495 0.99543322556024272 0.087945920743323053
0.34171099999999999 0.235044 0.019747299999999999 -0.039198296974741136 0.99517174133339681 0.089981657940577678
0.33977200000000002 0.23497899999999999 0.0198155 0.037371897427351058 -0.99520177660625919 -0.090425467222598199
0.53269900000000003 0.23753199999999999 0.23893700000000001 0.037770748806168 -0.18684149932503713 0.98166370242797196
0.287383 0.13216700000000001 -0.00164204 0.17397767980222667 0.084417328740997111 -0.98112460041468119
0.28658800000000001 0.115026 -0.0024619899999999998 0.16886721365536211 0.34900274841410872 -0.92178139802866088
0.28638999999999998 0.124598 -0.00287704 0.19985216211153842 0.028342001460201983 -0.9794160731030368
0.28648200000000001 0.12789400000000001 -0.0023855700000000001 0.19758311419677116 0.11068065877799051 -0.97401781542062993
0.53052100000000002 0.23730000000000001 0.23860799999999999 -0.04612825440400406 0.30664794053396272 0.95070459382077166
0.52665700000000004 0.23758599999999999 0.237926 -0.074132504161208576 0.45192133214971086 0.88897214881840891
0.52437299999999998 0.23752899999999999 0.23802499999999999 0.0071800438715715412 0.0918017649095767 0.99575141623273078
0.292209 0.234629 0.0258672 -0.1941072563158972 -0.97361323182260229 -0.11999853276378962
0.29401100000000002 0.234263 0.031749100000000002 -0.41101839154321695 -0.91132981131026947 0.023277818420433992
0.52235200000000004 0.23718800000000001 0.23812900000000001 0.14980447604946345 -0.011525415238240966 0.98864846318554078
0.28305399999999997 0.239763 -0.0048689900000000001 -0.66377575064838346 0.4363430486973004 0.60745904940557172
0.40856300000000001 0.21757899999999999 0.19245799999999999 -0.96909108256666565 0.23880437395861545 0.061926930070863313
0.28368199999999999 0.24041599999999999 -0.0050642700000000001 -0.5801225613312293 0.5561767955167175 0.59508418392967699
0.28323799999999999 0.23785899999999999 -0.0030887100000000002 0.82277096577716913 -0.32540116875466923 -0.46600645622909564
0.51861500000000005 0.237202 0.238567 0.19568504238390136 -0.087969756007338085 0.97671320571354014
0.51688999999999996 0.23683799999999999 0.238623 0.08181370460192447 -0.037964330825761949 0.99592430802961174
0.50068299999999999 0.23543700000000001 0.23871000000000001 -0.0093531721483201893 -0.56660750343380162 0.82393473966284392
0.28383999999999998 0.23716799999999999 -0.00152319 0.82284648560872964 -0.34167967574490588 -0.45406900390163019
0.496892 0.23477000000000001 0.23838100000000001 -0.048305931880331984 -0.59276292009549614 0.80392702249957537
0.28497899999999998 0.23979700000000001 -0.0018117299999999999 -0.56851604535133238 0.65589068894769142 0.49658524981095076
0.28534500000000002 0.238678 0.00018326799999999999 -0.62970724074015882 0.55887354596638827 0.53956385217911962
0.28578799999999999 0.23958599999999999 8.0479600000000001e-05 -0.41081891403582205 0.75416679181737845 0.51230876431143602
0.33593499999999998 0.23486899999999999 0.0199615 0.069562825508211759 -0.99484917023531017 -0.073730195913402463
0.28592299999999998 0.23647000000000001 0.00201775 0.72096378702232244 -0.46241673081611256 -0.51612206391876903
0.28645999999999999 0.23830699999999999 0.0020011 -0.55412495866077427 0.69229921416601403 0.46224163405551777
0.334013 0.23471600000000001 0.020003799999999999 0.092314398262778097 -0.99383784783351492 -0.061354576740680546
0.33594400000000002 0.23469000000000001 0.021804299999999999 -0.054911018652806308 0.99704009832751717 0.053812845655723682
0.33986 0.234622 0.023574700000000001 0.029885110248966895 -0.99891604398029321 -0.035687774715838096
0.517092 0.23604700000000001 0.241262 0.24149886819136251 -0.6197501603604465 0.74671817668749119
0.514459 0.23511599999999999 0.24101600000000001 -0.063734372971352524 -0.60953863986880807 0.79019021520696642
0.51072899999999999 0.23726800000000001 0.23819399999999999 0.0073868113205479407 -0.64821098152717527 0.76142495260274379
0.50839599999999996 0.237789 0.240731 -0.045701924317374541 -0.9516696596909946 0.30370412071178038
0.50456400000000001 0.237403 0.23930999999999999 0.039515673575383201 -0.74552976717345765 0.66529984052318325
0.49248900000000001 0.235259 0.23819399999999999 -0.11348619699654379 -0.63457798991742087 0.76448129983906576
0.48904700000000001 0.23535800000000001 0.23779600000000001 -0.15615803127246325 -0.49276966445641635 0.85603313432402794
0.28300799999999998 0.150837 -0.0039736600000000004 0.83100672595928704 0.10104691497776211 -0.5470076255262839
0.48717500000000002 0.23518500000000001 0.23771700000000001 -0.012231351777219679 -0.59763417716227996 0.8016756104068945
0.28693400000000002 0.22269 -0.0015935400000000001 -0.13932594541294793 -0.17992110163939595 0.97376417993252073
0.48288999999999999 0.23459099999999999 0.23721700000000001 0.13089290255409244 -0.57815436554945909 0.80535990566768778
0.286385 0.23435 0.0036783300000000001 0.7294299305997759 -0.17842054871741725 -0.6603772286659968
0.32821299999999998 0.23416400000000001 0.0238008 -0.059428317739768782 0.99808051230498485 -0.017423145744675642
0.28691899999999998 0.23805699999999999 0.0037665799999999998 -0.60812190440927938 0.56177743494814592 0.5608866756847708
0.40861199999999998 0.228328 0.023365500000000001 -0.98941406474236215 -0.13250764874057785 0.059173740081568615
0.33987299999999998 0.23463000000000001 0.0254367 0.023611406921223863 -0.99950029085027403 -0.021015947597437849
0.31430200000000003 0.23392199999999999 0.026631599999999998 -0.026102963646638919 -0.99643085509363594 -0.080275689384944934
0.33799000000000001 0.234711 0.027413699999999999 -0.019551074984581751 0.99980879945795709 0.00034640061468735382
0.28269100000000003 0.11443 -0.0047565699999999999 0.98186820415327869 0.11792430607240761 0.14842064448774095
0.51066400000000001 0.23658299999999999 0.24143300000000001 -0.023884715483646637 -0.8400197898758206 0.54202977130711871
0.28323599999999999 0.138464 -0.0041158000000000002 0.8480961241636914 -0.047476304846001481 -0.52771106171530424
0.50809499999999996 0.23603499999999999 0.241198 -0.01082752110157742 -0.88117509789645343 0.4726660677835573
0.50627699999999998 0.23561499999999999 0.24113000000000001 0.12951965448793915 -0.82373508489966984 0.55198294267727011
0.50206899999999999 0.23481299999999999 0.24071300000000001 -0.039280007637216903 -0.60283718489254157 0.79689673704367492
0.50043400000000005 0.23513400000000001 0.24110599999999999 -0.010053650636011902 -0.67106247562484711 0.74133263648455461
0.28682400000000002 0.234126 0.0054775700000000002 -0.96689813879025588 -0.15635051496452468 0.20164946237038917
0.49032599999999998 0.23675499999999999 0.240676 -0.10803993800494223 -0.84974777335290597 0.51600009057912632
0.28728900000000002 0.23782200000000001 0.00560495 -0.76712519287874315 0.60537476700536952 0.21222707160950405
0.48449199999999998 0.23694399999999999 0.237951 0.034819569724408334 -0.75613223568635646 0.65349188190838281
0.32236700000000001 0.23381199999999999 0.0281532 -0.025982953630323196 0.99914045485978142 0.032299188584756111
0.32005 0.23377700000000001 0.028261399999999999 0.0013274162653424048 0.9992240221543599 0.039364851272695171
0.318216 0.23379 0.028366499999999999 -0.018837823777513259 -0.99920182546176373 -0.035225677980790578
0.46648400000000001 0.235288 0.23832100000000001 0.1516914282707468 0.49792165610985056 -0.8538522910703028
0.31432500000000002 0.23388200000000001 0.028519900000000001 0.013996076586921338 0.99862487502715735 0.050521963710521853
0.31232799999999999 0.23391200000000001 0.028566999999999999 0.0050317464124702595 -0.99823933272891385 -0.059100897801754232
0.30848799999999998 0.233796 0.028737100000000002 -0.039664856402689422 0.99710971397427661 0.064799054504598733
0.28374300000000002 0.128492 -0.0039291500000000002 -0.82822004805252514 -0.05596560960017101 0.5576014728692481
0.48830400000000002 0.237009 0.240258 -0.014985863534313901 -0.72003442714885835 0.69377651128771001
0.27988499999999999 0.21357300000000001 -0.0021496200000000001 -0.57809343301388583 0.023616919725164519 -0.81562872914636519
0.284719 0.17116400000000001 -0.0016490999999999999 0.51757218872314159 0.085685658526510999 -0.85133835657934198
0.48197299999999998 0.23499800000000001 0.24044599999999999 0.022604850894995806 -0.76184554922129022 0.64736417868748819
0.47042899999999999 0.23711499999999999 0.24068800000000001 0.042082734923304159 -0.68088150454200047 0.73118357489347152
0.46626299999999998 0.23683899999999999 0.23922399999999999 -0.17576915586854042 -0.62317110632615336 0.76207806429886082
0.324735 0.233847 0.029963299999999998 0.039935516507195651 -0.99814321832693076 -0.04599206702530647
0.32280500000000001 0.23374600000000001 0.030012400000000002 0.020073228442986882 -0.9991276749627015 -0.036619047277363079
0.32047199999999998 0.23367599999999999 0.030110399999999999 -0.0031666214524416064 0.9996908855146972 0.024659803880343327
0.46818300000000002 0.23622399999999999 0.24176300000000001 -0.1156048547201891 -0.70267095873889773 0.7020605681207871
0.29267199999999999 0.21219199999999999 -0.0017606099999999999 -0.087539047474973486 0.22338579622852892 -0.97079127582118308
0.46421499999999999 0.23763799999999999 0.239098 -0.1807597155332325 -0.61897158340394209 0.76432983991125314
0.28894900000000001 0.23913200000000001 0.0079155000000000007 -0.8561358783878884 0.46079867931969776 0.23387162049770188
0.46214899999999998 0.237595 0.238704 -0.15220904702703777 -0.64746370279097831 0.74674169534807455
0.459899 0.23709 0.23813300000000001 -0.068608956399245746 -0.44962257073376449 0.89057978586343811
0.45626800000000001 0.23738400000000001 0.23860000000000001 0.064511168826237003 -0.39810831761175264 0.91506725247110265
0.45400299999999999 0.237263 0.23866799999999999 0.075890796936018023 -0.46976440354047055 0.87952373026921904
0.45025100000000001 0.23725499999999999 0.23941799999999999 0.14697864273403835 -0.5598935439435484 0.81542412156520971
0.50708600000000004 0.160797 -0.0047186199999999998 -0.37612238338229892 0.28661946582544984 0.88112498235423597
0.28469499999999998 0.157249 -0.0026387400000000001 0.61657941484645773 -0.064012641147179888 -0.78468605630593613
0.52041000000000004 0.162684 -0.0055303499999999998 -0.094510371899863249 -0.071938445283455582 -0.99292127064211322
0.52272399999999997 0.16306899999999999 -0.00540998 -0.044463045120720475 0.028466436946701916 0.99860537730684806
0.44994099999999998 0.23844199999999999 0.24035000000000001 0.16093154806005541 -0.48880705461175533 0.85741979228425469
0.28834799999999999 0.23508999999999999 0.0095899399999999999 -0.79581888430673675 0.58430820962630725 0.15892205493285144
0.28865099999999999 0.236927 0.0096582899999999999 0.86691379442748973 -0.032714944140802116 -0.49738335864923816
0.44809100000000002 0.23799300000000001 0.240454 0.13381499057026927 -0.57396895846471252 0.80786953341341705
0.28850500000000001 0.23839199999999999 0.0096419499999999998 -0.83529508711891909 0.45681257034301503 0.30594835023514194
0.28505399999999997 0.115342 -0.0020926299999999998 0.36542096725979195 0.37414202594405743 -0.85234104741552519
0.31820100000000001 0.23375099999999999 0.030264599999999999 -0.017869868355195023 -0.9995862913845559 -0.022536944802646338
0.285692 0.11842900000000001 -0.0026883599999999999 0.66356862559601915 -0.10248072612314485 -0.74106300669908176
0.314336 0.233851 0.0304385 0.0019041774577076374 0.99934705239162369 0.03608106129790753
0.41375400000000001 0.23723900000000001 0.241037 0.085923532455187759 -0.66616331092332515 0.74083978682984863
0.52064200000000005 0.23430699999999999 -0.0022371600000000002 -0.014710705943048297 0.55582311815938457 -0.83117041360375421
0.41048699999999999 0.237374 0.240731 0.14927718591269284 -0.5889675463548858 0.79425030758992632
0.40182499999999999 0.235706 0.24149899999999999 -0.0036130297057473254 -0.68178537137751127 0.73154333664655435
0.40000000000000002 0.236176 0.241452 -0.055714470352849876 -0.67430457087358775 0.73634858830060135
0.39583800000000002 0.23555899999999999 0.24132500000000001 -0.020240984251603644 -0.61164469244942976 0.79087361364188224
0.52788900000000005 0.16332099999999999 -0.0044024299999999997 0.1492177040375457 0.080753863137942139 -0.9855013396186032
0.38772000000000001 0.23643900000000001 0.24143100000000001 0.068329160211498347 -0.63796935472233229 0.76702426839048732
0.37711600000000001 0.23527799999999999 0.239369 0.099395631237292892 -0.54251320321583618 0.83414622988264675
0.38551000000000002 0.23771800000000001 0.241533 -0.011929759293730011 -0.37024593077702567 0.928857164254143
0.36512800000000001 0.20730100000000001 -0.0056788699999999999 -0.14396070874913322 0.87652230637503636 -0.45932990405963547
0.36613299999999999 0.208317 -0.00326859 -0.40576437262141951 -0.75782240740202245 0.51094077225305523
0.55193700000000001 0.229378 0.238902 0.08815790382604409 0.77789777147546735 0.62217621388678923
0.54588599999999998 0.228635 0.23957200000000001 -0.09148213984789369 -0.010495720255343233 0.99575140368727177
0.562087 0.23059299999999999 0.23987800000000001 -0.12353311381878548 0.033986542403615656 0.99175827938348049
0.54588300000000001 0.229406 0.23958199999999999 -0.052380777444268861 0.052150665242780878 0.99726453976318119
0.54410000000000003 0.22909099999999999 0.239867 -0.01404056522818968 -0.28400371952787595 0.95872037102713337
0.421014 0.14827899999999999 -0.0046730499999999998 0.22743937458684493 -0.093087381168759614 0.96933279649183812
0.55957800000000002 0.232381 0.23858299999999999 -0.42247757264546987 0.066570783054042709 0.90392534617365561
0.55757900000000005 0.23222499999999999 0.23815500000000001 -0.25075348129630337 0.20751782834752791 0.94554695416764478
0.5534 0.23231599999999999 0.237957 0.20916595271645977 0.025310467424936797 0.97755254818497961
0.30853999999999998 0.233739 0.030640400000000002 0.049186209748185467 -0.99745488519332359 -0.051618492564013491
0.54964800000000003 0.23163 0.238737 0.074313576618629293 0.403859926684902 0.91179748406551997
0.54583300000000001 0.23095399999999999 0.23911299999999999 -0.039070604212357966 0.12912577437592157 0.990858225115127
0.56489800000000001 0.234956 0.24016100000000001 0.056430355265729391 -0.32703232487609191 -0.94332681160386933
0.563249 0.235093 0.240735 0.23087138562312673 -0.14615703993818097 -0.9619441371394527
0.56102200000000002 0.23433100000000001 0.23947199999999999 -0.31241985842904219 0.00044729605222022534 0.94994401518479943
0.55937700000000001 0.23429700000000001 0.23810000000000001 -0.30706139888331657 -0.022918816847646024 0.95141369821446498
0.55730800000000003 0.23427799999999999 0.23783499999999999 0.03476026625269707 0.20927587367207984 -0.97723862622638336
0.55522000000000005 0.234315 0.23785899999999999 0.14378082866013636 -0.72054868625608803 0.67833374090076815
0.54550200000000004 0.23298099999999999 0.23859900000000001 -0.12033923775795316 -0.28686834316168447 -0.95038151368148205
0.54363300000000003 0.23263700000000001 0.238565 0.43026015539422041 -0.0072943090395240218 -0.90267546312934477
0.541292 0.23219500000000001 0.23899300000000001 -0.13240512810028271 -0.20451201625592624 -0.96986788649778655
0.53744999999999998 0.23205999999999999 0.23863999999999999 -0.12603120186912614 -0.25580847169837012 -0.95847700126960123
0.53562799999999999 0.23200599999999999 0.238457 -0.16169864439719892 -0.38416083426174619 -0.90899615060759609
0.32844499999999999 0.233929 0.031673300000000001 -0.069880819479593015 0.99483469974098415 0.073624664753915242
0.56502600000000003 0.23701900000000001 0.24013699999999999 -0.19574437337802111 0.65620982095242864 0.72874742618854393
0.55107899999999999 0.23516699999999999 0.23841300000000001 0.0010534898823031102 -0.43470282434353724 0.90057334219197238
0.549211 0.23474800000000001 0.23871600000000001 -0.016433833719997099 -0.30542564633040614 0.95207410618759991
0.54705599999999999 0.23481099999999999 0.23844799999999999 -0.13961826900943805 -0.39033489074131061 0.9100249513220926
0.54354000000000002 0.23416100000000001 0.23869199999999999 -0.34052697279946642 -0.53839476908982586 0.7708258256005337
0.32850699999999999 0.23372100000000001 0.033605500000000003 -0.060142797257245112 0.99514303242157831 0.077930667653110269
0.56245500000000004 0.23766100000000001 0.23954600000000001 0.21841090677680394 -0.70907781206843068 -0.67045158828447982
0.56058699999999995 0.23749300000000001 0.23957000000000001 -0.047874870780541035 -0.057301205902358654 0.99720838772539522
0.55870799999999998 0.23715700000000001 0.23930499999999999 -0.059421060128141849 -0.44015927659739662 0.89595142102599756
0.55671300000000001 0.236901 0.23888499999999999 0.047136456443590324 -0.74869550937408924 0.66123610663439658
0.55492399999999997 0.23691300000000001 0.23891399999999999 0.083844448328821486 -0.45071424847617392 0.88872198954734616
0.54092399999999996 0.23541699999999999 0.23879400000000001 -0.092992017008270714 -0.4019289481320566 0.91093666378414728
0.53876500000000005 0.23528299999999999 0.238674 -0.10282744895903284 -0.34424348496720042 0.93323252129263801
0.326631 0.23361599999999999 0.033689900000000002 0.033274773764074637 -0.99729259590215857 -0.0655764255634875
0.32277899999999998 0.233623 0.033798399999999999 0.0067793440120401862 0.99960882424821684 0.027133724032358354
0.320909 0.23367099999999999 0.033888099999999997 0.010181573230590338 0.99976545064159472 0.0191148965458641
0.55498599999999998 0.238034 0.23997099999999999 -0.034497034127028821 -0.65548157113966876 0.75442286851122842
0.55202600000000002 0.23780299999999999 0.23980599999999999 -0.063626755858266548 -0.3476702286718546 0.9354555296935354
0.548813 0.23744599999999999 0.238398 -0.038450051176414785 -0.36114121097841789 0.93171810076737938
0.542825 0.23722499999999999 0.23962800000000001 -0.099878781306164371 -0.68174731968746349 0.72473776025798076
0.54072299999999995 0.237072 0.23983199999999999 -0.039552462620332102 -0.78159239597095165 0.6225342795871196
0.31617099999999998 0.233817 0.034094800000000001 0.0054207282046318389 0.99955135418128227 0.029456850817705361
0.324714 0.23353199999999999 0.0356437 0.0089860480119228776 0.99922732355323307 0.038262341875137273
0.322772 0.23358000000000001 0.035700099999999999 0.020616238624427324 0.99951434511612758 0.023367597481539371
0.32089499999999999 0.233677 0.035788500000000001 0.011094395920340209 0.99971677211610888 0.021054451522431569
0.54030800000000001 0.237984 0.239209 -0.068137763915813804 -0.5415902978895506 0.83787659852776708
0.49994899999999998 0.23725199999999999 0.24038999999999999 0.016033122922528641 -0.34097159844456326 0.93993686384964736
0.49641800000000003 0.237036 0.24105599999999999 -0.036813314439093706 -0.5225754586523228 0.85179790437305192
0.494562 0.236791 0.24066100000000001 -0.055630928693608882 -0.81660585741903557 0.57450854945910812
0.38710600000000001 0.23328199999999999 0.035121699999999999 -0.17191220579039015 0.97012803116437718 0.17116599150944636
0.42338399999999998 0.14835200000000001 -0.0046206900000000002 -0.071267444567076177 0.03913476730047933 -0.99668923006783616
0.47567700000000002 0.23798800000000001 0.239926 -0.012704639262356245 -0.75121322479222841 0.65993733266005961
0.47208 0.23746700000000001 0.24055299999999999 0.054738176918104252 -0.71924499299688349 0.69259683224556789
0.49185299999999998 0.27765099999999998 -0.0090288499999999997 -0.012593314023950043 0.05937382137868577 -0.9981563794199716
0.49201899999999998 0.27965000000000001 -0.0088838700000000003 -0.0042212400778078342 0.062357458297042381 -0.99804495315939468
0.28564099999999998 0.12911500000000001 -0.00213934 0.34159931164574747 0.11335758685299077 -0.93298444134187886
0.49225200000000002 0.28145700000000001 -0.0086809299999999999 0.00071826107904092787 0.065823265346465779 -0.99783103872356627
0.492865 0.28575699999999998 -0.0083225699999999996 -0.0099508822128121753 0.034669944745729937 -0.99934927571621068
0.49291099999999999 0.28734999999999999 -0.0082894000000000006 0.011330523629578705 -0.0088561225027408846 0.99989658881731158
0.49295600000000001 0.28894500000000001 -0.0083225999999999994 0.01816984669189399 0.0050515190014173567 0.99982215359881443
0.489342 0.28749999999999998 -0.00842474 0.060561457633637385 0.0074123805020224805 -0.99813694775044914
0.48975600000000002 0.28913100000000003 -0.0084158299999999991 -0.050106985574305471 0.010152958829814531 0.99869224860497274
0.490062 0.27105200000000002 -0.0091005099999999992 -0.062787725897787042 0.013895677670157498 -0.99793016369817766
0.48946200000000001 0.273231 -0.0090030300000000004 0.039077652979904148 -0.03262935300663318 0.99870329045214967
0.48790899999999998 0.27999000000000002 -0.0090041099999999992 0.021981908450205416 0.03568196618969962 -0.99912141053513837
0.48785000000000001 0.28159800000000001 -0.0088919399999999992 0.035705269213394106 0.041220701420996972 -0.99851188652151757
0.48791200000000001 0.28370099999999998 -0.0087011799999999993 0.048261113100551929 0.049060969346555801 -0.99762913261846564
0.42543900000000001 0.14848800000000001 -0.00469141 -0.015722111043157488 0.053102803583797695 -0.99846527604914104
0.48706100000000002 0.26391399999999998 -0.0084104599999999998 0.11608075772358055 0.29615558538453424 0.94805966422576138
0.48695300000000002 0.26513300000000001 -0.0087314899999999997 0.10190579968601937 0.22639942768986338 0.96868906628084472
0.48709400000000003 0.271374 -0.0090645699999999992 -0.042980051915811612 0.0029186216914083331 -0.99907166749174536
0.488929 0.27579700000000001 -0.0089697000000000006 -0.014182225388151996 0.020997747656824876 -0.99967892799457347
0.427425 0.14863699999999999 -0.00469668 0.022489160432259403 -0.037252345545913279 0.99905280161479937
0.28974100000000003 0.23805000000000001 0.0114039 -0.80102708939635348 0.071379318195957442 0.59435729572967011
0.48538300000000001 0.28979500000000002 -0.0089329000000000006 -0.063336030047362407 0.003207027690867531 0.99798710526300372
0.48543799999999998 0.29136299999999998 -0.0089540899999999996 -0.051035689836923304 -0.0079859844334253943 0.9986648999616935
0.43172500000000003 0.14932300000000001 -0.0051078499999999997 -0.025130312512996127 0.009224899152582006 -0.99964162009623425
0.48534699999999997 0.27549400000000002 -0.0089591700000000007 -0.00040737736275724135 -0.0026281355961969236 -0.9999964634672327
0.48665999999999998 0.27879199999999998 -0.0090264200000000003 0.015901486755894048 0.016071963492930122 -0.99974438468462234
0.486068 0.28560099999999999 -0.0087575900000000009 0.054729475254401097 0.013707555018397728 -0.99840712511169294
0.48601899999999998 0.28767500000000001 -0.0087765699999999992 -0.053004012405481762 0.0095720278310408111 0.99854842193662352
0.48648599999999997 0.26765699999999998 -0.0090327700000000007 -0.067322699850104764 -0.10094337872470999 -0.99261175107719357
0.483186 0.280665 -0.0090482199999999992 0.0043187865111775593 0.014848820661482524 -0.99988042315470627
0.48350900000000002 0.28329700000000002 -0.00888567 0.0088111386487443773 0.023526429695825482 -0.99968438566453566
0.48387599999999997 0.28749799999999998 -0.0088925500000000008 -0.026928508807134072 0.0096969399186746449 0.99959032846943729
0.48302699999999998 0.26541599999999999 -0.0084863400000000002 0.072805344708212788 0.23803238092633358 0.96852463438596093
0.43379800000000002 0.14954799999999999 -0.0049814000000000004 -0.027785180245925706 0.025129822097374369 -0.99929799149205534
0.48431999999999997 0.27965600000000002 -0.0090906000000000008 -0.0083051838781398914 -0.017622064013143993 0.99981022538313091
0.48277799999999998 0.28953600000000002 -0.0090232000000000003 -0.012036642516076746 0.0050398130774959209 0.99991485613580311
0.29080099999999998 0.237091 0.015660899999999998 -0.37809883361315988 0.92216520555580539 0.081563507051790315
0.48061300000000001 0.30426399999999998 -0.0084151399999999998 -0.017750113041909092 0.071332674537145688 -0.99729463200720025
0.480659 0.30582100000000001 -0.0083242300000000002 0.033976217971768891 -0.11407452952936725 0.99289104050997867
0.48072300000000001 0.30787599999999998 -0.0079994999999999997 0.040299874821395312 -0.12943575616541339 0.99076854265527992
0.47913299999999998 0.28026299999999998 -0.0089694300000000005 -0.021306775691335912 0.011786439539233563 -0.99970350662215202
0.47966399999999998 0.28187600000000002 -0.0088782400000000008 0.017613827642396787 -0.025048375533801397 0.99953105602522496
0.29099399999999997 0.236953 0.0182399 -0.2183225906003399 0.97122434585150175 0.095176238940606048
0.47972100000000001 0.28393699999999999 -0.00886639 0.020449768491852791 -0.017801477332523005 0.99963238961800793
0.47965799999999997 0.28598699999999999 -0.0088364600000000008 0.021245647345707011 -0.0013403512266083318 0.99977338728706455
0.47892000000000001 0.28753800000000002 -0.0088091999999999997 0.032960616011717528 0.0049675628229521041 0.99944430615804092
0.47920000000000001 0.29157 -0.0089183500000000002 0.034764180900897938 -0.015533894788375871 0.99927481197065782
0.44721499999999997 0.151338 -0.0046414899999999999 -0.019441480968582326 -0.089956888665571999 0.99575588725317532
0.47909800000000002 0.26617299999999999 -0.0083793200000000009 0.03950335708201122 0.19269220566085643 0.98046376713104755
0.29140300000000002 0.23797499999999999 0.0203827 -0.24576031855215189 0.96667123491930751 -0.071753671715988648
0.44976899999999997 0.15169299999999999 -0.0046883999999999997 0.0073115851335266071 -0.074955146824458169 0.99716010083003159
0.31278600000000001 0.210092 -0.0038973100000000002 -0.17535255955894558 0.31074419203850645 -0.93417853056600608
0.48055999999999999 0.295292 -0.0088447999999999999 0.014573332200161368 -0.044332545710295213 0.99891052821532933
0.47164499999999998 0.238264 0.0090050700000000004 0.049515523903276418 -0.99481222079009468 0.088864268743201066
0.47879899999999997 0.32393699999999997 -0.0081500400000000008 0.053089495856235791 0.0386243975620639 -0.99784250327529067
0.47851199999999999 0.290051 -0.0088521499999999996 0.039799008767577658 -0.0035881141399362361 0.99920126317876357
0.47828999999999999 0.29812300000000003 -0.0084806499999999993 0.025197099700006671 -0.029553255803385834 0.9992455710375342
0.29152600000000001 0.23738799999999999 0.022480900000000002 -0.21514864661971186 0.96126961964701507 -0.17225498019328539
0.47886000000000001 0.31009100000000001 -0.0073849199999999997 -0.01847528446124367 0.11323806292046251 -0.99339609671575502
0.47805399999999998 0.31146699999999999 -0.0072309399999999999 0.0034097098453580599 -0.088571755908711053 0.99606396277248099
0.47775299999999998 0.31343199999999999 -0.0071842700000000004 0.0042451777636773654 -0.00095034809779516102 0.99999053760735568
0.46367700000000001 0.15352399999999999 -0.0024738 0.19433477963423171 -0.0078215948278190697 -0.98090408097778048
0.465609 0.15378500000000001 -0.0023189700000000001 0.13123468201690083 0.017415226651613026 -0.99119834953282504
0.47554600000000002 0.30247400000000002 -0.0085735499999999992 0.02293114826016018 -0.011143453312290042 0.99967494011190794
0.47680499999999998 0.30421999999999999 -0.0084670800000000001 -0.01531284224843135 0.071002472888238438 -0.99735859434108731
0.47181099999999998 0.23840800000000001 0.011207699999999999 -0.076930014767274707 0.99398141698645459 -0.077991765677582092
0.47686499999999998 0.30628 -0.0082897800000000001 0.00026236126086720546 -0.11810859427776706 0.99300065011272687
0.29075800000000002 0.23760200000000001 0.024372899999999999 0.39818281520909893 -0.91629671003581403 0.043020749060189406
0.47612399999999999 0.31788 -0.0076986600000000004 -0.0042243959666294455 -0.11867486390945801 -0.99292418197704735
0.47564899999999999 0.32033200000000001 -0.0081348400000000008 0.021653192354798019 0.094020993866938879 0.995334713537672
0.47552699999999998 0.292049 -0.0087241300000000001 0.058920122533498036 -0.022457635512097739 0.99801005694724509
