0.330099 0.240856 -0.00433644
0.324048 0.24041 -0.00454619
0.320277 0.240759 -0.00449451
0.316312 0.240857 -0.00463828
0.535022 0.235287 0.152786
0.533407 0.235006 0.15278
0.531818 0.234848 0.152794
0.314389 0.241165 -0.00434902
0.306396 0.241493 -0.00458418
0.300214 0.240604 -0.00480481
0.450421 0.176346 -0.00164196
0.29644 0.241439 -0.00444378
0.519338 0.234495 0.153581
0.294524 0.241181 -0.00429238
0.51544 0.234977 0.153593
0.290222 0.240685 -0.00479338
0.333098 0.230584 0.153741
0.330708 0.230346 0.153765
0.326372 0.230093 0.153839
0.451916 0.242141 -0.00402646
0.450219 0.242138 -0.00404959
0.433961 0.242105 -0.0045535
0.432391 0.241971 -0.00475337
0.430239 0.241758 -0.00484515
0.426412 0.24171 -0.00490978
0.422176 0.241768 -0.00494886
0.335029 0.132376 -0.00169506
0.335339 0.120576 -0.00272012
0.334993 0.156711 -0.00398045
0.334713 0.155311 -0.00403232
0.534621 0.235087 0.155895
0.533069 0.234992 0.15644
0.402216 0.241719 -0.00522717
0.39263 0.24188 -0.00516671
0.358394 0.241832 -0.0056334
0.334362 0.241836 -0.00608975
0.314575 0.241856 -0.00620593
0.305557 0.241938 -0.0060217
0.302211 0.241097 -0.00673391
0.300195 0.241325 -0.00669276
0.515364 0.234617 0.156829
0.324323 0.230453 0.153953
0.430304 0.242047 -0.00601479
0.426486 0.242042 -0.00606684
0.422106 0.242026 -0.00640884
0.334562 0.185436 -0.00524664
0.455889 0.179001 -0.00142863
0.40252 0.242001 -0.00660528
0.400184 0.242006 -0.0064254
0.396366 0.242001 -0.00647745
0.389578 0.241991 -0.00656998
0.388106 0.241726 -0.00694806
0.386285 0.241664 -0.00721394
0.384219 0.241567 -0.00710316
0.380442 0.24173 -0.00760645
0.376851 0.241974 -0.00674348
0.373882 0.24197 -0.00678396
0.370389 0.241554 -0.00779247
0.366515 0.241395 -0.00765214
0.364668 0.241862 -0.00721711
0.390375 0.170476 -0.0011322
0.357337 0.241947 -0.00700951
0.386502 0.16995 -0.00169947
0.354367 0.241943 -0.00704999
0.534832 0.234266 0.163056
0.350125 0.241937 -0.00710783
0.336502 0.241792 -0.00733139
0.383276 0.169515 -0.00208876
0.331784 0.241659 -0.00743357
0.334839 0.187494 -0.00859545
0.326314 0.240928 -0.00845863
0.324517 0.241269 -0.00831675
0.316186 0.24189 -0.00757051
0.303884 0.241873 -0.00773822
0.368402 0.241867 -0.00939926
0.502212 0.242936 0.00942853
0.333665 0.199779 -0.00946
0.549719 0.242939 0.00838355
0.334412 0.195637 -0.0133226
0.558204 0.243061 0.00476075
0.380342 0.217352 -0.00655689
0.484064 0.24269 0.00325693
0.482369 0.242688 0.0032338
0.480249 0.242685 0.00320491
0.455009 0.117258 -0.00938022
0.470922 0.242672 0.00307775
0.392688 0.172719 -0.000934035
0.390102 0.172367 -0.0013955
0.333156 0.230358 0.155715
0.337966 0.168596 -0.00375936
0.337044 0.168976 -0.00461438
0.337353 0.160688 -0.0051832
0.336097 0.20138 -0.00948207
0.335262 0.198089 -0.0130092
0.338587 0.114994 -0.00137818
0.47646 0.242743 0.00149647
0.339895 0.12797 -0.00195053
0.330766 0.23012 0.155738
0.326381 0.230055 0.155843
0.337952 0.118952 -0.00227012
0.339288 0.132245 -0.00204505
0.338653 0.155194 -0.00471828
0.508276 0.242661 -1.93194e-05
0.504439 0.243145 -0.00011008
0.449222 0.117637 -0.00918728
0.447047 0.117384 -0.0090174
0.338627 0.158929 -0.00507248
0.338285 0.199418 -0.0105757
0.338856 0.189653 -0.0110125
0.324381 0.230228 0.155925
0.551923 0.244103 -0.000665512
0.385973 0.173748 -0.00197584
0.548424 0.243569 -0.00149346
0.488576 0.210987 -0.0124791
0.341321 0.201378 -0.0107816
0.340399 0.193611 -0.010495
0.341206 0.202194 -0.0114337
0.310325 0.242229 -0.0050358
0.295971 0.242336 -0.00519445
0.343631 0.128193 -0.0021209
0.548402 0.243806 -0.00350988
0.394131 0.176791 -0.000489797
0.5463 0.24374 -0.00355751
0.389586 0.17617 -0.00154707
0.343319 0.124834 -0.00222627
0.385709 0.175649 -0.00211407
0.343651 0.140445 -0.003449
0.384255 0.217487 -0.0120507
0.535559 0.23276 0.17268
0.342654 0.132403 -0.00241838
0.452997 0.186363 -0.00132897
0.522224 0.24358 -0.00392327
0.518298 0.243564 -0.00380124
0.51631 0.243462 -0.00361932
0.512074 0.24363 -0.00404286
0.52202 0.232528 0.172952
0.508302 0.243001 -0.0038622
0.432969 0.117038 -0.00893261
0.506173 0.243237 -0.00382024
0.501489 0.243947 -0.00367141
0.498551 0.243548 -0.00424599
0.343618 0.148064 -0.00495719
0.490093 0.243852 -0.00426707
0.486291 0.243826 -0.00432523
0.482488 0.243589 -0.00444619
0.478262 0.243583 -0.00450382
0.476577 0.243833 -0.00445134
0.471927 0.243906 -0.00407441
0.470111 0.243331 -0.00437351
0.456226 0.242873 -0.00458872
0.446203 0.242426 -0.00485443
0.442223 0.242573 -0.00486332
0.440113 0.24264 -0.00487128
0.5335 0.232718 0.176742
0.532078 0.232492 0.176899
0.363354 0.242208 -0.00685178
0.362156 0.242475 -0.0063694
0.346396 0.242184 -0.00708295
0.321807 0.24215 -0.00741818
0.306288 0.242357 -0.00689224
0.299761 0.24212 -0.00771872
0.296375 0.242693 -0.00663629
0.290406 0.243434 -0.00711496
0.471062 0.209118 -0.00228117
0.464294 0.242679 -0.00663029
0.462176 0.242676 -0.00665901
0.454582 0.243045 -0.00664789
0.342484 0.150993 -0.00540468
0.532208 0.232622 0.179026
0.442283 0.242775 -0.00689222
0.528538 0.232457 0.179072
0.440166 0.242772 -0.00692109
0.436324 0.242514 -0.00704998
0.432494 0.242382 -0.00714032
0.430375 0.242379 -0.00716922
0.42656 0.242374 -0.00722122
0.422445 0.242237 -0.00745677
0.393617 0.18059 -0.00064156
0.402218 0.242261 -0.00766074
0.389081 0.17998 -0.00157366
0.400297 0.242401 -0.00756005
0.396293 0.24231 -0.00755689
0.392351 0.242833 -0.00753454
0.390219 0.242766 -0.00758265
0.386293 0.242261 -0.00820613
0.387148 0.179724 -0.00179467
0.384152 0.242173 -0.00826089
0.329748 0.172272 -0.00118234
0.379488 0.242167 -0.00832448
0.360393 0.242912 -0.00801643
0.337941 0.24211 -0.00889086
0.456317 0.190665 -0.00128821
0.542376 0.243783 -0.00679296
0.452503 0.19017 -0.00123091
0.53252 0.243333 -0.00745042
0.448685 0.189679 -0.000923512
0.52871 0.232412 0.182736
0.52054 0.243847 -0.00678386
0.518851 0.243845 -0.0068069
0.509982 0.243833 -0.00692778
0.484643 0.243798 -0.00727323
0.397203 0.182996 -0.000400014
0.469722 0.243682 -0.00778341
0.39338 0.182498 -0.000467615
0.458251 0.243753 -0.00784377
0.345714 0.120127 -0.00166999
0.358259 0.243212 -0.00995545
0.505863 0.232028 0.183684
0.356371 0.243151 -0.0101184
0.344434 0.243604 -0.00918461
0.328562 0.242934 -0.0100159
0.345581 0.124345 -0.0019502
0.306198 0.243035 -0.0101417
0.304447 0.242909 -0.010134
0.472418 0.208529 -0.00223936
0.345494 0.151031 -0.00530189
0.344531 0.201126 -0.0112885
0.347915 0.121729 -0.00223511
0.346783 0.134424 -0.0022395
0.524162 0.232137 0.186453
0.522591 0.231922 0.186961
0.333256 0.229969 0.159675
0.560056 0.244754 -0.00348855
0.326912 0.229889 0.159825
0.452168 0.192711 -0.000915449
0.551006 0.244247 -0.00348289
0.322761 0.230059 0.160064
0.516296 0.244094 -0.00676436
0.498571 0.24407 -0.00700602
0.482389 0.244142 -0.00691999
0.520553 0.231559 0.189019
0.478309 0.244184 -0.0068223
0.471132 0.244047 -0.00695882
0.330747 0.244217 -0.00917784
0.512225 0.231168 0.189627
0.56255 0.245059 -0.0071044
0.522229 0.231963 0.190137
0.477626 0.209781 -0.00269705
0.396874 0.185534 -0.000334645
0.346171 0.146676 -0.00483551
0.347259 0.144096 -0.00431377
0.548358 0.244281 -0.00753232
0.546226 0.244426 -0.00751577
0.520245 0.231784 0.192769
0.528455 0.244949 -0.00758868
0.388551 0.184445 -0.000897249
0.386615 0.18419 -0.00118064
0.526349 0.244946 -0.00761737
0.506165 0.244412 -0.00804887
0.504434 0.245406 -0.00817935
0.502326 0.245501 -0.00817769
0.500247 0.244783 -0.00801231
0.476231 0.244497 -0.00841797
0.327281 0.176484 -0.000914183
0.390551 0.243858 -0.0101636
0.36615 0.244077 -0.0104178
0.3623 0.243903 -0.0105226
0.354025 0.244376 -0.0104841
0.350355 0.245484 -0.00985821
0.346315 0.244704 -0.0103657
0.344146 0.244558 -0.0103921
0.34036 0.245011 -0.0104682
0.336407 0.24415 -0.0104549
0.334478 0.244406 -0.0102348
0.330479 0.245229 -0.00997819
0.326338 0.245152 -0.0108173
0.324406 0.244409 -0.0105879
0.392813 0.186943 -0.000228314
0.320569 0.244986 -0.010115
0.38831 0.186352 -0.000785705
0.318285 0.245559 -0.00976101
0.316185 0.245556 -0.00978967
0.348749 0.124345 -0.00175135
0.348517 0.135289 -0.00253901
0.532228 0.245255 -0.00951874
0.50272 0.230297 0.199584
0.528416 0.245475 -0.00950053
0.526325 0.245373 -0.00956006
0.512456 0.245228 -0.00978872
0.508279 0.244716 -0.0100047
0.498582 0.244956 -0.0100574
0.430067 0.19371 -0.000867754
0.348033 0.138928 -0.00396056
0.426896 0.193302 -0.000445126
0.492269 0.244863 -0.0101701
0.480363 0.245373 -0.00992969
0.348478 0.144953 -0.00464725
0.472486 0.245004 -0.0103864
0.46827 0.244829 -0.0104969
0.466586 0.244827 -0.0105199
0.462366 0.244653 -0.0106306
0.34809 0.202976 -0.0100772
0.394143 0.244005 -0.0118734
0.351158 0.223875 -0.0105586
0.392566 0.188846 -0.000179285
0.349264 0.205853 -0.013438
0.353545 0.126305 -0.00233831
0.353931 0.124447 -0.00154205
0.353553 0.122264 -0.00205944
0.33437 0.245298 -0.0117855
0.554485 0.245587 -0.0111941
0.353493 0.221914 -0.0108782
0.354774 0.123782 -0.00108529
0.354727 0.122251 -0.00123784
0.356156 0.117955 -0.00217513
0.278644 0.220166 -0.00237116
0.357378 0.207467 -0.0123523
0.360281 0.116989 -0.00117126
0.360043 0.121669 -0.001893
0.35918 0.14203 -0.00708175
0.358425 0.20495 -0.0113832
0.357862 0.213225 -0.0114858
0.385895 0.189914 -0.000783637
0.361993 0.121162 -0.000441166
0.362241 0.11837 -0.00164775
0.360156 0.137837 -0.00705701
0.495827 0.208317 -0.0104918
0.363409 0.1378 -0.00734833
0.395868 0.193146 -0.000388242
0.362909 0.203425 -0.0115855
0.405206 0.212641 0.198072
0.365836 0.12125 -0.00165187
0.364543 0.128045 -0.00215542
0.364747 0.13826 -0.00747686
0.364786 0.209263 -0.0116428
0.364423 0.204068 -0.0112442
0.40619 0.220893 0.19814
0.496093 0.208084 -0.00184883
0.406292 0.217157 0.197812
0.40502 0.211578 0.195018
0.406586 0.221533 0.194493
0.387343 0.193976 -0.0003398
0.406614 0.217472 0.194023
0.313903 0.218442 -0.00533082
0.405127 0.211785 0.19178
0.36831 0.216581 -0.00750611
0.374356 0.21616 -0.00770603
0.404944 0.21014 0.187251
0.384182 0.214992 -0.00793679
0.367736 0.118628 -0.00087201
0.397281 0.197202 -0.00031881
0.312358 0.21907 -0.00673326
0.406629 0.221545 0.191969
0.406623 0.220702 0.183735
0.40569 0.21657 0.1838
0.406284 0.218642 0.181948
0.317483 0.186859 -0.000619289
0.405724 0.216877 0.181689
0.380657 0.216649 -0.0135148
0.510877 0.229932 0.213393
0.403542 0.209296 0.173337
0.368521 0.127745 -0.0026325
0.369277 0.123718 -0.0031045
0.30942 0.189049 -0.000422383
0.368765 0.224932 -0.00970444
0.368246 0.225051 -0.0107671
0.368758 0.217233 -0.0119665
0.368566 0.215136 -0.0124099
0.406062 0.2176 0.178737
0.406269 0.223325 0.178157
0.406686 0.221271 0.177793
0.474139 0.207304 -0.0034518
0.406527 0.223791 0.173987
0.506831 0.230007 0.215611
0.504908 0.22979 0.215756
0.406961 0.221788 0.173857
0.406616 0.224156 0.172172
0.40659 0.219818 0.171754
0.482482 0.207291 -0.00383114
0.405635 0.211923 0.171179
0.406187 0.225616 0.170234
0.371177 0.119163 -0.000206897
0.412429 0.211173 0.182011
0.485235 0.229484 0.216026
0.412271 0.21295 0.181923
0.41199 0.217303 0.182081
0.371006 0.139837 -0.00632841
0.372945 0.228728 -0.0040075
0.371788 0.196363 -0.00886814
0.37164 0.202631 -0.0106786
0.329325 0.195514 -0.000630563
0.310974 0.192482 -0.000120094
0.371587 0.200986 -0.0104148
0.37129 0.206951 -0.0114365
0.41323 0.219716 0.174097
0.413519 0.223526 0.174127
0.413875 0.225251 0.173936
0.406989 0.224072 0.167852
0.506598 0.229596 0.219375
0.413005 0.219762 0.1722
0.502932 0.229135 0.219824
0.413685 0.225452 0.1722
0.406781 0.220042 0.167439
0.413131 0.223613 0.170323
0.406624 0.220251 0.165487
0.406371 0.22449 0.163909
0.491521 0.228796 0.219922
0.412678 0.219843 0.168382
0.413214 0.223631 0.168371
0.406257 0.224702 0.161958
0.4062 0.220668 0.161564
0.396219 0.205452 1.85333e-05
0.405379 0.217 0.161511
0.412844 0.219883 0.164478
0.405968 0.220641 0.158003
0.472118 0.20729 -0.00784657
0.473965 0.207008 -0.00743043
0.412765 0.219944 0.160624
0.374413 0.119907 -0.00197138
0.412478 0.219995 0.158738
0.373512 0.220229 -0.00855759
0.373344 0.204704 -0.00986948
0.412193 0.22008 0.154437
0.303021 0.193396 -0.000205038
0.411665 0.209618 0.151868
0.415311 0.223818 0.175236
0.414511 0.225819 0.174471
0.323372 0.230318 0.164028
0.413365 0.222232 0.164442
0.506688 0.229245 0.222444
0.413487 0.223707 0.160591
0.503069 0.229145 0.223007
0.412876 0.222354 0.158728
0.499967 0.229196 0.223078
0.414087 0.225586 0.158608
0.336628 0.199688 -0.000289826
0.413986 0.225621 0.156699
0.332146 0.199109 -0.000347333
0.330234 0.198861 -0.000318613
0.412194 0.216291 0.151458
0.412278 0.220106 0.152013
0.406103 0.22134 0.155327
0.306599 0.195801 -0.000213338
0.304715 0.195553 -6.01131e-05
0.412261 0.220161 0.148162
0.405572 0.220154 0.147253
0.469079 0.229402 0.225279
0.412245 0.220216 0.144316
0.374884 0.14779 -0.00781162
0.41233 0.220236 0.142384
0.498005 0.229377 0.225296
0.299504 0.195528 -9.15807e-05
0.374738 0.148986 -0.00998769
0.376677 0.228736 -0.00445809
0.375027 0.207261 -0.0105368
0.412563 0.220269 0.138519
0.405841 0.220664 0.145069
0.386048 0.214021 -0.00846346
0.379869 0.207193 0.000729539
0.405232 0.217125 0.140963
0.342259 0.202334 0.000545267
0.340393 0.202085 0.000823082
0.412543 0.219848 0.13468
0.404886 0.225162 0.137837
0.412136 0.219949 0.129937
0.411909 0.213002 0.128055
0.33649 0.201593 0.000382187
0.334514 0.201347 3.71374e-05
0.411937 0.216656 0.127972
0.412014 0.21998 0.128514
0.411558 0.212644 0.123999
0.326115 0.200274 -0.000461116
0.411401 0.212492 0.122193
0.4112 0.210314 0.120092
0.405751 0.21893 0.13556
0.411061 0.21003 0.118505
0.417855 0.227335 0.178179
0.368688 0.214244 -0.00931105
0.377722 0.151649 -0.00382311
0.377466 0.149759 -0.00405427
0.469197 0.229235 0.228928
0.314995 0.228754 0.169484
0.376666 0.143827 -0.00691043
0.337461 0.228867 0.169456
0.414508 0.22753 0.152338
0.377314 0.156121 -0.00979565
0.429176 0.215532 -0.000215767
0.427272 0.215281 -6.23167e-05
0.411988 0.217164 0.12559
0.383423 0.209592 0.000596531
0.411786 0.210055 0.124021
0.412152 0.220504 0.124216
0.411698 0.216759 0.122262
0.473347 0.229132 0.229883
0.411781 0.218657 0.122296
0.411622 0.216821 0.118454
0.411643 0.218723 0.118493
0.379871 0.213556 -0.0135806
0.494736 0.205288 -0.00537916
0.49797 0.205056 -0.00503719
0.405689 0.220057 0.128815
0.411186 0.213204 0.107933
0.411229 0.217005 0.108011
0.41125 0.218905 0.10805
0.33565 0.203414 0.000689927
0.333674 0.203169 0.0003449
0.412137 0.222469 0.108246
0.4113 0.213254 0.104133
0.327815 0.20243 -0.000253825
0.411154 0.217066 0.104217
0.469287 0.228885 0.231988
0.411175 0.218966 0.104256
0.466724 0.228727 0.232506
0.411962 0.222222 0.104298
0.4112 0.213291 0.10224
0.411117 0.217097 0.102322
0.411013 0.219006 0.102364
0.411624 0.222597 0.102264
0.410939 0.213367 0.0984577
0.410918 0.217168 0.098537
0.309956 0.200115 -4.79762e-05
0.410939 0.219066 0.0985759
0.41142 0.222823 0.0986444
0.410714 0.213412 0.0965686
0.410637 0.213453 0.0942044
0.410784 0.21914 0.0943201
0.410831 0.215374 0.0918785
0.410885 0.219005 0.0921104
0.410085 0.210331 0.0837464
0.378247 0.231075 0.144529
0.49422 0.205342 -0.00671021
0.556773 0.23768 0.130133
0.555152 0.23746 0.130152
0.420985 0.232593 0.184832
0.382171 0.231353 0.144461
0.313227 0.228667 0.17119
0.409636 0.224096 0.169748
0.379406 0.146412 -0.00536941
0.317008 0.228499 0.172913
0.551519 0.236938 0.132789
0.556541 0.237912 0.134338
0.554947 0.237814 0.13437
0.315025 0.228609 0.172984
0.418171 0.234209 0.154817
0.556601 0.237677 0.136391
0.555007 0.237579 0.136423
0.337006 0.228754 0.173492
0.551237 0.237107 0.136463
0.335589 0.228525 0.173479
0.380899 0.179878 -0.0034906
0.380349 0.161582 -0.00531328
0.378188 0.145507 -0.00636605
0.378627 0.144181 -0.0066549
0.379871 0.162094 -0.00740824
0.331793 0.228032 0.176501
0.379202 0.158212 -0.00746663
0.413763 0.23676 0.1003
0.545004 0.236606 0.139171
0.413517 0.236806 0.0988931
0.380262 0.194306 -0.00667692
0.380137 0.183584 -0.00737847
0.413279 0.236881 0.0946614
0.410859 0.213511 0.0894792
0.556677 0.237023 0.140473
0.555069 0.236865 0.140494
0.410737 0.213541 0.0880638
0.551428 0.236943 0.140606
0.549309 0.236813 0.140645
0.410821 0.215432 0.0881029
0.41124 0.21919 0.0881816
0.543015 0.236667 0.140798
0.410833 0.217382 0.0843714
0.41123 0.219245 0.0844145
0.379743 0.190604 -0.00885745
0.412156 0.2272 0.0845886
0.556737 0.236788 0.142525
0.555159 0.236752 0.142563
0.411069 0.219285 0.0825306
0.551488 0.236708 0.142657
0.549396 0.2367 0.142713
0.379919 0.188532 -0.00914651
0.545189 0.236563 0.142808
0.543128 0.236677 0.142881
0.377619 0.158902 -0.0110338
0.53908 0.237273 0.143083
0.41081 0.22126 0.0783327
0.378725 0.190532 -0.0103535
0.41044 0.213751 0.0758205
0.410776 0.221296 0.0759834
0.378427 0.220151 -0.00947267
0.410495 0.213805 0.0720678
0.41081 0.219454 0.072194
0.411241 0.223037 0.0724395
0.378635 0.208654 -0.0103825
0.410753 0.217596 0.0702794
0.41076 0.210066 0.068256
0.410655 0.211962 0.0682888
0.41055 0.213859 0.0683213
0.335119 0.228468 0.177023
0.32983 0.228058 0.180098
0.555308 0.236404 0.146686
0.421558 0.232516 0.185661
0.55168 0.236544 0.146806
0.549573 0.236475 0.146852
0.421074 0.233198 0.171927
0.545323 0.236154 0.146915
0.420506 0.233308 0.168224
0.541212 0.236445 0.147072
0.539137 0.236498 0.147136
0.42083 0.234683 0.168196
0.427663 0.217263 0.000102017
0.420493 0.233351 0.164419
0.418541 0.233268 0.150459
0.313332 0.227591 0.182906
0.329914 0.22773 0.184079
0.405958 0.223708 0.115153
0.406038 0.221467 0.115514
0.382273 0.12085 -0.000843313
0.541259 0.236149 0.149112
0.539172 0.236141 0.149166
0.381778 0.119108 -0.000667704
0.382269 0.165396 0.00054617
0.3817 0.161512 1.18446e-05
0.38339 0.178265 -0.00100197
0.551784 0.236252 0.149895
0.382956 0.173057 -0.000688823
0.367711 0.211979 -0.00881074
0.545388 0.235561 0.150471
0.327554 0.227381 0.190652
0.374511 0.212117 -0.00915776
0.382671 0.18735 -0.00129876
0.326184 0.22699 0.192618
0.412163 0.230098 0.0794853
0.336181 0.226233 0.19628
0.381106 0.178795 -0.00367682
0.413503 0.23703 0.0782571
0.412784 0.229622 0.0743469
0.381612 0.171717 -0.00461723
0.381335 0.16781 -0.00507839
0.381943 0.191676 -0.00471083
0.410847 0.213402 0.0659878
0.537316 0.235569 0.152427
0.380992 0.183925 -0.00524383
0.381436 0.168181 -0.00711802
0.410964 0.219555 0.0642472
0.411036 0.21204 0.0617682
0.410952 0.215817 0.0618375
0.411057 0.219581 0.0619187
0.410831 0.205517 0.0578945
0.541436 0.235684 0.154256
0.410883 0.210225 0.057991
0.410904 0.212108 0.0580297
0.411198 0.215855 0.058125
0.329538 0.204584 7.78772e-05
0.327627 0.204336 0.00010659
0.41124 0.219619 0.0582022
0.410902 0.203663 0.056
0.319932 0.203346 -2.75262e-05
0.300118 0.200784 2.0396e-05
0.450207 0.222767 -0.000176309
0.541534 0.235632 0.156338
0.539433 0.235564 0.156379
0.410738 0.207909 0.0560708
0.535376 0.235214 0.156595
0.410722 0.210265 0.0561158
0.432496 0.219834 -0.000175018
0.410743 0.212148 0.0561545
0.411164 0.215886 0.0562605
0.381481 0.171775 -0.0106583
0.359211 0.210378 -0.000447454
0.380965 0.179456 -0.0118157
0.380882 0.170774 -0.0127429
0.410751 0.210293 0.0542559
0.410709 0.21218 0.0542895
0.411171 0.219678 0.0544742
0.381803 0.213553 -0.0114107
0.380342 0.210126 -0.00952389
0.47692 0.117889 -0.00991518
0.410814 0.190121 0.0506113
0.345275 0.208551 0.000261357
0.410616 0.192186 0.0510059
0.329337 0.206488 0.000376016
0.410774 0.194343 0.051155
0.535344 0.234896 0.160548
0.410957 0.19574 0.051663
0.411059 0.200113 0.0523769
0.411046 0.203729 0.0518268
0.41095 0.210319 0.0519475
0.43344 0.222527 0.000120901
0.410845 0.212207 0.0519753
0.410971 0.215963 0.0520594
0.4112 0.219702 0.0526172
0.40721 0.213407 0.115624
0.284909 0.217194 -0.0068617
0.41091 0.224026 0.0480293
0.410307 0.214438 0.0420583
0.410339 0.216157 0.0422496
0.410059 0.216227 0.0389737
0.424118 0.227471 0.189731
0.406074 0.219702 0.112461
0.423405 0.22548 0.179691
0.345036 0.211081 0.000887375
0.407359 0.213436 0.112225
0.422472 0.232485 0.178778
0.423207 0.232926 0.173409
0.422387 0.234643 0.154192
0.42173 0.233837 0.149552
0.421909 0.234763 0.148605
0.405941 0.22405 0.11084
0.352955 0.214076 0.00012707
0.351007 0.213835 -9.33278e-05
0.348479 0.213501 6.94636e-05
0.433029 0.225698 0.000202583
0.405979 0.224269 0.108799
0.429766 0.225932 1.70656e-05
0.406108 0.220129 0.10838
0.426593 0.225508 0.000314379
0.376317 0.219631 0.00108489
0.405558 0.224526 0.104786
0.372505 0.219136 0.00114217
0.369963 0.218806 0.00118035
0.405802 0.220559 0.104294
0.403536 0.226952 0.0913404
0.384472 0.121922 -0.00138848
0.416437 0.230884 0.0926396
0.415098 0.23874 0.0903126
0.415827 0.237145 0.0843738
0.415335 0.237231 0.0820364
0.382961 0.148046 -0.00416487
0.306312 0.226285 0.203028
0.304055 0.225698 0.202912
0.354562 0.209879 -0.00333411
0.414997 0.239299 0.0676585
0.414626 0.239362 0.0662484
0.413201 0.229567 0.0624096
0.414432 0.239425 0.0625299
0.413947 0.239531 0.0583296
0.431182 0.229973 0.000336029
0.413755 0.238078 0.0562495
0.414 0.239548 0.05602
0.375865 0.222817 0.000792736
0.412461 0.156411 0.0501006
0.55261 0.233497 0.176121
0.412912 0.174191 0.0504879
0.548243 0.232577 0.176542
0.412872 0.175741 0.0508226
0.412095 0.180262 0.0505333
0.411994 0.182604 0.0505701
0.294117 0.212294 0.000523252
0.411651 0.185886 0.0506035
0.412244 0.136341 0.0483027
0.382778 0.177837 -0.0104376
0.310406 0.226244 0.207113
0.411297 0.210334 0.0496565
0.411177 0.212068 0.0495243
0.411199 0.216458 0.0493023
0.310267 0.225368 0.2087
0.305748 0.224821 0.209242
0.304262 0.224903 0.209295
0.326642 0.2252 0.210474
0.324669 0.225249 0.210527
0.407508 0.213559 0.110995
0.550173 0.23353 0.179349
0.548567 0.233374 0.17935
0.411368 0.219755 0.0479907
0.544324 0.233816 0.179901
0.407276 0.212067 0.109195
0.412086 0.135957 0.0450463
0.407657 0.213933 0.107299
0.411149 0.180368 0.0453507
0.411043 0.182244 0.0453763
0.411338 0.185995 0.0454789
0.411073 0.196321 0.0456524
0.411115 0.200075 0.0457294
0.359639 0.222684 0.000457857
0.35773 0.222437 0.000486545
0.410967 0.203838 0.0457873
0.353911 0.221941 0.000543924
0.410798 0.205726 0.0458068
0.41123 0.210399 0.0459408
0.544455 0.233306 0.184354
0.411124 0.212284 0.0459669
0.410913 0.216058 0.0460187
0.411208 0.219794 0.0461209
0.410962 0.224053 0.0457147
0.407692 0.214141 0.105241
0.410732 0.21422 0.0441093
0.411211 0.180461 0.0411943
0.411189 0.182335 0.0412282
0.411484 0.186082 0.0413331
0.3774 0.22622 0.00121961
0.407627 0.21452 0.101531
0.373478 0.226372 0.00104407
0.407391 0.211018 0.101068
0.411514 0.200136 0.0416071
0.410963 0.203903 0.0420815
0.410794 0.205789 0.0420995
0.410783 0.210487 0.0421888
0.410634 0.219896 0.042354
0.367096 0.210365 -0.00756881
0.411539 0.180514 0.0389225
0.411623 0.182386 0.0389683
0.411665 0.186129 0.0390451
0.406191 0.224934 0.0947156
0.406047 0.2238 0.0926819
0.343491 0.222524 0.000808185
0.410623 0.210527 0.040319
0.339789 0.222001 0.00155025
0.405899 0.221814 0.0923222
0.293745 0.216097 0.00111886
0.411175 0.202099 0.0374469
0.410708 0.205865 0.0379256
0.410591 0.210566 0.0380018
0.410359 0.21246 0.0380104
0.410611 0.219957 0.0381845
0.411536 0.180595 0.0352338
0.411695 0.182307 0.0354399
0.411662 0.186207 0.0353568
0.362996 0.22698 0.000747724
0.386347 0.173135 0.000123644
0.359145 0.226496 0.000556039
0.357235 0.226249 0.000584727
0.524925 0.232367 0.190709
0.411523 0.1965 0.0355364
0.411565 0.200243 0.0356131
0.411205 0.202131 0.0356045
0.41074 0.205903 0.0356187
0.353417 0.225753 0.000642102
0.350871 0.225423 0.000680355
0.410539 0.210607 0.0356837
0.410433 0.212491 0.0357065
0.410411 0.21625 0.0357758
0.410833 0.219971 0.0358994
0.337679 0.223647 0.00187684
0.410897 0.205926 0.0337919
0.410758 0.216251 0.033971
0.411358 0.188309 0.0318259
0.333118 0.223096 0.00132139
0.386582 0.15147 -0.00406299
0.411608 0.200768 0.0324031
0.41152 0.202183 0.0319579
0.41081 0.212524 0.0320605
0.410915 0.216267 0.0321456
0.385831 0.220275 -0.00902196
0.38596 0.218609 -0.00925063
0.384817 0.22057 -0.0102474
0.411184 0.204376 0.0278107
0.38562 0.21453 -0.0104628
0.410859 0.192693 0.0251505
0.411031 0.206715 0.0256245
0.410971 0.208872 0.0255644
0.410631 0.212638 0.0255852
0.346736 0.226854 0.000351045
0.410927 0.216363 0.0256991
0.342966 0.226344 0.00071965
0.341119 0.226079 0.00112179
0.410735 0.190672 0.0233468
0.410586 0.192546 0.0233595
0.410615 0.190702 0.0219502
0.41086 0.212674 0.0224008
0.410902 0.216413 0.0224775
0.32454 0.225112 0.212363
0.359145 0.210699 -0.0137712
0.426489 0.225438 0.1825
0.371611 0.210059 -0.0139335
0.424476 0.234186 0.172716
0.355765 0.20837 -0.0039881
0.468905 0.117422 -0.00800114
0.320766 0.225182 0.212627
0.539079 0.231749 0.201003
0.534589 0.232036 0.200821
0.420724 0.23181 0.132219
0.316807 0.225341 0.212751
0.40617 0.225376 0.0905651
0.419951 0.231755 0.104236
0.406037 0.224342 0.088365
0.41843 0.237751 0.0844219
0.54258 0.231342 0.202763
0.406045 0.22247 0.0860644
0.538912 0.231301 0.202826
0.416317 0.241077 0.0594573
0.405042 0.22662 0.0827788
0.413113 0.169524 0.0504147
0.405456 0.224998 0.0821497
0.292433 0.225293 0.213205
0.414791 0.239793 0.0525506
0.290597 0.225454 0.213118
0.405312 0.223906 0.0784486
0.318362 0.22499 0.216707
0.41518 0.23985 0.0481062
0.412488 0.129967 0.0440478
0.412279 0.134126 0.0445685
0.41256 0.140234 0.0442542
0.412949 0.152393 0.0445294
0.31694 0.224826 0.216683
0.412672 0.164311 0.0446004
0.387556 0.147924 -0.00475675
0.415023 0.239985 0.0459783
0.411993 0.12998 0.0416907
0.36477 0.208254 -0.00659798
0.38698 0.145992 -0.00566511
0.387857 0.135273 -0.00711399
0.542686 0.23093 0.206359
0.388547 0.220063 -0.00777818
0.538995 0.23065 0.206881
0.388377 0.218387 -0.00790407
0.530604 0.231399 0.207087
0.528655 0.231163 0.207234
0.387714 0.214793 -0.00984182
0.364801 0.208019 -0.00787929
0.411738 0.130068 0.0379761
0.40525 0.22522 0.0760402
0.412022 0.130162 0.0361698
0.405741 0.223671 0.0719118
0.413079 0.144311 0.0342732
0.549466 0.230321 0.208173
0.412807 0.130391 0.0321383
0.390094 0.151182 -0.00431587
0.412857 0.142484 0.0323752
0.388624 0.144817 -0.00631563
0.388848 0.143381 -0.00683799
0.388767 0.137602 -0.0071487
0.529216 0.230958 0.208755
0.391237 0.226124 -0.00536363
0.412086 0.182557 0.0312005
0.412528 0.132499 0.0281685
0.412731 0.140722 0.0286579
0.307016 0.224256 0.00144517
0.390873 0.224612 -0.00718683
0.303197 0.22376 0.00150255
0.412055 0.186427 0.0292481
0.411744 0.200345 0.0296527
0.412444 0.132862 0.0261788
0.412199 0.128724 0.0237761
0.41222 0.130585 0.0238142
0.411928 0.186417 0.025282
0.411271 0.190159 0.0252556
0.368251 0.208541 -0.0143326
0.411787 0.202286 0.0255607
0.369505 0.20913 -0.0140772
0.412112 0.130456 0.0225754
0.344023 0.206759 -0.0013703
0.406759 0.221867 0.0714572
0.411419 0.186498 0.0215373
0.292858 0.222464 0.00103404
0.41081 0.190088 0.0213564
0.410882 0.19538 0.0216201
0.405793 0.223945 0.067933
0.405898 0.224169 0.0657923
0.405823 0.224994 0.062008
0.411729 0.186544 0.0192967
0.447863 0.11779 -0.00635448
0.411376 0.1969 0.0196169
0.412353 0.200513 0.0192015
0.412552 0.229849 0.0197822
0.390998 0.149317 -0.00480216
0.391823 0.147459 -0.00526277
0.391327 0.14291 -0.00604675
0.391706 0.141792 -0.00554714
0.392589 0.223877 -0.00535028
0.412484 0.226617 0.017882
0.391095 0.216095 -0.00730712
0.391071 0.213986 -0.00753073
0.411979 0.190504 0.0154482
0.41193 0.196871 0.0154061
0.407186 0.221932 0.0666764
0.407643 0.220369 0.0651557
0.411698 0.193223 0.011644
0.411838 0.196469 0.0121855
0.411279 0.212812 0.0119315
0.411474 0.220725 0.0121128
0.411839 0.223024 0.012221
0.407244 0.210816 0.062055
0.407177 0.207073 0.0608087
0.411535 0.212763 0.00805035
0.411743 0.216556 0.00888885
0.407236 0.206769 0.0594661
0.428136 0.232723 0.180423
0.42847 0.232705 0.178471
0.427321 0.231948 0.175401
0.426019 0.234213 0.152701
0.425895 0.233779 0.151307
0.510918 0.118171 -0.00953552
0.509086 0.118273 -0.0094699
0.407221 0.223112 0.0594339
0.505027 0.118129 -0.00852768
0.407351 0.212429 0.0587348
0.407313 0.211152 0.0586076
0.424002 0.228187 0.131818
0.424064 0.230037 0.131852
0.503187 0.118173 -0.00844822
0.423583 0.23014 0.127709
0.499166 0.118425 -0.00831099
0.422609 0.231211 0.125021
0.406804 0.204942 0.056299
0.495038 0.11819 -0.00876154
0.493203 0.118235 -0.00868211
0.421761 0.23149 0.109271
0.489124 0.118001 -0.00842672
0.420609 0.231659 0.106071
0.485117 0.118281 -0.00829694
0.418771 0.238629 0.08537
0.419361 0.237656 0.082124
0.404267 0.227955 0.0460742
0.417723 0.241754 0.06601
0.417354 0.243722 0.0600438
0.416586 0.241986 0.058114
0.417584 0.243724 0.0563877
0.404077 0.228179 0.0439483
0.416883 0.242025 0.0498733
0.417495 0.243801 0.0495084
0.404241 0.228492 0.0423422
0.416992 0.243421 0.0480787
0.416518 0.243505 0.0462008
0.319678 0.23292 0.00241909
0.49927 0.11853 -0.00656697
0.416327 0.239946 0.0421752
0.509226 0.229994 0.218923
0.413022 0.13055 0.0280476
0.313906 0.232192 0.00225637
0.394287 0.149491 -0.00491717
0.394692 0.197673 -0.00515783
0.412372 0.132618 0.0218632
0.315807 0.208958 -0.00708587
0.412435 0.130744 0.0197361
0.351662 0.207038 -0.00819676
0.407327 0.207139 0.0555737
0.407979 0.217588 0.0543765
0.406998 0.201378 0.0528434
0.407504 0.178603 0.0508153
0.407092 0.164911 0.0494513
0.407002 0.161916 0.0491529
0.407836 0.219473 0.0528475
0.296172 0.232561 0.00158551
0.408093 0.217762 0.0526246
0.294169 0.232335 0.00124146
0.40778 0.213489 0.0522304
0.537979 0.123304 -0.00359049
0.407482 0.211784 0.0521024
0.552934 0.127785 -0.0040057
0.407418 0.209648 0.0518896
0.407477 0.207508 0.0516556
0.407425 0.205799 0.0514853
0.407279 0.203665 0.0512867
0.412453 0.186625 0.0153048
0.412481 0.200575 0.0155692
0.413082 0.132936 0.0116848
0.413101 0.136857 0.0122158
0.406772 0.186146 0.0495377
0.406957 0.175681 0.0485565
0.537669 0.125252 -0.00316436
0.535786 0.12499 -0.0032615
0.406843 0.174132 0.0482676
0.407331 0.212 0.0499608
0.407203 0.207725 0.0495349
0.41212 0.191791 0.0130616
0.407237 0.203871 0.0491245
0.407328 0.201796 0.0490664
0.407232 0.197835 0.0489309
0.406628 0.194057 0.0482021
0.40644 0.191929 0.0480118
0.52397 0.229726 0.226915
0.541207 0.127661 -0.00304694
0.407473 0.219915 0.0485724
0.407355 0.213925 0.0479646
0.483023 0.118439 -0.00610977
0.407116 0.210077 0.0476035
0.412413 0.198882 0.0116035
0.41346 0.230781 0.0117451
0.55311 0.131066 -0.00368206
0.542864 0.129808 -0.00302661
0.406701 0.194247 0.0460153
0.41303 0.141819 0.00865981
0.413046 0.143208 0.00868832
0.40645 0.189978 0.0456124
0.479351 0.118442 -0.00593165
0.523691 0.22949 0.229153
0.406675 0.188636 0.0458699
0.413173 0.156954 0.00866261
0.413217 0.160968 0.00874492
0.519498 0.126671 -0.00342785
0.407217 0.220092 0.0468804
0.413378 0.176562 0.00891094
0.40603 0.224678 0.0430467
0.556087 0.133351 -0.00393233
0.412024 0.218861 0.00898375
0.412098 0.223195 0.00938149
0.40451 0.228601 0.0399566
0.403928 0.229034 0.0317472
0.404147 0.228185 0.0316066
0.403707 0.228359 0.0299552
0.412951 0.163201 0.00540717
0.412724 0.169223 0.00501976
0.412956 0.172935 0.00513308
0.413097 0.17914 0.00536493
0.413134 0.183125 0.00535437
0.412983 0.186831 0.00539332
0.412451 0.190548 0.00535818
0.396153 0.152889 -0.00333096
0.396315 0.14672 -0.00435055
0.395777 0.145717 -0.00489304
0.411806 0.212877 0.00564284
0.412166 0.216571 0.00578043
0.412213 0.218892 0.00583213
0.54493 0.133922 -0.00309254
0.412932 0.18141 0.00319679
0.412931 0.182711 0.0030389
0.5171 0.130227 -0.00330125
0.412686 0.198935 0.0032874
0.556178 0.137264 -0.00359239
0.313969 0.209208 -0.0105672
0.41272 0.193852 0.00229319
0.544117 0.135699 -0.00341116
0.412813 0.196945 0.00206617
0.412514 0.209181 0.00162388
0.412894 0.216577 0.00183627
0.412888 0.207335 -0.00014725
0.412799 0.209353 -0.00043113
0.408583 0.137177 0.0486526
0.407856 0.183364 0.0503785
0.407894 0.181475 0.0504668
0.541999 0.137333 -0.0035221
0.540061 0.137106 -0.00330496
0.538136 0.136872 -0.00315066
0.424748 0.230021 0.126675
0.407347 0.157593 0.0482054
0.537123 0.118577 -0.00984589
0.407799 0.14803 0.0471301
0.408134 0.135706 0.0459323
0.531149 0.118899 -0.00936197
0.31058 0.224753 0.222923
0.407532 0.17792 0.048547
0.418484 0.244537 0.0551021
0.407464 0.162009 0.046892
0.417975 0.242781 0.0522784
0.407897 0.155905 0.0461789
0.408274 0.154114 0.0459272
0.408304 0.151716 0.0458913
0.408032 0.148106 0.045339
0.417993 0.243787 0.0436209
0.417237 0.24261 0.0419631
0.41822 0.244233 0.0418321
0.408118 0.144168 0.0453527
0.417029 0.239943 0.0396363
0.417457 0.242062 0.0380568
0.41779 0.242496 0.0362858
0.417688 0.239976 0.0321343
0.416225 0.240013 0.0278375
0.416205 0.240311 0.0261118
0.41657 0.24049 0.0219946
0.541681 0.139863 -0.00351966
0.539775 0.139616 -0.00349103
0.407638 0.178088 0.0463489
0.548868 0.233571 0.184143
0.413272 0.133493 0.00945833
0.413438 0.138432 0.00988257
0.407192 0.175986 0.0462069
0.407485 0.172078 0.0457455
0.41343 0.146955 0.00837486
0.40831 0.165436 0.0457856
0.407679 0.16214 0.0446686
0.407729 0.218203 0.0483461
0.555406 0.143577 -0.00368061
0.413275 0.162268 0.00635949
0.545199 0.142283 -0.00327656
0.40737 0.198066 0.0462953
0.54139 0.141789 -0.00321933
0.408003 0.186414 0.0449558
0.408307 0.184233 0.0446715
0.408242 0.182084 0.0444574
0.54867 0.233497 0.190484
0.407889 0.163535 0.0430141
0.40785 0.162245 0.0428856
0.413345 0.176744 0.0050064
0.415564 0.236628 0.00590429
0.515075 0.118376 -0.009077
0.407733 0.158374 0.0425
0.407411 0.21838 0.0466641
0.414209 0.132924 0.00193159
0.414022 0.135205 0.00193583
0.413787 0.137023 0.00192197
0.407203 0.214142 0.0458171
0.413644 0.147157 0.00207866
0.413685 0.150852 0.00215443
0.407195 0.210081 0.0457432
0.407286 0.208098 0.0456054
0.541121 0.143702 -0.00304469
0.539239 0.143443 -0.00314175
0.537376 0.143172 -0.00336443
0.407355 0.204236 0.0451863
0.489745 0.136993 -0.00264875
0.4135 0.162846 0.00233655
0.413312 0.166997 0.00237479
0.413316 0.169309 0.00241811
0.413038 0.173001 0.00242953
0.413409 0.17661 0.00284171
0.413321 0.186886 0.00273998
0.41339 0.190435 0.00266764
0.554863 0.147403 -0.00333124
0.552958 0.147156 -0.00330263
0.41418 0.137108 0.000647781
0.414054 0.140793 0.000238163
0.538891 0.232255 0.198848
0.407484 0.200367 0.0447551
0.414094 0.145131 0.000235168
0.414165 0.14724 0.000829613
0.414186 0.149085 0.000867445
0.41406 0.152776 0.000457672
0.414065 0.164765 0.000677563
0.414341 0.16662 0.000767838
0.292874 0.22355 0.228984
0.414163 0.153294 -0.0013169
0.413562 0.154972 -0.00160503
0.413568 0.15935 -0.00160149
0.414122 0.161125 -0.00118295
0.414438 0.162972 -0.000632636
0.414535 0.17173 -0.000453038
0.548763 0.232641 0.202119
0.419687 0.130009 -4.71696e-05
0.545337 0.232101 0.202391
0.543719 0.231766 0.20286
0.536411 0.231986 0.202539
0.414015 0.173261 -0.00083388
0.414203 0.174803 -0.000766924
0.414218 0.186954 -0.000693165
0.55652 0.149551 -0.00331089
0.414531 0.190739 -0.000829792
0.414276 0.192825 -0.000767671
0.413864 0.195272 -0.000615939
0.413693 0.197126 -0.000617851
0.536471 0.231751 0.204595
0.413649 0.198976 -0.000593286
0.413893 0.216996 -0.000214355
0.554616 0.149304 -0.00328227
0.413684 0.219327 -0.000215858
0.413534 0.223043 -0.000179548
0.414162 0.224679 0.000132022
0.408073 0.180485 0.0429955
0.545416 0.231568 0.205959
0.414302 0.19714 -0.00229581
0.536517 0.231574 0.206137
0.414067 0.198995 -0.00231217
0.53292 0.231896 0.206301
0.414171 0.202684 -0.00222286
0.414141 0.207311 -0.00259631
0.414656 0.219727 -0.00135972
0.407147 0.220314 0.0447164
0.407177 0.2186 0.04453
0.407604 0.208299 0.0433623
0.407652 0.20443 0.0429454
0.427616 0.229719 0.125039
0.407413 0.200572 0.0425848
0.427181 0.230714 0.122793
0.427103 0.230734 0.121878
0.538788 0.147223 -0.00329509
0.40728 0.19843 0.0423845
0.532355 0.147033 -0.00318334
0.51529 0.144175 -0.00294202
0.426134 0.230908 0.116421
0.425891 0.230951 0.115055
0.424953 0.231101 0.111423
0.406409 0.190324 0.0416974
0.407296 0.188534 0.0413385
0.407097 0.220536 0.042545
0.556324 0.151432 -0.00351329
0.407247 0.216676 0.042108
0.552465 0.150958 -0.0032047
0.407223 0.214531 0.0418863
0.407716 0.208506 0.0411528
0.40736 0.210834 0.0396997
0.40762 0.204567 0.0392062
0.418664 0.242419 0.0318602
0.407226 0.200945 0.0386815
0.401549 0.125971 -0.00531486
0.418524 0.241092 0.0281926
0.557944 0.153595 -0.00330445
0.556027 0.153353 -0.00321296
0.407284 0.196903 0.0381538
0.418797 0.241082 0.0255201
0.407228 0.194917 0.0380438
0.406438 0.225152 0.0390138
0.535672 0.151331 -0.00314262
0.407176 0.220937 0.038591
0.532569 0.150291 -0.00304847
0.407277 0.216922 0.0383985
0.407159 0.214922 0.037958
0.500107 0.146717 -0.00260824
0.545916 0.236994 0.00351215
0.541764 0.236456 0.00377285
0.539719 0.236314 0.00388345
0.535737 0.236535 0.00402612
0.407225 0.202673 0.0372393
0.414838 0.132806 -0.000197228
0.414701 0.137205 -0.00059605
0.414698 0.140438 -0.000988698
0.414759 0.145962 -0.000875397
0.415282 0.149211 -0.000257403
0.414995 0.16714 -0.000441078
0.415013 0.16897 4.65438e-05
0.41473 0.142767 -0.00183987
0.415562 0.216886 -0.00121945
0.415453 0.222425 -0.00114195
0.415957 0.136979 -0.00348357
0.551358 0.230593 0.222626
0.416008 0.141566 -0.00338948
0.415572 0.143062 -0.00375466
0.415408 0.166618 -0.00336325
0.406877 0.194705 0.0358764
0.557324 0.157442 -0.00257833
0.4152 0.183772 -0.00279734
0.415663 0.209542 -0.00313042
0.406367 0.191294 0.0356213
0.407153 0.214665 0.0361577
0.499696 0.149887 -0.0025266
0.416362 0.18748 -0.00427605
0.407062 0.211655 0.0358578
0.415073 0.207297 -0.00464858
0.406849 0.223487 0.034938
0.406158 0.195105 0.0320751
0.406292 0.22451 0.0313906
0.404413 0.227519 0.0297
0.43586 0.222772 0.196449
0.3469 0.207717 -0.0113783
0.321677 0.208725 -0.0125862
0.363508 0.208236 -0.0143342
0.428034 0.238535 0.111425
0.531742 0.236692 0.00417849
0.531726 0.156639 -0.00275963
0.529739 0.23674 0.00425964
0.551477 0.230359 0.225761
0.549332 0.230055 0.226232
0.426911 0.238867 0.0932024
0.426823 0.239355 0.0913915
0.344097 0.204485 -0.00357356
0.500002 0.152506 -0.00247082
0.347943 0.205159 -0.00432242
0.525769 0.237024 0.00439248
0.399707 0.210063 -0.00271177
0.489656 0.150948 -0.00232041
0.398295 0.19144 -0.00369402
0.398308 0.211513 -0.00346222
0.419539 0.242454 0.0157576
0.418988 0.235667 0.0137368
0.419436 0.237227 0.00563063
0.398179 0.207226 -0.00388918
0.521828 0.236772 0.00703663
0.519837 0.236882 0.00710792
0.515862 0.237286 0.00673734
0.417593 0.169133 -0.00255074
0.417506 0.223155 -0.000693858
0.416724 0.134789 -0.00380647
0.417329 0.146747 -0.00390675
0.417888 0.149076 -0.00374461
0.416932 0.151286 -0.00391055
0.398541 0.203306 -0.00398267
0.398091 0.201608 -0.00402388
0.417118 0.209468 -0.00371356
0.408458 0.14188 0.0459371
0.417816 0.141367 -0.00568534
0.417581 0.143169 -0.00570469
0.408503 0.137946 0.0459586
0.408801 0.131979 0.0453734
0.417763 0.208993 -0.00492279
0.417866 0.205807 -0.00629804
0.408909 0.126704 0.0425058
0.409045 0.167995 0.0450426
0.40806 0.155665 0.0430398
0.40792 0.148305 0.0427336
0.428367 0.238633 0.0972763
0.407866 0.138329 0.0421379
0.407994 0.1344 0.0417029
0.532015 0.237062 0.00801622
0.408828 0.130304 0.0411267
0.421502 0.244924 0.0157004
0.422153 0.246197 0.0158382
0.509624 0.157654 -0.00214911
0.408043 0.152299 0.0413637
0.4201 0.226561 -8.26586e-05
0.475363 0.153193 -0.00182223
0.41835 0.136381 -0.00476632
0.418216 0.147304 -0.0045981
0.408225 0.134484 0.0394587
0.408739 0.130456 0.038942
0.408795 0.128241 0.0391429
0.408327 0.186143 0.0426596
0.408478 0.184366 0.0428867
0.408009 0.152427 0.0396135
0.509347 0.159571 -0.0018493
0.407761 0.150305 0.0394364
0.407903 0.14074 0.0384034
0.419465 0.207106 -0.00680558
0.418718 0.208972 -0.00694115
0.408063 0.134839 0.0357104
0.40766 0.188265 0.0390274
0.40829 0.184756 0.0385326
0.407929 0.1809 0.0381969
0.407726 0.151048 0.0350856
0.40734 0.188442 0.0373369
0.407573 0.147288 0.03294
0.407467 0.145136 0.0327338
0.407265 0.203068 0.0360892
0.407104 0.199512 0.0354502
0.518702 0.162667 -0.0025707
0.516731 0.162451 -0.00204023
0.407176 0.197175 0.0359648
0.427006 0.229779 0.0488045
0.407103 0.188652 0.0351884
0.407775 0.187263 0.0353467
0.408097 0.185072 0.0350484
0.407426 0.149172 0.0313876
0.407374 0.147444 0.0312154
0.407306 0.145452 0.0311078
0.407407 0.141758 0.0310527
0.505347 0.118361 -0.00604182
0.55631 0.169575 -0.0018385
0.407419 0.220775 0.0358603
0.551826 0.169012 -0.00152074
0.407704 0.21944 0.036102
0.424532 0.244953 0.0144595
0.423674 0.244501 0.011335
0.407403 0.207381 0.0348877
0.512015 0.237181 0.0108191
0.421343 0.22281 -0.000775499
0.422362 0.22689 -0.00065976
0.422055 0.230693 -0.00114486
0.407203 0.145826 0.0297422
0.503009 0.118458 -0.00566627
0.407164 0.14453 0.029613
0.407242 0.205398 0.0329317
0.407258 0.20324 0.0326988
0.407157 0.187693 0.0310703
0.407715 0.185914 0.0307598
0.547579 0.170182 -0.00133333
0.407614 0.219796 0.0325966
0.407188 0.213763 0.0320499
0.407022 0.21161 0.0318582
0.562902 0.225182 -0.0142745
0.420621 0.205231 -0.00702093
0.406837 0.187871 0.0293755
0.561521 0.174111 -0.00182644
0.407389 0.215704 0.0299794
0.407058 0.214199 0.0276598
0.555768 0.173382 -0.00148965
0.406643 0.188268 0.0249909
0.406895 0.218262 0.0263412
0.40698 0.214374 0.0259055
0.40679 0.210056 0.0254898
0.406883 0.220644 0.0243569
0.563045 0.243864 -0.0131946
0.40656 0.208545 0.0231415
0.406407 0.200762 0.0223466
0.405973 0.190398 0.0213439
0.406396 0.224753 0.0226729
0.508568 0.236838 0.0134517
0.405875 0.196663 0.0197935
0.405702 0.194942 0.0196524
0.405706 0.191044 0.0192338
0.554123 0.175757 -0.00115441
0.562612 0.217733 -0.013927
0.426318 0.242913 0.0120955
0.405594 0.228021 0.0164832
0.403581 0.228301 0.0139095
0.403794 0.228338 0.00934426
0.403267 0.227788 0.00627239
0.305705 0.20767 -0.00707699
0.56177 0.235264 -0.0139472
0.560832 0.233622 -0.0137369
0.560877 0.231804 -0.0137506
0.317575 0.20672 -0.00715153
0.424917 0.218594 -0.00155445
0.56181 0.221737 -0.0144441
0.424229 0.227981 -0.00182814
0.30891 0.206887 -0.00852423
0.312426 0.20695 -0.00870409
0.422503 0.126715 -0.00697581
0.331557 0.203279 -0.00188258
0.336463 0.203092 -0.00207375
0.424159 0.214955 -0.00560155
0.33987 0.203625 -0.00189898
0.554947 0.179705 -0.00132678
0.553022 0.179463 -0.0011727
0.33778 0.20312 -0.00432075
0.339462 0.20347 -0.00403229
0.319479 0.205483 -0.00611494
0.402237 0.214069 -0.000348752
0.561502 0.241686 -0.0129896
0.338201 0.203184 -0.00827009
0.561513 0.23741 -0.0125557
0.341586 0.203805 -0.00812328
0.560819 0.23362 -0.0131604
0.561 0.231237 -0.0131339
0.425904 0.229152 -0.00144161
0.561268 0.227427 -0.0126844
0.401207 0.217278 -0.00149186
0.400047 0.217505 -0.00336616
0.39989 0.213589 -0.00329091
0.40868 0.131142 0.0350243
0.409035 0.128982 0.0348402
0.431756 0.229763 0.0439764
0.561308 0.21345 -0.0131896
0.40827 0.133111 0.0330848
0.408644 0.131282 0.0328178
0.430315 0.242353 0.0119578
0.338157 0.203351 -0.0104763
0.428589 0.24233 0.00841711
0.522429 0.237049 0.0182145
0.518354 0.236765 0.0184199
0.428445 0.242697 0.0032893
0.42849 0.227094 -0.00178729
0.426109 0.125727 -0.00676511
0.407682 0.141438 0.0282824
0.407537 0.137982 0.027947
0.427218 0.216094 -0.00663526
0.407543 0.141609 0.0260928
0.549504 0.181585 -0.000934532
0.545869 0.179828 -0.00091001
0.434495 0.229967 0.0385973
0.434125 0.232376 0.0388888
0.407005 0.133875 0.0253891
0.429749 0.228748 -0.00191468
0.556355 0.183746 -0.00125761
0.407333 0.140304 0.0197132
0.406957 0.21641 0.0229875
0.406905 0.21468 0.0228151
0.54934 0.182849 -0.000901971
0.545541 0.182356 -0.000844888
0.406775 0.210355 0.0223843
0.406826 0.143257 0.0165434
0.43524 0.232148 0.0343739
0.556109 0.185643 -0.00120875
0.432171 0.230696 -0.00120006
0.406675 0.131453 0.0157692
0.432568 0.235971 -0.00202475
0.406907 0.220869 0.0221288
0.431587 0.125655 -0.00725028
0.406883 0.15476 0.0155028
0.406109 0.207207 0.0190662
0.508306 0.236143 0.0208718
0.434859 0.238324 -0.00190004
0.552062 0.187047 -0.00110278
0.406142 0.15735 0.0118995
0.406251 0.155554 0.0121309
0.506868 0.235816 0.0234127
0.56073 0.203389 -0.0114815
0.560798 0.201635 -0.0113698
0.50438 0.235954 0.0235018
0.560585 0.197587 -0.0119489
0.436805 0.229307 -0.00162577
0.56101 0.193496 -0.0114298
0.560715 0.191776 -0.0116356
0.560598 0.187487 -0.0116754
0.498566 0.236314 0.0233801
0.405538 0.227047 0.0132333
0.436688 0.23898 -0.00404067
0.404033 0.177886 0.00608033
0.555617 0.189437 -0.00111103
0.404342 0.176112 0.0058014
0.404453 0.150366 0.00298674
0.404419 0.227056 0.00902555
0.54324 0.118943 -0.00987262
0.541146 0.118866 -0.00932373
0.404708 0.194536 0.00542123
0.404638 0.190192 0.00497103
0.403616 0.180285 0.00419251
0.43761 0.238341 0.00384024
0.437508 0.236841 0.00208205
0.554993 0.193865 -0.000746146
0.438542 0.22869 -0.00252249
0.404426 0.174695 0.00320235
0.404204 0.15846 0.00120479
0.404027 0.150448 0.00141193
0.403987 0.148486 0.000915363
0.404013 0.194487 0.00371014
0.404315 0.190371 0.0032661
0.404132 0.184296 0.00266084
0.535023 0.118955 -0.00911782
0.510296 0.235986 0.0245567
0.440606 0.239306 -0.00228552
0.403991 0.164937 0.000375638
0.403668 0.160823 0.00025221
0.403482 0.158671 7.30641e-05
0.333945 0.201213 -0.00402438
0.335377 0.201803 -0.00420833
0.337095 0.202664 -0.00828384
0.442374 0.243336 0.00325088
0.404061 0.188805 0.00135159
0.303563 0.204361 -0.00861048
0.444537 0.244192 9.77069e-05
0.560793 0.19356 -0.00992661
0.502473 0.236211 0.0250221
0.560727 0.187313 -0.00982239
0.335425 0.201955 -0.0100503
0.56089 0.183527 -0.00960238
0.560765 0.181484 -0.00985447
0.403713 0.224137 0.00347518
0.323754 0.20128 -0.0045992
0.327581 0.199304 -0.00416684
0.549429 0.11936 -0.00803025
0.541978 0.19989 -0.000370022
0.329353 0.200018 -0.00417703
0.538179 0.199397 -0.000312939
0.536279 0.19915 -0.0002844
0.447797 0.152552 -0.00551445
0.40715 0.141881 0.0163175
0.447189 0.239285 -0.00452382
0.450457 0.19444 -0.00248881
0.449608 0.243152 -0.000159506
0.449957 0.156067 -0.0041164
0.506506 0.2357 0.0268653
0.406016 0.161527 0.00921016
0.531683 0.199839 -0.00018524
0.545263 0.119497 -0.00784667
0.502556 0.236174 0.0269814
0.451053 0.152406 -0.0055667
0.498541 0.236142 0.0271506
0.496521 0.235999 0.0272484
0.40663 0.172034 0.00881388
0.405666 0.141993 0.0058378
0.405305 0.13199 0.00485783
0.45113 0.212876 -0.00980439
0.406008 0.158257 0.00567918
0.405636 0.153941 0.00531614
0.405403 0.152231 0.00519578
0.449764 0.19627 -0.000538763
0.451825 0.214953 -0.0114342
0.450232 0.225452 -0.0143268
0.453775 0.157176 -0.00360779
0.502744 0.236288 0.0308869
0.498695 0.236004 0.0310784
0.496688 0.235989 0.0311619
0.49269 0.236083 0.0313167
0.560743 0.165423 -0.0080633
0.454099 0.180702 -0.00423157
0.560774 0.161464 -0.00843893
0.45417 0.182601 -0.00411967
0.560647 0.15759 -0.00808143
0.560944 0.155466 -0.00822778
0.454253 0.194428 -0.00649594
0.560533 0.15232 -0.00835416
0.560431 0.149 -0.00844436
0.406218 0.170178 0.00508634
0.454258 0.194664 -0.0079146
0.404709 0.148103 0.00312481
0.560448 0.14163 -0.00841617
0.405085 0.14453 0.00263312
0.561001 0.137522 -0.00858725
0.404939 0.142369 0.00244044
0.405507 0.170442 0.00303852
0.405107 0.168309 0.00292207
0.488734 0.235761 0.0334674
0.455434 0.152784 -0.00573035
0.456025 0.161025 -0.00471106
0.454807 0.170614 -0.00475139
0.455562 0.186692 -0.00480482
0.455418 0.19051 -0.00455421
0.502941 0.236465 0.0347966
0.456988 0.239996 -0.00299057
0.405056 0.164382 0.00251162
0.455548 0.152839 -0.00732288
0.455852 0.162821 -0.00707075
0.454868 0.166744 -0.00695289
0.404964 0.16221 0.00230311
0.40468 0.154489 0.00215535
0.494751 0.235987 0.241749
0.498403 0.236835 0.241534
0.515114 0.237797 0.241205
0.495084 0.234442 0.241488
0.458145 0.241046 0.000135193
0.498893 0.236245 0.0349784
0.457129 0.156761 -0.00542159
0.503381 0.234761 0.241346
0.504823 0.235327 0.241333
0.456955 0.160715 -0.00713913
0.456538 0.187325 -0.00687108
0.457009 0.190643 -0.00709926
0.508761 0.235648 0.241269
0.457191 0.184472 -0.00918067
0.505016 0.233839 0.241295
0.456927 0.158849 -0.0109109
0.506831 0.234452 0.241276
0.530878 0.236059 0.24088
0.425775 0.197026 3.72324e-05
0.534767 0.236752 0.240826
0.527322 0.234079 0.240981
0.531245 0.234469 0.241273
0.535093 0.235073 0.241058
0.545156 0.236381 0.240879
0.546966 0.236604 0.241018
0.548405 0.214863 -0.000135547
0.537204 0.233459 0.240954
0.528103 0.231159 0.240815
0.531472 0.23121 0.24088
0.540168 0.22988 0.240692
0.548159 0.216759 -8.67061e-05
0.498238 0.210289 -0.000336248
0.360041 0.234438 0.241928
0.476673 0.207492 -1.22264e-05
