0.428915 0.234555 0.215234
0.531143 0.23691 0.208979
0.529374 0.237031 0.208924
0.527626 0.236967 0.208916
0.525344 0.236797 0.208593
0.523276 0.236635 0.208493
0.443068 0.234822 0.215363
0.445274 0.234825 0.215393
0.447468 0.234704 0.215455
0.521535 0.236467 0.208509
0.450998 0.234709 0.215503
0.453208 0.234753 0.215522
0.455421 0.234839 0.215531
0.354488 0.154436 -0.00804561
0.467756 0.170343 -0.0114688
0.285989 0.146844 -0.00723603
0.513886 0.178345 -0.0111148
0.466173 0.17215 -0.010523
0.285771 0.148784 -0.00706174
0.513698 0.180261 -0.0115664
0.489376 0.23581 0.216198
0.491493 0.235641 0.216094
0.493431 0.235644 0.21612
0.495099 0.235776 0.216286
0.497292 0.236041 0.216248
0.499486 0.236195 0.216239
0.501252 0.236032 0.216306
0.503021 0.235829 0.216384
0.505217 0.235914 0.216392
0.507409 0.236082 0.216379
0.509173 0.236002 0.216425
0.511136 0.235811 0.216375
0.513258 0.235774 0.216652
0.515339 0.235928 0.21653
0.5171 0.23593 0.216554
0.5193 0.235933 0.216584
0.521489 0.23606 0.216582
0.523241 0.236145 0.216584
0.524992 0.23623 0.216586
0.527184 0.236302 0.216598
0.510783 0.236362 0.208163
0.497364 0.236781 0.208538
0.495184 0.236431 0.20815
0.465962 0.174044 -0.0113497
0.563556 0.237286 0.207133
0.539037 0.236456 0.216724
0.540705 0.236465 0.216922
0.561397 0.237118 0.207143
0.559189 0.237197 0.207094
0.557391 0.237443 0.207011
0.381262 0.23474 0.216298
0.383043 0.234805 0.216306
0.384621 0.234636 0.216224
0.555609 0.237605 0.206947
0.553438 0.237492 0.206944
0.551306 0.237145 0.206996
0.549572 0.237019 0.207002
0.547362 0.237126 0.206946
0.545168 0.237137 0.206912
0.413 0.234656 0.217209
0.415248 0.234893 0.217178
0.417456 0.23491 0.217204
0.543427 0.237052 0.206908
0.541679 0.237008 0.206894
0.539497 0.236922 0.206884
0.537299 0.236961 0.206844
0.535544 0.236958 0.20682
0.533367 0.236831 0.20682
0.531178 0.236787 0.206799
0.529427 0.236743 0.206785
0.527672 0.236741 0.206761
0.52562 0.236599 0.206514
0.523306 0.236553 0.206303
0.521567 0.236365 0.206323
0.44302 0.234739 0.217608
0.445116 0.234717 0.217531
0.447438 0.234629 0.216808
0.453618 0.234638 0.216892
0.455462 0.234667 0.217623
0.457137 0.234676 0.217822
0.459352 0.234789 0.217823
0.285553 0.150723 -0.0068874
0.372104 0.228675 0.180781
0.285302 0.152652 -0.00683772
0.369667 0.228421 0.18078
0.285052 0.15458 -0.00678805
0.362153 0.22892 0.181068
0.359684 0.228894 0.181119
0.475128 0.234798 0.218152
0.519359 0.236506 0.206259
0.479212 0.23483 0.21809
0.480982 0.235327 0.217983
0.483182 0.235801 0.218332
0.485383 0.235969 0.218318
0.487144 0.235971 0.218342
0.489346 0.235809 0.218416
0.491644 0.235472 0.218271
0.493228 0.235574 0.218266
0.49507 0.235796 0.218499
0.497266 0.235985 0.21848
0.499466 0.235988 0.21851
0.501229 0.235929 0.21855
0.502998 0.235745 0.218624
0.505197 0.23579 0.218643
0.507394 0.235875 0.218651
0.509163 0.235754 0.218708
0.510936 0.235571 0.218782
0.513129 0.235718 0.218773
0.515309 0.23601 0.218726
0.517069 0.236012 0.21875
0.51927 0.236015 0.21878
0.52147 0.236018 0.21881
0.52323 0.236021 0.218834
0.524985 0.236085 0.218841
0.527174 0.236191 0.218844
0.529364 0.236277 0.218852
0.511462 0.236413 0.206171
0.499585 0.236785 0.206359
0.497392 0.236782 0.206329
0.392042 0.228509 0.182329
0.510598 0.194265 -0.0114326
0.390035 0.22862 0.182401
0.563595 0.237163 0.204956
0.559201 0.237219 0.204882
0.557402 0.237464 0.204801
0.555628 0.237586 0.204748
0.553421 0.237686 0.204694
0.551271 0.237456 0.204717
0.549529 0.237392 0.204708
0.547319 0.237512 0.204649
0.54513 0.237509 0.204619
0.543406 0.237321 0.204638
0.541662 0.237257 0.204629
0.415227 0.23503 0.219364
0.417439 0.235074 0.219383
0.539477 0.237212 0.204609
0.537305 0.237065 0.204612
0.535559 0.237 0.204603
0.533397 0.23675 0.20463
0.531232 0.236499 0.204658
0.529476 0.236496 0.204634
0.52772 0.236494 0.20461
0.525525 0.236491 0.20458
0.52333 0.236488 0.20455
0.521574 0.236485 0.204526
0.519365 0.236648 0.204458
0.51716 0.236789 0.204395
0.5154 0.236849 0.204357
0.465062 0.234954 0.220083
0.467271 0.235019 0.220096
0.469477 0.235022 0.220126
0.471246 0.235149 0.220117
0.473014 0.235275 0.220107
0.513646 0.236846 0.204333
0.511461 0.236719 0.204331
0.509275 0.236592 0.20433
0.480951 0.235409 0.220182
0.483157 0.235743 0.220123
0.485359 0.235849 0.220125
0.487121 0.235789 0.220166
0.489325 0.235586 0.220251
0.49153 0.235424 0.220326
0.493291 0.23555 0.220317
0.495047 0.2358 0.220274
0.497245 0.235927 0.22027
0.499448 0.235868 0.220317
0.501214 0.235747 0.220375
0.502984 0.235564 0.220449
0.505183 0.235649 0.220456
0.507377 0.235817 0.220442
0.509138 0.23582 0.220466
0.510916 0.235575 0.220557
0.513096 0.235908 0.220497
0.515275 0.236199 0.220449
0.517025 0.236325 0.220439
0.519242 0.236122 0.220525
0.521446 0.236084 0.220567
0.523212 0.236025 0.220607
0.524979 0.235965 0.220648
0.527167 0.236092 0.220645
0.529367 0.236095 0.220675
0.531128 0.236097 0.220699
0.533328 0.2361 0.220729
0.535528 0.236103 0.220759
0.537289 0.236106 0.220783
0.539041 0.23617 0.22079
0.499616 0.236703 0.20417
0.509002 0.196675 -0.0115973
0.388044 0.228608 0.182444
0.565116 0.237642 0.203251
0.555631 0.237644 0.202972
0.547518 0.237451 0.202991
0.545395 0.23759 0.202753
0.543403 0.237442 0.202847
0.541651 0.237439 0.202823
0.539478 0.237312 0.202822
0.537313 0.237123 0.202834
0.535583 0.236935 0.202853
0.533411 0.236767 0.202861
0.531242 0.236557 0.202878
0.529487 0.236555 0.202854
0.527731 0.236552 0.20283
0.525524 0.236673 0.202772
0.523337 0.236608 0.202756
0.521582 0.236606 0.202732
0.519375 0.236747 0.202669
0.517169 0.23691 0.202602
0.515406 0.237031 0.20255
0.513657 0.236967 0.20254
0.511472 0.236861 0.202533
0.509288 0.236713 0.202536
0.507548 0.236463 0.202569
0.503164 0.236333 0.202537
0.501398 0.236578 0.202457
0.49964 0.236638 0.202419
0.383686 0.181758 -0.00793334
0.555644 0.237641 0.201211
0.545579 0.237627 0.201074
0.533395 0.237032 0.201036
0.531224 0.236889 0.200596
0.52948 0.236804 0.200591
0.480925 0.235228 0.222009
0.483131 0.235478 0.221972
0.485335 0.235481 0.222002
0.487098 0.235484 0.222026
0.489303 0.235404 0.222078
0.491508 0.235366 0.22212
0.493269 0.235492 0.22211
0.495027 0.23568 0.222083
0.497224 0.235869 0.222061
0.499426 0.235872 0.222091
0.501193 0.23575 0.22215
0.502963 0.235567 0.222225
0.505161 0.235674 0.222226
0.507352 0.235883 0.222199
0.509114 0.235885 0.222224
0.510875 0.235888 0.222248
0.513071 0.235973 0.222255
0.515251 0.236265 0.222205
0.517001 0.236391 0.222195
0.519221 0.236147 0.222293
0.521427 0.236088 0.22234
0.523205 0.235905 0.222416
0.524967 0.235907 0.22244
0.527151 0.236075 0.222424
0.529343 0.23616 0.222431
0.531103 0.236163 0.222455
0.533141 0.236064 0.222422
0.535264 0.235974 0.222654
0.537297 0.235924 0.222608
0.539033 0.236112 0.22258
0.527731 0.23676 0.200576
0.525538 0.236757 0.200546
0.523345 0.236754 0.200516
0.521599 0.236669 0.200511
0.519399 0.236749 0.200462
0.517189 0.236952 0.200386
0.515427 0.237074 0.200335
0.513686 0.236906 0.200348
0.511499 0.23682 0.200336
0.509307 0.236817 0.200306
0.50756 0.236691 0.20031
0.505375 0.236536 0.200314
0.353311 0.234763 0.222575
0.503178 0.236602 0.200269
0.501417 0.236765 0.200208
0.499663 0.236763 0.200184
0.386022 0.228843 0.182545
0.555674 0.23756 0.199027
0.541658 0.237573 0.19971
0.529464 0.237135 0.198313
0.527712 0.237133 0.198289
0.52553 0.237047 0.198277
0.523356 0.236879 0.198283
0.521608 0.236815 0.198273
0.519415 0.236832 0.198238
0.51721 0.236994 0.198173
0.483105 0.235296 0.2238
0.485311 0.235299 0.22383
0.487074 0.235426 0.223819
0.489104 0.235425 0.223759
0.491219 0.235336 0.223992
0.493245 0.235496 0.223886
0.494998 0.2357 0.224298
0.497195 0.235896 0.224274
0.499396 0.235954 0.224289
0.501162 0.235832 0.224347
0.502848 0.235606 0.224257
0.505267 0.235599 0.224217
0.507329 0.235841 0.224432
0.509088 0.235885 0.224444
0.510856 0.235805 0.224491
0.513048 0.235945 0.224483
0.515236 0.23614 0.224458
0.516997 0.236143 0.224482
0.519207 0.236036 0.224543
0.521421 0.235902 0.224612
0.523183 0.235904 0.224636
0.524936 0.235989 0.224637
0.52712 0.236157 0.22462
0.529312 0.236242 0.224627
0.531077 0.236204 0.224663
0.532863 0.236 0.224745
0.535065 0.236003 0.224775
0.537255 0.236088 0.224781
0.539 0.236215 0.224771
0.541167 0.236451 0.224735
0.515457 0.236992 0.198149
0.513722 0.236742 0.198179
0.51153 0.236739 0.198149
0.509326 0.236922 0.198079
0.507577 0.236857 0.198068
0.565727 0.23682 0.225862
0.384024 0.228893 0.182602
0.292692 0.234849 0.224075
0.30925 0.235015 0.223666
0.311202 0.235454 0.223679
0.313239 0.235062 0.223709
0.50583 0.236731 0.198071
0.503632 0.236852 0.198014
0.501435 0.236973 0.197958
0.499683 0.23697 0.197934
0.38206 0.228695 0.182601
0.483073 0.23509 0.226083
0.48528 0.235217 0.226078
0.487045 0.23526 0.22609
0.488809 0.235263 0.226114
0.491016 0.235238 0.226152
0.493217 0.235475 0.226115
0.494972 0.235597 0.22655
0.497169 0.235827 0.226515
0.499369 0.235912 0.226521
0.501137 0.235791 0.226581
0.503004 0.235487 0.226427
0.505012 0.235475 0.226392
0.507312 0.235676 0.226701
0.509075 0.235678 0.226725
0.51083 0.235804 0.226713
0.51303 0.235848 0.226731
0.515222 0.235996 0.22672
0.516979 0.23606 0.226726
0.519199 0.235857 0.226815
0.521405 0.235819 0.226857
0.523168 0.235821 0.226881
0.524906 0.236071 0.226834
0.527081 0.236321 0.226793
0.529261 0.23651 0.226769
0.531035 0.236389 0.226829
0.533243 0.23633 0.226877
0.535443 0.236333 0.226907
0.537195 0.236397 0.226913
0.53893 0.236585 0.226884
0.541129 0.236588 0.226914
0.543328 0.236591 0.226944
0.525525 0.237271 0.196467
0.546885 0.236349 0.227063
0.52335 0.237124 0.196468
0.51959 0.237035 0.196522
0.517486 0.237075 0.196308
0.515481 0.236927 0.1964
0.513742 0.236738 0.196415
0.511554 0.236673 0.196398
0.509347 0.236918 0.196316
0.507594 0.236916 0.196292
0.565269 0.236869 0.227172
0.383436 0.183687 -0.00788366
0.293112 0.234979 0.225765
0.309 0.235256 0.22567
0.311068 0.23569 0.225632
0.313096 0.235501 0.225893
0.314402 0.234873 0.226451
0.505854 0.236665 0.196321
0.503655 0.236828 0.196256
0.487015 0.235095 0.228363
0.488781 0.235098 0.228387
0.490988 0.235101 0.228417
0.493192 0.235289 0.228394
0.494951 0.235539 0.228346
0.497151 0.235686 0.228334
0.499354 0.23573 0.228352
0.501122 0.235609 0.228412
0.502897 0.235364 0.228508
0.505102 0.235367 0.228538
0.507298 0.235556 0.228514
0.509058 0.23562 0.22852
0.510814 0.235746 0.228508
0.513009 0.235873 0.228502
0.515212 0.235876 0.228532
0.516975 0.235878 0.228556
0.519178 0.235881 0.228586
0.521381 0.235884 0.228616
0.523144 0.235887 0.22864
0.524881 0.236137 0.228592
0.527053 0.236428 0.228538
0.52923 0.236637 0.228507
0.530989 0.23664 0.228531
0.533203 0.236519 0.228597
0.535419 0.236398 0.228664
0.537171 0.236463 0.22867
0.538906 0.236651 0.228639
0.541111 0.236612 0.228681
0.543331 0.236471 0.228754
0.54511 0.23635 0.228814
0.54687 0.236352 0.228838
0.549061 0.236417 0.22885
0.551231 0.236606 0.228825
0.501452 0.237093 0.196169
0.499698 0.237153 0.196132
0.380124 0.228312 0.182556
0.295492 0.235615 0.193171
0.525527 0.237388 0.195122
0.513753 0.236859 0.194627
0.565257 0.236872 0.228945
0.383186 0.185615 -0.00783399
0.378175 0.228052 0.182541
0.293234 0.234976 0.22746
0.30931 0.235394 0.227117
0.311203 0.235722 0.227492
0.313074 0.23556 0.227477
0.511568 0.236773 0.194614
0.494932 0.235357 0.230179
0.497134 0.235504 0.230166
0.499334 0.235672 0.230148
0.501105 0.235489 0.230227
0.502875 0.235368 0.230287
0.50509 0.235186 0.230372
0.509371 0.236853 0.194567
0.507618 0.236851 0.194543
0.510797 0.235688 0.230304
0.512996 0.235774 0.23031
0.515197 0.235818 0.230328
0.51696 0.23582 0.230352
0.519168 0.235782 0.230394
0.521379 0.235703 0.230448
0.523125 0.235891 0.230417
0.524869 0.236079 0.230386
0.527045 0.236329 0.230343
0.376165 0.228225 0.182627
0.374135 0.228521 0.182742
0.533013 0.236507 0.230285
0.535148 0.236318 0.230549
0.537171 0.236343 0.230481
0.538923 0.236407 0.230487
0.541121 0.236431 0.230511
0.543343 0.236289 0.230583
0.545113 0.23623 0.230626
0.546875 0.236232 0.23065
0.549166 0.236455 0.230807
0.551231 0.236502 0.231075
0.552992 0.236505 0.231099
0.554769 0.236429 0.230703
0.556996 0.236288 0.230776
0.559205 0.23625 0.230818
0.560929 0.236433 0.231232
0.563086 0.236656 0.231196
0.284829 0.175468 -0.00679485
0.298461 0.234983 0.229758
0.494913 0.235238 0.231996
0.497112 0.235488 0.231952
0.499318 0.235491 0.231982
0.501083 0.235493 0.232006
0.502859 0.235249 0.232104
0.505879 0.2366 0.194571
0.503679 0.236763 0.194507
0.499718 0.237212 0.194359
0.510797 0.235383 0.232175
0.512995 0.23551 0.232168
0.515191 0.235636 0.232161
0.516955 0.235639 0.232185
0.519144 0.235782 0.232618
0.521348 0.235785 0.232648
0.372133 0.228633 0.182814
0.284403 0.176717 -0.00775772
0.370161 0.228558 0.182842
0.367908 0.228387 0.182752
0.366064 0.228378 0.183064
0.364211 0.228581 0.182984
0.362189 0.228816 0.183085
0.335183 0.191162 -0.00758691
0.3602 0.228865 0.183142
0.373428 0.200043 -0.00756988
0.357927 0.228843 0.183087
0.367653 0.20324 -0.00839047
0.392079 0.228466 0.184368
0.390094 0.228392 0.184395
0.38811 0.228318 0.184423
0.386081 0.228615 0.184539
0.384074 0.228726 0.184611
0.38211 0.228528 0.184609
0.380166 0.228207 0.184577
0.378198 0.228071 0.184589
0.376186 0.228244 0.184676
0.298969 0.235043 0.231351
0.30019 0.235084 0.232426
0.480743 0.235333 0.234887
0.482951 0.235336 0.234917
0.485158 0.235339 0.234947
0.374155 0.228541 0.184792
0.372152 0.228652 0.184864
0.370169 0.22864 0.184906
0.368218 0.228441 0.184903
0.366259 0.228305 0.184915
0.364259 0.228416 0.184986
0.502828 0.235331 0.234307
0.50414 0.235365 0.235206
0.362225 0.228713 0.185103
0.512994 0.235312 0.233564
0.302435 0.112852 -0.0136831
0.547989 0.119653 -0.0107304
0.360224 0.228824 0.185175
0.358223 0.228935 0.185246
0.356246 0.228922 0.185288
0.528502 0.119618 -0.0111291
0.525966 0.119251 -0.0113418
0.45352 0.235597 0.235907
0.455153 0.235779 0.235725
0.456743 0.235437 0.236003
0.463502 0.235375 0.236414
0.464836 0.235422 0.235973
0.466865 0.235416 0.236092
0.475863 0.235392 0.236583
0.477195 0.235439 0.236141
0.295956 0.23555 0.191424
0.511585 0.236885 0.192389
0.482934 0.235633 0.236162
0.485139 0.235512 0.23623
0.504825 0.235468 0.23661
0.455214 0.236879 0.236717
0.509399 0.236813 0.192373
0.464833 0.23592 0.237598
0.507649 0.236769 0.192357
0.505898 0.236725 0.192341
0.503704 0.236791 0.192298
0.346618 0.237107 0.238669
0.412749 0.22953 -0.0107101
0.499731 0.237287 0.193023
0.507668 0.236874 0.190134
0.505926 0.236685 0.190147
0.374645 0.235495 0.188112
0.524054 0.118984 -0.0114385
0.374657 0.235462 0.187236
0.522158 0.118699 -0.0116609
0.440298 0.235433 0.184915
0.435613 0.235426 0.184851
0.433678 0.235534 0.185283
0.431569 0.235625 0.185473
0.354245 0.229033 0.18536
0.441971 0.235748 0.183264
0.439739 0.235413 0.183293
0.437538 0.235369 0.18327
0.435797 0.235491 0.183224
0.414653 0.229543 -0.0112685
0.433628 0.235695 0.183157
0.431447 0.235795 0.183109
0.390131 0.228349 0.186435
0.442022 0.235931 0.181469
0.439778 0.235472 0.181518
0.416844 0.229784 -0.0113236
0.419153 0.229574 -0.0115778
0.421375 0.229298 -0.0115342
0.437585 0.23549 0.181484
0.43586 0.235736 0.181417
0.43369 0.235919 0.181355
0.431505 0.235978 0.181314
0.388131 0.228398 0.186492
0.471658 0.118931 -0.00899368
0.423312 0.228869 -0.0115414
0.425239 0.228633 -0.0115857
0.427153 0.22872 -0.0116917
0.442047 0.235865 0.179718
0.439821 0.235572 0.179737
0.437646 0.235735 0.179679
0.43593 0.236043 0.179603
0.433762 0.236226 0.179541
0.431588 0.236348 0.179491
0.393679 0.235129 0.177849
0.386116 0.228571 0.186579
0.42907 0.228743 -0.0117853
0.384108 0.228683 0.186651
0.382135 0.228547 0.186662
0.380189 0.228226 0.186628
0.44566 0.236534 0.177455
0.443862 0.236076 0.177506
0.442082 0.235825 0.177523
0.43988 0.235739 0.177507
0.434833 0.228616 -0.012029
0.436753 0.228702 -0.0121352
0.438676 0.22866 -0.0122165
0.440603 0.228167 -0.0122108
0.437706 0.235902 0.17745
0.435988 0.236189 0.177378
0.433828 0.236421 0.17731
0.431657 0.236556 0.177258
0.442371 0.227793 -0.012065
0.4299 0.236512 0.177241
0.378221 0.22809 0.186639
0.376217 0.228202 0.186711
0.374195 0.228436 0.186813
0.372172 0.228671 0.186915
0.370177 0.228721 0.186972
0.368214 0.228585 0.186983
0.425876 0.235941 0.177279
0.366264 0.228386 0.186979
0.364284 0.228374 0.18702
0.399106 0.217693 0.0958772
0.400546 0.217613 0.0958256
0.39809 0.235086 0.176594
0.400061 0.217426 0.0943962
0.395903 0.235124 0.176558
0.371734 0.235049 0.176235
0.369983 0.23503 0.175773
0.352115 0.235568 0.177199
0.36225 0.22867 0.187137
0.401971 0.217033 0.0924023
0.447009 0.236595 0.175706
0.442128 0.235888 0.175312
0.360237 0.228844 0.187224
0.401497 0.216647 0.0904943
0.358234 0.228955 0.187296
0.439938 0.235906 0.175279
0.433881 0.236519 0.175097
0.431698 0.236557 0.17506
0.401957 0.216531 0.0890435
0.429948 0.236555 0.175037
0.356232 0.229066 0.187368
0.397729 0.235268 0.174796
0.38301 0.117824 -0.00766838
0.398748 0.222627 0.0500784
0.395535 0.235265 0.174766
0.354242 0.229115 0.187424
0.398667 0.223101 0.0481566
0.370019 0.235043 0.174448
0.39773 0.222607 0.0463332
0.367805 0.234978 0.174428
0.352278 0.22904 0.18745
0.417656 0.2361 0.17318
0.352973 0.117838 -0.0071255
0.276373 0.231504 0.038217
0.276442 0.231364 0.036812
0.400015 0.235517 0.173026
0.397772 0.235286 0.173031
0.395559 0.2352 0.173014
0.334577 0.230762 0.133647
0.393803 0.235197 0.17299
0.350954 0.117502 -0.00772168
0.278815 0.231363 0.0348277
0.392047 0.235195 0.172966
0.390232 0.234944 0.17298
0.371853 0.235167 0.17269
0.370062 0.23504 0.172685
0.383987 0.228544 0.188501
0.278374 0.231348 0.0329633
0.280148 0.231111 0.0330086
0.367854 0.234996 0.172662
0.417711 0.236221 0.171403
0.415939 0.236095 0.171398
0.413919 0.236051 0.171289
0.411805 0.236005 0.171442
0.382168 0.228504 0.188702
0.27791 0.231397 0.0310945
0.280162 0.231143 0.0309343
0.409795 0.236024 0.171324
0.408007 0.235835 0.171327
0.405896 0.235625 0.17078
0.403772 0.235596 0.170991
0.380222 0.228183 0.188666
0.277972 0.23129 0.0292236
0.28013 0.231287 0.0292267
0.401859 0.235764 0.171253
0.400006 0.235677 0.170976
0.397838 0.23537 0.170817
0.395589 0.235118 0.170823
0.393852 0.235199 0.170787
0.378252 0.228048 0.188677
0.278011 0.231247 0.0273484
0.279901 0.231206 0.027273
0.392077 0.235113 0.170775
0.390479 0.234871 0.17101
0.376251 0.235008 0.170572
0.297149 0.231643 0.0260159
0.37401 0.23484 0.170566
0.371813 0.234837 0.170536
0.370056 0.234834 0.170512
0.367884 0.234914 0.17047
0.365738 0.235077 0.170416
0.376276 0.227974 0.188702
0.278036 0.231259 0.0250004
0.35608 0.235063 0.170285
0.279948 0.231153 0.0249319
0.353945 0.234901 0.170169
0.352059 0.234777 0.16939
0.374234 0.228332 0.188835
0.415973 0.236034 0.16921
0.413887 0.236014 0.169293
0.296176 0.231768 0.0248654
0.411771 0.235958 0.169037
0.298339 0.231494 0.0244777
0.409834 0.235984 0.169132
0.40805 0.235816 0.169132
0.405815 0.235548 0.1687
0.31695 0.116964 -0.00749507
0.403623 0.235544 0.16867
0.401889 0.235683 0.169066
0.400221 0.235649 0.168872
0.397887 0.235371 0.168616
0.395675 0.235285 0.168598
0.393921 0.235283 0.168574
0.392151 0.235218 0.168559
0.390308 0.234842 0.168587
0.382011 0.235017 0.168447
0.37998 0.235636 0.16833
0.37826 0.235758 0.168288
0.375956 0.235341 0.168317
0.295696 0.231845 0.0227594
0.373653 0.234944 0.168342
0.371844 0.234755 0.168345
0.370087 0.234752 0.168321
0.367915 0.234832 0.168279
0.365768 0.234995 0.168226
0.364031 0.235055 0.168193
0.356191 0.23523 0.168059
0.353888 0.234896 0.168076
0.351638 0.234727 0.168069
0.415967 0.235745 0.167053
0.298093 0.231756 0.0207878
0.414214 0.235743 0.167029
0.412023 0.23574 0.166999
0.409809 0.235612 0.166986
0.408044 0.235547 0.166971
0.40584 0.235482 0.16695
0.403647 0.235479 0.16692
0.401894 0.235477 0.166896
0.40014 0.235474 0.166872
0.295584 0.232281 0.0189466
0.297968 0.232192 0.0188553
0.397929 0.235388 0.166854
0.395728 0.235344 0.16683
0.394002 0.235466 0.166788
0.392233 0.235401 0.166773
0.389937 0.234963 0.166803
0.379988 0.235509 0.166589
0.37802 0.235696 0.166623
0.375851 0.235438 0.166454
0.373747 0.235127 0.166556
0.371903 0.234814 0.166574
0.370111 0.234687 0.166567
0.367939 0.234767 0.166526
0.36583 0.235054 0.166457
0.364112 0.235176 0.166416
0.361919 0.235173 0.166386
0.359725 0.23517 0.166356
0.307302 0.234584 0.165272
0.416013 0.235804 0.165288
0.414261 0.235802 0.165264
0.412032 0.235591 0.165261
0.409798 0.23536 0.165262
0.40802 0.235234 0.165254
0.405848 0.235334 0.165211
0.403672 0.235414 0.16517
0.401918 0.235412 0.165146
0.400191 0.235534 0.165106
0.397981 0.235448 0.165087
0.39578 0.235403 0.165062
0.394026 0.235401 0.165038
0.392301 0.235523 0.164998
0.39002 0.235146 0.165017
0.379947 0.235195 0.164872
0.378209 0.235255 0.164839
0.37605 0.235376 0.164793
0.373823 0.235248 0.16478
0.371945 0.234811 0.164813
0.370135 0.234622 0.164814
0.367964 0.234701 0.164773
0.365817 0.234864 0.164721
0.364099 0.234986 0.164681
0.361879 0.2349 0.164662
0.35971 0.23498 0.164621
0.413772 0.235995 0.163286
0.411647 0.235634 0.163053
0.409817 0.235217 0.163082
0.408039 0.23509 0.163074
0.406105 0.235118 0.162918
0.404017 0.235275 0.163104
0.402 0.235579 0.162927
0.400283 0.235742 0.162882
0.398087 0.235712 0.162855
0.395829 0.235404 0.162864
0.394056 0.235319 0.162851
0.392322 0.2354 0.162816
0.390084 0.235203 0.162811
0.379852 0.234636 0.162743
0.378139 0.2348 0.162698
0.376058 0.235211 0.162616
0.373876 0.23525 0.162581
0.372028 0.234916 0.162599
0.370178 0.234581 0.162617
0.36797 0.234537 0.162592
0.365847 0.234783 0.162531
0.364104 0.234822 0.162502
0.361939 0.234916 0.16246
0.359741 0.234899 0.162432
0.411727 0.235822 0.160834
0.409882 0.235321 0.160871
0.408069 0.235008 0.160885
0.405908 0.235171 0.160835
0.403758 0.235375 0.160779
0.402057 0.235622 0.160725
0.399929 0.235909 0.16066
0.397703 0.23574 0.16065
0.395868 0.235364 0.160672
0.394087 0.235237 0.160663
0.392333 0.235235 0.160639
0.390101 0.235066 0.160629
0.378186 0.23478 0.1605
0.376111 0.235213 0.160418
0.373936 0.235272 0.160381
0.372094 0.234958 0.160394
0.37025 0.234645 0.160408
0.368049 0.234621 0.16038
0.365897 0.234763 0.160333
0.364197 0.234947 0.160286
0.362068 0.235152 0.160232
0.359908 0.235253 0.160189
0.358015 0.234814 0.160218
0.287182 0.234327 0.15886
0.411763 0.235819 0.159079
0.40993 0.235381 0.159106
0.305264 0.232771 0.177019
0.308689 0.232527 0.177107
0.408141 0.235192 0.159104
0.405966 0.235271 0.159065
0.403808 0.235434 0.159015
0.402081 0.235556 0.158977
0.400355 0.235679 0.158938
0.398138 0.235551 0.158923
0.395879 0.235237 0.158929
0.394111 0.235172 0.158913
0.392357 0.23517 0.158889
0.390135 0.235042 0.158874
0.387927 0.234977 0.158851
0.386219 0.235161 0.158805
0.384058 0.235283 0.158761
0.314916 0.116645 -0.00796567
0.381802 0.235031 0.15876
0.365976 0.234884 0.158559
0.308313 0.231913 0.180762
0.309891 0.232237 0.180016
0.364259 0.235007 0.158521
0.36213 0.235211 0.158467
0.359991 0.235374 0.158418
0.358218 0.235309 0.158401
0.287194 0.234294 0.157983
0.411787 0.235753 0.157331
0.329793 0.232462 0.180075
0.331968 0.232368 0.180122
0.40999 0.235502 0.157336
0.408214 0.235375 0.157326
0.406023 0.235372 0.157296
0.403832 0.235369 0.157266
0.37221 0.228567 0.188938
0.402079 0.235367 0.157242
0.40034 0.235427 0.157211
0.398127 0.23532 0.157193
0.395889 0.235109 0.157187
0.394135 0.235107 0.157163
0.392382 0.235104 0.157139
0.390199 0.235143 0.157104
0.388012 0.235161 0.157072
0.386305 0.235345 0.157027
0.384146 0.235466 0.156983
0.381923 0.235339 0.156967
0.411687 0.235818 0.155714
0.329824 0.232238 0.182249
0.331929 0.23243 0.182332
0.406086 0.235457 0.155092
0.403879 0.235371 0.155071
0.40211 0.235285 0.155056
0.400357 0.235283 0.155032
0.398148 0.235197 0.155011
0.395919 0.235028 0.154999
0.394166 0.235025 0.154975
0.370196 0.22874 0.189026
0.392096 0.235089 0.155049
0.390013 0.235193 0.154774
0.388088 0.235266 0.154865
0.386325 0.235222 0.154845
0.384124 0.235177 0.15482
0.381943 0.235216 0.154785
0.380245 0.235421 0.15474
0.405738 0.235723 0.153303
0.396033 0.23532 0.152773
0.394239 0.235131 0.152768
0.392442 0.234941 0.152763
0.39025 0.234938 0.152734
0.388058 0.234935 0.152704
0.386289 0.234871 0.152686
0.384049 0.234681 0.152675
0.330111 0.232431 0.184085
0.331976 0.232682 0.184064
0.381952 0.235051 0.152607
0.38033 0.235547 0.152533
0.287621 0.234127 0.151258
0.394319 0.235314 0.150995
0.392495 0.235001 0.151001
0.390245 0.234748 0.150995
0.388037 0.234683 0.150972
0.386251 0.234556 0.15096
0.384449 0.234367 0.150954
0.368242 0.228542 0.18902
0.38234 0.234696 0.150892
0.380354 0.235482 0.150786
0.378176 0.23552 0.150752
0.394411 0.235503 0.148785
0.392278 0.235257 0.148669
0.390052 0.234796 0.148918
0.382179 0.234856 0.148804
0.380384 0.2354 0.148602
0.329536 0.232667 0.185722
0.331808 0.233074 0.185855
0.333626 0.232502 0.185899
0.378184 0.235356 0.148575
0.37587 0.234896 0.148587
0.394423 0.235338 0.146608
0.392243 0.235377 0.146575
0.389986 0.235083 0.14657
0.382101 0.235072 0.146463
0.36628 0.228406 0.18903
0.291911 0.232495 0.187366
0.380447 0.235443 0.146407
0.378192 0.235191 0.146398
0.364235 0.23477 0.146156
0.362175 0.234923 0.14629
0.360219 0.235104 0.146159
0.358487 0.235164 0.146129
0.356615 0.234788 0.146137
0.366301 0.234798 0.144514
0.364248 0.235289 0.144883
0.327597 0.233072 0.187928
0.32938 0.233116 0.187945
0.3316 0.233147 0.18797
0.333564 0.232502 0.188122
0.376342 0.234518 0.14292
0.374144 0.234494 0.142891
0.372408 0.234554 0.142863
0.370583 0.234303 0.142858
0.396142 0.23463 0.140989
0.296618 0.116911 -0.00737898
0.364299 0.228393 0.189071
0.394475 0.234796 0.138762
0.378398 0.234596 0.138467
0.362297 0.228505 0.189142
0.400518 0.218695 0.100205
0.360295 0.228616 0.189214
0.400592 0.218287 0.102108
0.327615 0.233279 0.190109
0.329382 0.233281 0.190133
0.358293 0.228727 0.189286
0.35629 0.228838 0.189358
0.296571 0.118264 -0.00684661
0.294673 0.118031 -0.00669272
0.402694 0.217051 0.105818
0.292837 0.117832 -0.00628935
0.402782 0.216589 0.108193
0.291303 0.117528 -0.00726854
0.354301 0.228887 0.189414
0.402852 0.216316 0.11058
0.300438 0.120148 -0.0061225
0.402902 0.21616 0.112494
0.352336 0.228812 0.189439
0.380254 0.22814 0.190706
0.29524 0.119448 -0.00629493
0.401013 0.216644 0.116459
0.378293 0.227943 0.1907
0.401039 0.216737 0.118403
0.499056 0.160175 -0.00977268
0.401077 0.216706 0.120336
0.376306 0.227931 0.19074
0.374321 0.227919 0.19078
0.401133 0.216487 0.122252
0.401189 0.216267 0.124168
0.399731 0.216473 0.124233
0.401245 0.216048 0.126083
0.372288 0.228215 0.190899
0.286242 0.137146 -0.00634288
0.401302 0.215829 0.127999
0.285831 0.139009 -0.00691669
0.470901 0.165632 -0.00963623
0.469421 0.166777 -0.00908283
0.333638 0.232314 0.103812
0.30431 0.147941 -0.00704136
0.351928 0.155479 -0.0067252
0.304815 0.14932 -0.0068932
0.302855 0.149059 -0.00698891
0.376017 0.161214 -0.00702605
0.528436 0.224827 -0.0111127
0.527008 0.225813 -0.0109137
0.350327 0.156524 -0.00767159
0.347701 0.157528 -0.00685087
0.434921 0.230707 -0.00773147
0.433443 0.231422 -0.0082665
0.429578 0.231379 -0.00808067
0.338482 0.232151 0.0980048
0.554807 0.223332 -0.00954132
0.553358 0.223412 -0.0094894
0.52682 0.225196 -0.00906544
0.525439 0.225658 -0.009085
0.370284 0.228326 0.190971
0.512856 0.226174 -0.00812985
0.345146 0.233096 0.0943684
0.343292 0.232379 0.0941689
0.545059 0.223014 -0.007158
0.543043 0.223547 -0.00747299
0.541295 0.223791 -0.00759281
0.539337 0.223771 -0.00750018
0.537796 0.223288 -0.00687547
0.526798 0.225391 -0.00705526
0.525519 0.225565 -0.00718493
0.464525 0.228126 -0.00438443
0.462554 0.228087 -0.00522986
0.356548 0.233384 0.0917722
0.354901 0.233262 0.0918894
0.54523 0.22342 -0.00582271
0.543326 0.223654 -0.00577651
0.541421 0.223888 -0.00573017
0.539487 0.223995 -0.00566093
0.537636 0.223752 -0.00569226
0.531368 0.225078 -0.00595021
0.496584 0.227157 -0.00378473
0.473288 0.227594 -0.00280493
0.465544 0.228475 -0.00354787
0.407336 0.231589 -0.000875976
0.405641 0.231103 -0.00081094
0.545372 0.223698 -0.00446162
0.343376 0.233679 0.200464
0.54341 0.223679 -0.0043698
0.541559 0.224167 -0.00436804
0.40659 0.231732 0.000927292
0.35551 0.232936 0.200356
0.405651 0.231325 0.000565518
0.306309 0.151753 -0.00565519
0.349878 0.23307 0.00561452
0.384035 0.231973 0.00567817
0.35172 0.233446 0.00688667
0.307199 0.233119 0.201612
0.309244 0.232442 0.201605
0.311151 0.232754 0.20156
0.349398 0.233126 0.00704077
0.347495 0.233104 0.0071292
0.304406 0.151015 -0.00672119
0.382164 0.232558 0.00784498
0.347483 0.233208 0.00899985
0.345581 0.233186 0.00908764
0.302605 0.150987 -0.00693925
0.347751 0.23335 0.0109496
0.345553 0.233355 0.0109514
0.407961 0.230283 0.0152866
0.408003 0.230118 0.0167302
0.37711 0.162648 -0.00726219
0.368311 0.228252 0.190996
0.345483 0.233527 0.202308
0.347669 0.233424 0.201917
0.349332 0.233117 0.20201
0.351517 0.233037 0.202059
0.353695 0.232937 0.202112
0.355366 0.23263 0.202205
0.357476 0.232302 0.20231
0.359621 0.232078 0.202391
0.361471 0.232328 0.202359
0.305269 0.153364 -0.00543208
0.304042 0.153217 -0.00516337
0.366339 0.228178 0.19102
0.364358 0.228166 0.191061
0.387512 0.233839 0.203711
0.378255 0.164113 -0.00699858
0.362333 0.2284 0.191164
0.291895 0.233401 0.204259
0.360308 0.228635 0.191267
0.277326 0.231722 0.0558745
0.358316 0.228685 0.191323
0.277468 0.231706 0.0576187
0.356349 0.22861 0.191347
0.309268 0.232648 0.203787
0.311235 0.232673 0.203936
0.313185 0.233202 0.20401
0.277178 0.232009 0.0593656
0.354371 0.228597 0.191388
0.352407 0.228523 0.191412
0.380287 0.228097 0.192748
0.286291 0.158723 -0.00496381
0.553443 0.237805 0.198943
0.378306 0.228023 0.192772
0.55741 0.237729 0.196815
0.55566 0.237726 0.196791
0.553474 0.237723 0.196761
0.376328 0.22795 0.192796
0.347489 0.233073 0.204222
0.349231 0.232993 0.204265
0.351472 0.233078 0.204276
0.353658 0.232999 0.204325
0.355348 0.232753 0.204406
0.357493 0.232536 0.204487
0.359739 0.232635 0.204495
0.361612 0.232968 0.204443
0.555641 0.237909 0.194993
0.553455 0.237906 0.194963
0.545601 0.237813 0.194873
0.543402 0.237892 0.194826
0.541636 0.238014 0.194777
0.383507 0.233841 0.204989
0.385665 0.233638 0.205067
0.539629 0.23799 0.194842
0.374361 0.227814 0.192804
0.555621 0.238092 0.193198
0.285815 0.16059 -0.0057863
0.553873 0.23809 0.193174
0.551696 0.238045 0.193153
0.547797 0.237833 0.193141
0.545612 0.23783 0.193111
0.543399 0.238013 0.193044
0.541643 0.238073 0.193007
0.539896 0.23807 0.192983
0.537712 0.238067 0.192954
0.535496 0.238312 0.192873
0.311416 0.232651 0.206047
0.533773 0.238124 0.192888
0.531616 0.237894 0.192904
0.529468 0.23756 0.192941
0.527725 0.237541 0.192481
0.525538 0.237538 0.192451
0.499884 0.237492 0.191811
0.511787 0.19253 -0.00862023
0.372386 0.22774 0.192827
0.55571 0.23768 0.191084
0.553615 0.237787 0.190924
0.551492 0.237868 0.191114
0.549576 0.237754 0.190984
0.547828 0.237752 0.19096
0.545642 0.237749 0.190931
0.54342 0.237994 0.190852
0.541673 0.237992 0.190828
0.349271 0.233282 0.206425
0.351082 0.233408 0.20642
0.35328 0.23337 0.20646
0.355404 0.233104 0.206553
0.357155 0.233045 0.206591
0.359407 0.233172 0.206592
0.361715 0.233485 0.20655
0.539745 0.237949 0.190684
0.537631 0.23799 0.190882
0.535537 0.238148 0.190712
0.369287 0.233681 0.206609
0.53378 0.238229 0.190671
0.531623 0.238005 0.190686
0.529461 0.237809 0.190694
0.527728 0.237708 0.19025
0.525556 0.237581 0.190245
0.523369 0.237578 0.190215
0.499659 0.237828 0.1901
0.384256 0.177927 -0.00728348
0.387167 0.232715 0.20709
0.510101 0.195569 -0.0086436
0.55577 0.237433 0.188935
0.553576 0.237472 0.188897
0.383971 0.179841 -0.00760838
0.293444 0.233147 0.20746
0.551355 0.237675 0.188827
0.2971 0.233399 0.20745
0.549606 0.237673 0.188803
0.547858 0.23767 0.18878
0.54566 0.23775 0.188734
0.543451 0.237913 0.188672
0.541703 0.23791 0.188648
0.539542 0.237742 0.18865
0.53736 0.237718 0.188625
0.535588 0.237902 0.188565
0.533818 0.238085 0.188505
0.531618 0.238227 0.188448
0.529438 0.238204 0.188422
0.527719 0.237953 0.188446
0.525559 0.237722 0.18846
0.523382 0.237637 0.188446
0.521633 0.237634 0.188422
0.519885 0.237632 0.188398
0.499766 0.237976 0.188053
0.508512 0.197968 -0.00880872
0.383043 0.186906 -0.00755119
0.55575 0.237616 0.187142
0.553564 0.237613 0.187112
0.551379 0.23761 0.187083
0.549631 0.237608 0.187059
0.547882 0.237605 0.187035
0.545672 0.237768 0.186974
0.349414 0.233843 0.208072
0.351181 0.233845 0.208096
0.353336 0.233683 0.208166
0.35548 0.23348 0.208245
0.543475 0.237848 0.186929
0.541728 0.237845 0.186905
0.361306 0.233736 0.208264
0.363535 0.233801 0.20828
0.365358 0.233989 0.208259
0.367482 0.233703 0.208359
0.369543 0.23319 0.208513
0.371296 0.23313 0.208552
0.539566 0.237677 0.186906
0.537392 0.237591 0.186892
0.53562 0.237775 0.186833
0.53385 0.237958 0.186774
0.531623 0.238328 0.186675
0.529421 0.238511 0.18661
0.527696 0.238322 0.186621
0.387127 0.232719 0.208873
0.389387 0.232907 0.208859
0.525553 0.237947 0.186661
0.523388 0.237758 0.186666
0.521658 0.237569 0.186677
0.519909 0.237567 0.186654
0.517724 0.237564 0.186624
0.515553 0.237375 0.186629
0.28532 0.174233 -0.00558293
0.293419 0.233212 0.209227
0.295189 0.233215 0.209251
0.297018 0.233341 0.209245
0.299422 0.233543 0.209563
0.301467 0.233929 0.209829
0.499785 0.238035 0.186287
0.370383 0.227851 0.192899
0.555714 0.237907 0.184893
0.553953 0.237988 0.184854
0.551776 0.237943 0.184832
0.549634 0.237692 0.184848
0.547893 0.237648 0.184832
0.319717 0.23263 0.209739
0.545677 0.237852 0.184764
0.543469 0.238014 0.184704
0.541728 0.237971 0.184688
0.539822 0.237766 0.184824
0.537727 0.237692 0.184573
0.535637 0.237797 0.184634
0.53387 0.23796 0.18458
0.531758 0.238398 0.184722
0.52941 0.238756 0.184812
0.527694 0.238506 0.184834
0.351178 0.23401 0.210281
0.353292 0.233724 0.210382
0.525994 0.238115 0.184443
0.523841 0.237822 0.184466
0.521684 0.237529 0.184489
0.51994 0.237485 0.184473
0.363379 0.233433 0.21015
0.365222 0.233683 0.210113
0.367361 0.233438 0.210204
0.369447 0.233008 0.21034
0.371184 0.232886 0.210395
0.373008 0.233075 0.210373
0.375452 0.233474 0.210499
0.517754 0.237482 0.184443
0.515569 0.237479 0.184413
0.513821 0.237477 0.184389
0.511637 0.237446 0.184365
0.501576 0.237626 0.184193
0.499813 0.238037 0.184094
0.3684 0.227839 0.192939
0.366418 0.227826 0.192979
0.555711 0.238012 0.182681
0.553922 0.238258 0.182613
0.55173 0.238317 0.182573
0.54958 0.238128 0.182576
0.547854 0.238001 0.182574
0.545675 0.237978 0.182548
0.543471 0.238119 0.182493
0.541726 0.238117 0.182469
0.539998 0.237991 0.182467
0.285172 0.185962 -0.0050557
0.284875 0.187236 -0.00552038
0.295146 0.232877 0.211693
0.297426 0.233172 0.211411
0.299607 0.233382 0.211946
0.301575 0.233818 0.211862
0.537824 0.237925 0.182448
0.535626 0.238047 0.182397
0.533872 0.238106 0.182362
0.531548 0.238363 0.182613
0.529468 0.238427 0.182682
0.319737 0.232836 0.21192
0.527733 0.238342 0.182673
0.525777 0.237905 0.182197
0.521695 0.237655 0.182272
0.519959 0.237528 0.18227
0.517768 0.237608 0.182226
0.51558 0.237646 0.182189
0.513837 0.237582 0.182176
0.511652 0.2376 0.182142
0.509461 0.2377 0.182094
0.501595 0.237813 0.181965
0.499839 0.238059 0.181898
0.351277 0.233692 0.212678
0.353337 0.23349 0.21258
0.372029 0.20116 -0.00701853
0.284643 0.188517 -0.00573614
0.555702 0.238133 0.180907
0.553913 0.238379 0.18084
0.363185 0.232979 0.212491
0.365272 0.232934 0.212643
0.367413 0.232932 0.212435
0.369351 0.232863 0.212607
0.371171 0.233031 0.212589
0.372977 0.233157 0.212583
0.375189 0.233567 0.212621
0.551692 0.238625 0.180767
0.549523 0.23856 0.180748
0.54782 0.238309 0.180767
0.545655 0.238202 0.180756
0.543486 0.238117 0.18074
0.541733 0.238176 0.180706
0.539979 0.238236 0.180671
0.537799 0.238233 0.180642
0.535594 0.238416 0.18058
0.53385 0.238414 0.180556
0.531678 0.238349 0.180537
0.529505 0.238284 0.180518
0.517782 0.237667 0.180461
0.515585 0.23783 0.180402
0.513852 0.237641 0.18041
0.51167 0.237617 0.180384
0.293771 0.232388 0.213906
0.295445 0.232733 0.21375
0.297667 0.233135 0.213766
0.299582 0.233448 0.213712
0.301437 0.233636 0.213689
0.509474 0.237821 0.180319
0.507728 0.237819 0.180295
0.505985 0.237754 0.180282
0.503809 0.237607 0.180277
0.317336 0.232544 0.214195
0.319439 0.232921 0.214215
0.501608 0.237997 0.18018
0.499856 0.238181 0.180124
0.366501 0.204338 -0.00584449
0.343485 0.201334 -0.00474927
0.555693 0.238255 0.179134
0.553916 0.238439 0.179079
0.551681 0.238767 0.178993
0.549497 0.238805 0.178956
0.547785 0.238616 0.178964
0.54608 0.238366 0.178982
0.54391 0.238301 0.178963
0.541721 0.23836 0.178923
0.351359 0.23354 0.214412
0.353483 0.233275 0.214511
0.539952 0.238544 0.178868
0.537746 0.238748 0.178803
0.535555 0.238848 0.178756
0.361119 0.233636 0.214524
0.363129 0.232978 0.214723
0.365271 0.232734 0.214816
0.367488 0.232737 0.214846
0.369261 0.232739 0.21487
0.371105 0.232989 0.214831
0.373197 0.233194 0.214897
0.375447 0.233636 0.214635
0.533844 0.238597 0.178774
0.531693 0.238367 0.178782
0.517799 0.237685 0.178703
0.515609 0.237765 0.17866
0.513863 0.237762 0.178636
0.511681 0.237759 0.178606
0.509486 0.237943 0.178545
0.507738 0.238002 0.178511
0.506006 0.237751 0.178529
0.503821 0.23779 0.178492
0.501622 0.23818 0.178397
0.499871 0.238364 0.178342
0.364384 0.228123 0.193099
0.362336 0.228481 0.193234
0.360332 0.228593 0.193306
0.284524 0.201532 -0.00442949
0.293747 0.232454 0.215676
0.295282 0.232889 0.215583
0.297258 0.233325 0.215496
0.2994 0.233752 0.215502
0.301441 0.233764 0.215438
0.284292 0.202816 -0.00464521
0.557821 0.238625 0.176915
0.555682 0.238401 0.176921
0.553918 0.238523 0.176877
0.317101 0.233166 0.215815
0.31929 0.233108 0.215861
0.321454 0.232987 0.215923
0.551951 0.238732 0.176941
0.54983 0.238876 0.176654
0.547792 0.23868 0.176767
0.546069 0.238554 0.176763
0.543891 0.238551 0.176734
0.541695 0.238672 0.176684
0.535472 0.23896 0.176726
0.533851 0.238703 0.17657
0.517841 0.237466 0.176547
0.51563 0.237808 0.176461
0.349283 0.234077 0.216025
0.351334 0.233606 0.216178
0.353438 0.233278 0.216294
0.355289 0.233529 0.216254
0.357158 0.233841 0.216198
0.359389 0.233906 0.216212
0.361466 0.233475 0.216355
0.363142 0.233168 0.216459
0.365283 0.232924 0.216554
0.367463 0.232803 0.216616
0.369237 0.232805 0.21664
0.371027 0.23287 0.216648
0.373307 0.2331 0.21662
0.375579 0.233309 0.216596
0.513875 0.237929 0.176418
0.511937 0.238002 0.176504
0.385692 0.234236 0.216641
0.387183 0.233696 0.216656
0.389189 0.233572 0.216628
0.509828 0.238137 0.176219
0.507761 0.238045 0.176314
0.506029 0.237794 0.176331
0.503846 0.237833 0.176294
0.50164 0.238409 0.176171
0.499889 0.238614 0.176114
0.497714 0.238542 0.176095
0.358363 0.228518 0.19333
0.356407 0.228382 0.193337
0.354442 0.228308 0.193361
0.5578 0.23882 0.174698
0.555653 0.238652 0.174694
0.547786 0.238827 0.174558
0.447402 0.234415 0.217755
0.449164 0.234277 0.217371
0.450932 0.234279 0.217395
0.452927 0.234414 0.217609
0.476127 0.234422 0.217264
0.477446 0.23444 0.217723
0.352478 0.228233 0.193384
0.293042 0.232952 0.217322
0.294962 0.233264 0.217265
0.297111 0.233524 0.217493
0.29934 0.233901 0.21749
0.546055 0.238762 0.174544
0.543878 0.23876 0.174514
0.533897 0.238497 0.174417
0.531772 0.238039 0.174459
0.315254 0.233931 0.217927
0.317286 0.233765 0.217889
0.319265 0.233464 0.217886
0.321636 0.23336 0.21788
0.517873 0.237357 0.174372
0.51566 0.237726 0.174284
0.513901 0.23791 0.174231
0.512144 0.238094 0.174178
0.331266 0.234201 0.218078
0.333272 0.233952 0.218063
0.335156 0.233397 0.217983
0.336749 0.232596 0.218477
0.343701 0.233007 0.218165
0.345464 0.233395 0.217937
0.347335 0.233724 0.218321
0.349133 0.233809 0.218323
0.351177 0.233632 0.218288
0.353332 0.233719 0.218533
0.355312 0.233776 0.218418
0.357108 0.233861 0.218421
0.359276 0.233727 0.218487
0.361403 0.233417 0.218154
0.363099 0.233172 0.218244
0.365296 0.233113 0.21829
0.367493 0.233055 0.218337
0.369212 0.232871 0.21841
0.509951 0.238298 0.174116
0.507784 0.238088 0.174119
0.506056 0.237775 0.174143
0.503872 0.237834 0.174104
0.37895 0.232823 0.21856
0.381017 0.23294 0.218646
0.383361 0.233778 0.218276
0.38548 0.233795 0.218658
0.387162 0.23382 0.218853
0.388951 0.233905 0.218855
0.501659 0.238577 0.173958
0.499908 0.238823 0.173896
0.399279 0.23414 0.219048
0.40137 0.234087 0.21898
0.403163 0.234213 0.218971
0.404964 0.234381 0.218951
0.40717 0.23437 0.218985
0.497736 0.238696 0.173885
0.495565 0.238506 0.173885
0.376322 0.228153 0.194902
0.374372 0.227894 0.194877
0.372435 0.227574 0.194835
0.447953 0.236929 0.17347
0.565709 0.238518 0.173105
0.531787 0.238057 0.172705
0.439427 0.23447 0.219409
0.441103 0.234478 0.219609
0.442954 0.234491 0.219898
0.445288 0.234452 0.219751
0.447355 0.234233 0.219584
0.4491 0.233988 0.219675
0.451316 0.234046 0.21969
0.453552 0.234365 0.219635
0.529698 0.237246 0.172799
0.370451 0.227562 0.194874
0.293199 0.233426 0.219428
0.51788 0.237499 0.172597
0.296977 0.232961 0.219162
0.299324 0.233307 0.219994
0.51568 0.237724 0.172533
0.513921 0.237908 0.172481
0.512168 0.238029 0.172438
0.509983 0.238109 0.172395
0.315079 0.233927 0.220044
0.317117 0.233517 0.220185
0.319379 0.233319 0.22008
0.321449 0.233488 0.219985
0.507815 0.237899 0.172397
0.506084 0.237648 0.172411
0.503894 0.237811 0.172356
0.333101 0.233663 0.220369
0.33529 0.233282 0.220169
0.33735 0.233157 0.22012
0.339198 0.233366 0.220089
0.341138 0.233299 0.220007
0.343307 0.233417 0.220244
0.345412 0.233416 0.220163
0.347177 0.233435 0.220629
0.348948 0.233437 0.220653
0.350782 0.233625 0.220627
0.353178 0.234185 0.220506
0.355429 0.234312 0.220503
0.357137 0.234129 0.220577
0.35925 0.233823 0.220691
0.361315 0.233314 0.220413
0.363049 0.233193 0.220471
0.365162 0.233231 0.220602
0.367303 0.233229 0.220393
0.501676 0.238698 0.172192
0.497759 0.238672 0.172141
0.495587 0.238504 0.172137
0.493847 0.238439 0.172122
0.381116 0.232833 0.220823
0.383411 0.233138 0.220771
0.38515 0.233378 0.220908
0.387091 0.233737 0.221105
0.38895 0.234111 0.221028
0.368458 0.227611 0.19493
0.366445 0.227784 0.195017
0.364399 0.228142 0.195154
0.565616 0.238422 0.171182
0.39943 0.233507 0.221341
0.401227 0.233633 0.221332
0.403061 0.233945 0.221271
0.405127 0.234112 0.221344
0.407261 0.234158 0.221183
0.277317 0.231859 0.065268
0.531804 0.238086 0.170514
0.529661 0.237765 0.170531
0.52796 0.237349 0.170568
0.525929 0.237106 0.170325
0.520086 0.237503 0.170437
0.517882 0.237763 0.170368
0.515692 0.23787 0.170322
0.513942 0.237951 0.170286
0.434932 0.234174 0.221655
0.437158 0.234301 0.221651
0.439396 0.234552 0.221613
0.441163 0.234554 0.221638
0.44293 0.234557 0.221662
0.445122 0.234395 0.221737
0.447312 0.234192 0.221824
0.449064 0.234009 0.221898
0.451288 0.234156 0.221889
0.512198 0.237948 0.170262
0.510018 0.237945 0.170233
0.507853 0.237694 0.170239
0.506112 0.237608 0.170228
0.503919 0.237854 0.170162
0.495611 0.238439 0.170399
0.362383 0.228315 0.195242
0.293218 0.233612 0.221609
0.49387 0.238436 0.170375
0.492047 0.238275 0.170111
0.360402 0.228303 0.195282
0.358468 0.228043 0.195255
0.356501 0.227969 0.195278
0.449793 0.237199 0.169508
0.314985 0.233827 0.221854
0.317182 0.233166 0.222159
0.319311 0.233162 0.222011
0.321469 0.233465 0.222046
0.447579 0.236865 0.169526
0.354524 0.227956 0.195317
0.529896 0.238187 0.168199
0.52791 0.238013 0.168284
0.526193 0.237762 0.168295
0.332983 0.233481 0.222203
0.335104 0.233237 0.222301
0.337433 0.233549 0.222246
0.339294 0.233799 0.222203
0.341087 0.233863 0.22221
0.34324 0.233701 0.222285
0.34536 0.233436 0.222389
0.347089 0.233315 0.222447
0.349104 0.233259 0.22258
0.350872 0.233583 0.222277
0.352594 0.234327 0.222093
0.524032 0.237552 0.168295
0.357152 0.234319 0.222308
0.359238 0.23393 0.222446
0.361266 0.233335 0.222641
0.362925 0.232966 0.222767
0.365172 0.233072 0.222769
0.367395 0.233096 0.222793
0.369115 0.232913 0.222868
0.521831 0.237756 0.168236
0.520065 0.238002 0.168177
0.517876 0.238124 0.168129
0.381185 0.2333 0.222929
0.383432 0.233427 0.222925
0.385173 0.233306 0.222984
0.387021 0.233618 0.222922
0.388852 0.233868 0.222878
0.515692 0.238183 0.168091
0.513954 0.238118 0.168076
0.512215 0.238054 0.168061
0.397182 0.233529 0.22309
0.399352 0.233325 0.223177
0.401137 0.23339 0.223184
0.40296 0.23364 0.22314
0.405227 0.233911 0.223096
0.40746 0.234017 0.223097
0.510048 0.237864 0.168057
0.507879 0.237675 0.168054
0.506138 0.23761 0.168039
0.495642 0.238358 0.168226
0.4939 0.238355 0.168202
0.492249 0.238247 0.16802
0.48999 0.238085 0.167749
0.352561 0.227882 0.19534
0.375846 0.228133 0.196449
0.372435 0.227716 0.196925
0.370479 0.227519 0.196914
0.368476 0.22763 0.196986
0.434846 0.233746 0.223557
0.437094 0.234037 0.223507
0.43935 0.234432 0.223428
0.441139 0.23462 0.223401
0.442905 0.234622 0.223425
0.445094 0.234419 0.223512
0.447299 0.234381 0.223554
0.449056 0.23426 0.223612
0.451274 0.234345 0.22362
0.453507 0.234637 0.223569
0.455532 0.122318 -0.00662351
0.366472 0.227741 0.197058
0.44982 0.237076 0.167335
0.447609 0.236783 0.167345
0.445867 0.236843 0.167313
0.444125 0.236903 0.167281
0.44195 0.236983 0.167239
0.43977 0.237021 0.167204
0.438015 0.236957 0.167188
0.293125 0.234082 0.223171
0.436245 0.236768 0.16719
0.305254 0.232952 0.223751
0.307535 0.233918 0.223776
0.314854 0.233953 0.223792
0.31727 0.233072 0.223886
0.319469 0.233034 0.223927
0.321369 0.233346 0.223865
0.434033 0.236557 0.167189
0.364468 0.227852 0.197129
0.27774 0.231935 0.0671673
0.530071 0.238324 0.166522
0.527901 0.238259 0.166501
0.526172 0.238132 0.166494
0.512235 0.238051 0.166313
0.337432 0.233677 0.223996
0.339338 0.234051 0.223917
0.341062 0.233929 0.223976
0.343114 0.233479 0.224133
0.345227 0.233193 0.224243
0.346979 0.233134 0.224285
0.349202 0.233157 0.224309
0.351406 0.233578 0.224369
0.510064 0.237924 0.1663
0.3554 0.234506 0.224013
0.357107 0.234322 0.224089
0.359175 0.233872 0.224246
0.361165 0.233153 0.224478
0.362844 0.232846 0.224589
0.365111 0.233014 0.224573
0.367352 0.2331 0.22458
0.369126 0.233102 0.224604
0.507893 0.237796 0.166287
0.506155 0.237669 0.166281
0.49393 0.238274 0.16603
0.49219 0.238148 0.166023
0.490014 0.23802 0.16601
0.381049 0.23361 0.224538
0.383197 0.233719 0.224716
0.38518 0.233495 0.224718
0.386966 0.23356 0.224725
0.389225 0.233748 0.224703
0.391496 0.233999 0.224663
0.393238 0.233878 0.224722
0.394966 0.233695 0.224798
0.397166 0.233636 0.224846
0.399354 0.233515 0.224911
0.4011 0.233394 0.22497
0.487836 0.238017 0.16598
0.486093 0.23789 0.165973
0.407387 0.233835 0.224933
0.409216 0.234147 0.22487
0.41102 0.234335 0.224842
0.413072 0.234452 0.224926
0.415213 0.234548 0.224751
0.41723 0.234467 0.224891
0.418977 0.234346 0.22495
0.421145 0.234081 0.225056
0.423283 0.23361 0.22522
0.425064 0.233674 0.225226
0.426862 0.233862 0.225198
0.429113 0.234133 0.225153
0.431305 0.233992 0.225224
0.433043 0.233747 0.225318
0.435228 0.233523 0.225412
0.437463 0.233691 0.225395
0.43929 0.234189 0.22528
0.44108 0.234377 0.225251
0.442855 0.234441 0.225258
0.445065 0.234444 0.225288
0.447369 0.234556 0.225556
0.449055 0.234672 0.225725
0.45113 0.23453 0.22554
0.453463 0.234456 0.225403
0.45524 0.234582 0.225392
0.457008 0.234584 0.225416
0.459214 0.234546 0.225458
0.483914 0.23797 0.165932
0.481737 0.238195 0.165872
0.362486 0.22784 0.197168
0.360529 0.227704 0.197173
0.358596 0.227445 0.197146
0.356342 0.227339 0.197268
0.45203 0.237035 0.165618
0.450014 0.236973 0.165687
0.447906 0.236815 0.165504
0.480409 0.234789 0.227022
0.445909 0.236965 0.165543
0.444162 0.236962 0.16552
0.305312 0.233204 0.225469
0.307239 0.234097 0.225907
0.315205 0.234029 0.225816
0.317118 0.233462 0.225879
0.319232 0.233429 0.226157
0.321319 0.23335 0.225651
0.323191 0.2336 0.225606
0.325061 0.233849 0.22556
0.441978 0.236959 0.16549
0.439787 0.236894 0.165468
0.43801 0.236643 0.165478
0.436246 0.236516 0.165471
0.434052 0.236451 0.165449
0.337446 0.233629 0.226065
0.339277 0.23405 0.226147
0.340957 0.233805 0.226242
0.343002 0.233297 0.225971
0.345117 0.233012 0.226083
0.346891 0.233014 0.226107
0.349136 0.2331 0.226114
0.35147 0.233453 0.226044
0.353453 0.233849 0.226226
0.355242 0.234196 0.226329
0.357037 0.234281 0.22633
0.359132 0.233913 0.226466
0.36114 0.233219 0.226248
0.362857 0.233036 0.226324
0.36507 0.233422 0.226579
0.367255 0.233611 0.226795
