0.488929 0.275797 -0.0089697
0.487094 0.271374 -0.00906457
0.486953 0.265133 -0.00873149
0.487061 0.263914 -0.00841046
0.425439 0.148488 -0.00469141
0.48881 0.285853 -0.00851873
0.487912 0.283701 -0.00870118
0.48785 0.281598 -0.00889194
0.487909 0.27999 -0.00900411
0.49025 0.27517 -0.00903224
0.489462 0.273231 -0.00900303
0.490062 0.271052 -0.00910051
0.490218 0.268971 -0.00923821
0.490547 0.267422 -0.00931379
0.490512 0.265838 -0.00924805
0.489756 0.289131 -0.00841583
0.489342 0.2875 -0.00842474
0.492956 0.288945 -0.0083226
0.492911 0.28735 -0.0082894
0.492865 0.285757 -0.00832257
0.492252 0.281457 -0.00868093
0.492019 0.27965 -0.00888387
0.491853 0.277651 -0.00902885
0.47093 0.238302 0.241847
0.471951 0.238344 0.241416
0.473704 0.238659 0.241124
0.471046 0.237619 0.240729
0.47208 0.237467 0.240553
0.473888 0.237803 0.240388
0.475677 0.237988 0.239926
0.492176 0.235195 0.241729
0.423384 0.148352 -0.00462069
0.387106 0.233282 0.0351217
0.307298 0.233475 0.0363562
0.316194 0.233753 0.0360064
0.492628 0.236688 0.238657
0.494562 0.236791 0.240661
0.496418 0.237036 0.241056
0.49825 0.235741 0.240914
0.499949 0.237252 0.24039
0.493105 0.236037 0.238557
0.49498 0.235905 0.238801
0.496683 0.235894 0.238886
0.498382 0.236283 0.23877
0.499916 0.236363 0.240031
0.515089 0.236937 0.23832
0.515915 0.237216 0.238241
0.519795 0.237717 0.238032
0.495331 0.234877 0.238472
0.495999 0.234768 0.238531
0.503166 0.235419 0.238606
0.504667 0.235965 0.238906
0.318608 0.23375 0.0359296
0.508694 0.236194 0.238751
0.51037 0.236712 0.23887
0.515137 0.236908 0.238717
0.516134 0.237153 0.23877
0.519925 0.237608 0.238552
0.538907 0.237831 0.238995
0.540308 0.237984 0.239209
0.542599 0.238089 0.240304
0.543629 0.238428 0.24007
0.320895 0.233677 0.0357885
0.322772 0.23358 0.0357001
0.324714 0.233532 0.0356437
0.326656 0.233442 0.035592
0.328543 0.233503 0.0355153
0.308664 0.233592 0.0344278
0.316171 0.233817 0.0340948
0.318563 0.233769 0.034002
0.537 0.236559 0.238457
0.538646 0.236879 0.238976
0.540723 0.237072 0.239832
0.542825 0.237225 0.239628
0.544556 0.237692 0.239763
0.546809 0.237478 0.239301
0.548813 0.237446 0.238398
0.5505 0.237829 0.239738
0.552026 0.237803 0.239806
0.554986 0.238034 0.239971
0.55666 0.238013 0.239261
0.558254 0.238165 0.240015
0.560346 0.238263 0.239368
0.562269 0.238306 0.239432
0.563825 0.238329 0.239269
0.320909 0.233671 0.0338881
0.322779 0.233623 0.0337984
0.324717 0.233595 0.0337448
0.326631 0.233616 0.0336899
0.535074 0.234831 0.238752
0.536999 0.235063 0.238741
0.538765 0.235283 0.238674
0.540924 0.235417 0.238794
0.543344 0.235772 0.23882
0.54515 0.236063 0.238758
0.546904 0.236229 0.23864
0.548991 0.236307 0.238595
0.550934 0.236463 0.238628
0.552956 0.236655 0.238862
0.554924 0.236913 0.238914
0.556713 0.236901 0.238885
0.558708 0.237157 0.239305
0.560587 0.237493 0.23957
0.562455 0.237661 0.239546
0.564613 0.23776 0.239552
0.328507 0.233721 0.0336055
0.308761 0.233709 0.032382
0.314285 0.233828 0.0322931
0.316257 0.233851 0.0322451
0.318414 0.233781 0.0322235
0.320642 0.233669 0.0319127
0.535303 0.233209 0.238782
0.537157 0.233496 0.238659
0.539055 0.233584 0.23876
0.54122 0.233808 0.238763
0.54354 0.234161 0.238692
0.545361 0.234482 0.238558
0.547056 0.234811 0.238448
0.549211 0.234748 0.238716
0.551079 0.235167 0.238413
0.553054 0.235709 0.237925
0.555052 0.235728 0.237465
0.556902 0.23551 0.238012
0.559041 0.235724 0.239493
0.560904 0.236218 0.240205
0.562909 0.236668 0.240235
0.565026 0.237019 0.240137
0.322785 0.233686 0.0319033
0.324728 0.233727 0.031866
0.326628 0.233761 0.0317954
0.328445 0.233929 0.0316733
0.533428 0.231856 0.238408
0.535628 0.232006 0.238457
0.53745 0.23206 0.23864
0.539425 0.232058 0.238653
0.541292 0.232195 0.238993
0.543633 0.232637 0.238565
0.545502 0.232981 0.238599
0.547343 0.233044 0.238583
0.549425 0.23337 0.238584
0.55117 0.233824 0.238427
0.553295 0.234337 0.238184
0.55522 0.234315 0.237859
0.557308 0.234278 0.237835
0.559377 0.234297 0.2381
0.561022 0.234331 0.239472
0.563249 0.235093 0.240735
0.564898 0.234956 0.240161
0.540218 0.230303 0.23875
0.54169 0.230462 0.23926
0.543853 0.230739 0.23917
0.545833 0.230954 0.239113
0.547598 0.231261 0.238639
0.549648 0.23163 0.238737
0.30854 0.233739 0.0306404
0.5534 0.232316 0.237957
0.55573 0.232295 0.237758
0.557579 0.232225 0.238155
0.559578 0.232381 0.238583
0.561694 0.232413 0.239362
0.563663 0.23265 0.240337
0.421014 0.148279 -0.00467305
0.542102 0.228859 0.240135
0.5441 0.229091 0.239867
0.545883 0.229406 0.239582
0.547914 0.229766 0.239043
0.549741 0.229981 0.238698
0.551545 0.230268 0.238792
0.553862 0.23054 0.238402
0.55619 0.230426 0.238105
0.558078 0.230635 0.238355
0.559841 0.230719 0.238802
0.562087 0.230593 0.239878
0.294085 0.211053 -0.00200503
0.291497 0.211332 -0.00156955
0.544547 0.228411 0.239595
0.545886 0.228635 0.239572
0.54812 0.228834 0.239409
0.550357 0.22946 0.238899
0.551937 0.229378 0.238902
0.554024 0.229322 0.239086
0.5607 0.229409 0.238883
0.366133 0.208317 -0.00326859
0.365128 0.207301 -0.00567887
0.396714 0.144838 -0.00365798
0.30153 0.233661 0.239219
0.302218 0.233539 0.23944
0.310403 0.233918 0.0305485
0.312335 0.233898 0.0304816
0.36012 0.234769 0.240125
0.393962 0.144527 -0.00408191
0.384512 0.237415 0.241535
0.38551 0.237718 0.241533
0.31832 0.209884 -0.00268488
0.317244 0.209634 -0.00316919
0.375793 0.235127 0.239275
0.377116 0.235278 0.239369
0.384652 0.236458 0.241364
0.385941 0.236268 0.241431
0.38772 0.236439 0.241431
0.389156 0.236857 0.241451
0.394496 0.236623 0.241443
0.39519 0.236793 0.241558
0.527889 0.163321 -0.00440243
0.526564 0.16373 -0.00467722
0.524592 0.163414 -0.00501437
0.376108 0.233965 0.238694
0.394618 0.236064 0.240354
0.395838 0.235559 0.241325
0.397734 0.235959 0.241152
0.4 0.236176 0.241452
0.401825 0.235706 0.241499
0.410487 0.237374 0.240731
0.411993 0.237355 0.240794
0.413754 0.237239 0.241037
0.39786 0.234452 0.23906
0.314336 0.233851 0.0304385
0.401585 0.234906 0.239311
0.316316 0.233788 0.0303738
0.318201 0.233751 0.0302646
0.413997 0.236481 0.240495
0.415876 0.2366 0.240802
0.446451 0.238892 0.240582
0.44757 0.239071 0.240496
0.446687 0.238022 0.240378
0.448091 0.237993 0.240454
0.449941 0.238442 0.24035
0.522724 0.163069 -0.00540998
0.52041 0.162684 -0.00553035
0.507086 0.160797 -0.00471862
0.505538 0.160259 -0.00549944
0.296109 0.211874 -0.00204509
0.450251 0.237255 0.239418
0.452168 0.237233 0.23884
0.454003 0.237263 0.238668
0.456268 0.237384 0.2386
0.458108 0.237152 0.238217
0.459899 0.23709 0.238133
0.462149 0.237595 0.238704
0.464215 0.237638 0.239098
0.292672 0.212192 -0.00176061
0.468183 0.236224 0.241763
0.470131 0.237181 0.242044
0.454705 0.23557 0.237734
0.320472 0.233676 0.0301104
0.322805 0.233746 0.0300124
0.324735 0.233847 0.0299633
0.46253 0.235961 0.238082
0.464408 0.236237 0.238246
0.466263 0.236839 0.239224
0.46841 0.236942 0.240188
0.470429 0.237115 0.240688
0.481973 0.234998 0.240446
0.279885 0.213573 -0.00214962
0.470455 0.156401 -0.00193541
0.488304 0.237009 0.240258
0.4901 0.235474 0.241092
0.326626 0.23395 0.0298963
0.308488 0.233796 0.0287371
0.310378 0.233903 0.0286426
0.312328 0.233912 0.028567
0.314325 0.233882 0.0285199
0.466484 0.235288 0.238321
0.468701 0.235422 0.23875
0.316293 0.233797 0.028455
0.318216 0.23379 0.0283665
0.32005 0.233777 0.0282614
0.322367 0.233812 0.0281532
0.48215 0.236807 0.23785
0.484492 0.236944 0.237951
0.486961 0.236182 0.237904
0.488546 0.236184 0.239539
0.490326 0.236755 0.240676
0.500434 0.235134 0.241106
0.502069 0.234813 0.240713
0.504501 0.235335 0.241118
0.506277 0.235615 0.24113
0.508095 0.236035 0.241198
0.510664 0.236583 0.241433
0.512691 0.236474 0.241405
0.33799 0.234711 0.0274137
0.339781 0.234708 0.0271901
0.314302 0.233922 0.0266316
0.316249 0.233836 0.0265516
0.337962 0.234618 0.0255083
0.466592 0.23359 0.23804
0.339873 0.23463 0.0254367
0.408612 0.228328 0.0233655
0.326375 0.234091 0.0242813
0.328213 0.234164 0.0238008
0.335993 0.23461 0.0236875
0.48289 0.234591 0.237217
0.484702 0.234906 0.237568
0.487175 0.235185 0.237717
0.489047 0.235358 0.237796
0.490823 0.235383 0.23806
0.492489 0.235259 0.238194
0.498878 0.235995 0.238805
0.500499 0.236373 0.238644
0.502143 0.23626 0.238447
0.504564 0.237403 0.23931
0.506529 0.237671 0.240462
0.508396 0.237789 0.240731
0.510729 0.237268 0.238194
0.512639 0.236546 0.239567
0.514459 0.235116 0.241016
0.517092 0.236047 0.241262
0.518486 0.237103 0.237911
0.521082 0.237613 0.237801
0.522091 0.237201 0.238173
0.524167 0.23749 0.239036
0.526238 0.237405 0.238476
0.527884 0.237298 0.239045
0.530292 0.237326 0.238638
0.532238 0.237392 0.238264
0.33793 0.234662 0.0236267
0.33986 0.234622 0.0235747
0.341975 0.234718 0.0232406
0.330291 0.234221 0.0220489
0.332137 0.23442 0.0219458
0.335944 0.23469 0.0218043
0.337868 0.234741 0.0217454
0.339803 0.234783 0.021691
0.341744 0.23484 0.0216428
0.34419 0.234964 0.0215412
0.48497 0.233319 0.237322
0.487499 0.233437 0.237438
0.334013 0.234716 0.0200038
0.335935 0.234869 0.0199615
0.337856 0.234937 0.0198839
0.494855 0.234435 0.238188
0.496892 0.23477 0.238381
0.499018 0.235205 0.238655
0.500683 0.235437 0.23871
0.50223 0.235646 0.238763
0.507011 0.236627 0.239297
0.508127 0.236666 0.239119
0.511139 0.236369 0.238684
0.512688 0.236551 0.238657
0.514331 0.236636 0.238692
0.51689 0.236838 0.238623
0.518615 0.237202 0.238567
0.520737 0.237289 0.238441
0.522352 0.237188 0.238129
0.524373 0.237529 0.238025
0.526657 0.237586 0.237926
0.528476 0.236917 0.238024
0.530521 0.2373 0.238608
0.532699 0.237532 0.238937
0.534559 0.237846 0.238939
0.536386 0.237732 0.238786
0.53789 0.237798 0.238588
0.544618 0.237614 0.240116
0.546206 0.238172 0.239755
0.339772 0.234979 0.0198155
0.341711 0.235044 0.0197473
0.343679 0.235147 0.0197009
0.34613 0.235291 0.0195976
0.473041 0.231064 0.237285
0.409745 0.229775 0.0167958
0.334012 0.234914 0.017669
0.335869 0.235125 0.0175745
0.337833 0.235146 0.0180219
0.339747 0.235238 0.0179194
0.341652 0.235268 0.0178252
0.34409 0.23538 0.017703
0.34653 0.235491 0.0176075
0.354109 0.234911 0.0171496
0.385505 0.234382 0.0144516
0.499189 0.233581 0.238315
0.409768 0.229777 0.0153189
0.337742 0.235356 0.01559
0.339711 0.235392 0.0155016
0.341608 0.235434 0.015882
0.344023 0.235564 0.0157591
0.346497 0.235602 0.0156924
0.352377 0.235218 0.0154846
0.514713 0.235326 0.23839
0.516979 0.235487 0.238313
0.518797 0.235734 0.238177
0.354228 0.235107 0.0153795
0.337719 0.23568 0.0131588
0.339702 0.235635 0.0130934
0.526674 0.236329 0.23825
0.529057 0.236651 0.238129
0.530936 0.236478 0.238187
0.532748 0.236606 0.238588
0.535124 0.236984 0.238414
0.536774 0.237185 0.238315
0.545249 0.238302 0.239796
0.546728 0.238146 0.239452
0.548595 0.237913 0.23974
0.550719 0.236623 0.239952
0.552827 0.236441 0.239923
0.553707 0.236801 0.239712
0.465269 0.228518 0.237639
0.473423 0.229109 0.237131
0.475843 0.229154 0.237209
0.477439 0.229637 0.23719
0.483878 0.229397 0.237212
0.485464 0.229477 0.237494
0.487818 0.230057 0.237717
0.489667 0.230335 0.237578
0.341606 0.235628 0.0135161
0.493699 0.230878 0.23816
0.495527 0.23122 0.238358
0.497165 0.231332 0.238383
0.499353 0.231759 0.23842
0.343726 0.235649 0.0135592
0.352208 0.235446 0.0132675
0.354168 0.235318 0.0134314
0.334384 0.235828 0.0113534
0.335783 0.235964 0.0112008
0.337699 0.236021 0.0111339
0.339713 0.235974 0.0110624
0.341641 0.236024 0.0110018
0.343593 0.235964 0.0110273
0.345504 0.235955 0.0109843
0.347764 0.235863 0.0110263
0.350075 0.235907 0.0105701
0.353989 0.2355 0.0112101
0.38463 0.234981 0.00865993
0.565878 0.238177 0.238754
0.484314 0.22845 0.237622
0.485697 0.22842 0.237841
0.46918 0.156227 -0.00198979
0.489722 0.229125 0.238466
0.491541 0.229163 0.238392
0.49392 0.229408 0.238476
0.495683 0.229685 0.23844
0.497383 0.229766 0.238401
0.499578 0.230216 0.238255
0.501253 0.23049 0.238164
0.503115 0.230676 0.238
0.335892 0.236221 0.00908563
0.337678 0.236266 0.0087852
0.339666 0.23624 0.00873129
0.341593 0.236227 0.00864904
0.343546 0.236319 0.00858597
0.345532 0.236323 0.00856372
0.347458 0.236314 0.00852907
0.349905 0.236173 0.00844139
0.352272 0.236004 0.00842456
0.35422 0.235868 0.00867627
0.355963 0.235886 0.00879008
0.35783 0.235978 0.00868828
0.565699 0.236393 0.239301
0.467277 0.155966 -0.00215341
0.494012 0.228353 0.239029
0.49588 0.228619 0.239025
0.497635 0.228803 0.238732
0.499857 0.22884 0.238902
0.501411 0.22925 0.23831
0.503168 0.229757 0.237656
0.505578 0.230017 0.236925
0.507566 0.230027 0.23649
0.509831 0.230185 0.236675
0.512194 0.230254 0.237192
0.513803 0.230474 0.237747
0.515489 0.23018 0.238144
0.517825 0.230363 0.238018
0.51964 0.230751 0.237944
0.521387 0.231128 0.237625
0.359666 0.236062 0.00833929
0.361737 0.236221 0.00783585
0.363631 0.236201 0.00716743
0.530107 0.231001 0.238141
0.531983 0.231059 0.238213
0.533684 0.231095 0.238227
0.535871 0.231086 0.238336
0.537661 0.23114 0.238407
0.538898 0.231222 0.238535
0.565218 0.235393 0.239479
0.565495 0.234902 0.238767
0.514479 0.229541 0.238037
0.515926 0.229312 0.238352
0.518326 0.229242 0.238432
0.519867 0.229483 0.238356
0.521453 0.230458 0.237995
0.523371 0.230819 0.237875
0.525697 0.230908 0.237624
0.52803 0.230498 0.237761
0.530034 0.230656 0.23806
0.531911 0.230451 0.237963
0.534116 0.23031 0.238107
0.536093 0.230342 0.238526
0.537854 0.23032 0.238133
0.539506 0.230009 0.238146
0.534366 0.229554 0.238335
0.536432 0.229628 0.238515
0.538351 0.228574 0.238608
0.540264 0.228951 0.238612
0.541195 0.228287 0.238721
0.557692 0.230068 0.238286
0.544238 0.228485 0.23835
0.549666 0.229296 0.238871
0.465367 0.155699 -0.00225967
0.556447 0.229488 0.238106
0.558339 0.229434 0.237884
0.463475 0.155433 -0.0025654
0.290281 0.233489 0.23944
0.365456 0.236132 0.00699726
0.294969 0.234443 0.240443
0.380743 0.235567 0.0057197
0.290358 0.232866 0.239786
0.291444 0.232906 0.239872
0.29307 0.233543 0.241175
0.294971 0.233842 0.241116
0.297003 0.23384 0.240998
0.299041 0.233307 0.241074
0.300989 0.233977 0.241672
0.30514 0.23156 0.24144
0.306178 0.231704 0.241007
0.313168 0.233527 0.240322
0.314327 0.233959 0.240367
0.290109 0.231388 0.239885
0.291622 0.231545 0.240025
0.293405 0.231766 0.239869
0.29539 0.232199 0.240707
0.383377 0.235128 0.00649481
0.461063 0.155093 -0.00349344
0.337652 0.236071 0.00654398
0.303633 0.232901 0.238969
0.305313 0.232948 0.238761
0.307286 0.232513 0.240462
0.309472 0.232395 0.24016
0.311241 0.233226 0.239766
0.313118 0.233503 0.240164
0.314844 0.233646 0.24016
0.317054 0.23408 0.240266
0.3237 0.233037 0.240279
0.325191 0.234024 0.240168
0.32722 0.233784 0.240509
0.339598 0.236141 0.0064604
0.341477 0.236125 0.00630476
0.33264 0.23315 0.239941
0.286919 0.228555 0.240032
0.287971 0.228999 0.240319
0.289734 0.229716 0.240345
0.291861 0.229956 0.240202
0.293643 0.229956 0.239763
0.295523 0.230434 0.239165
0.297456 0.230474 0.239246
0.343423 0.23626 0.00624997
0.345404 0.236265 0.00615028
0.347411 0.236339 0.00607747
0.349457 0.236272 0.00601313
0.3518 0.236252 0.0059991
0.35413 0.236231 0.00598969
0.311236 0.231871 0.238533
0.313687 0.232103 0.23895
0.315529 0.23249 0.239196
0.317405 0.232814 0.240138
0.319468 0.232873 0.240767
0.355967 0.236312 0.00571663
0.323533 0.233274 0.240132
0.357876 0.23637 0.00558434
0.359825 0.236315 0.00542677
0.361751 0.236266 0.00542897
0.33129 0.233343 0.240177
0.333331 0.233542 0.239062
0.36364 0.236006 0.00533103
0.365546 0.235808 0.00512573
0.367434 0.235883 0.00508286
0.368875 0.23589 0.00448608
0.343964 0.235849 0.238419
0.345302 0.236272 0.238644
0.346792 0.237021 0.239599
0.349891 0.235883 0.241269
0.350564 0.235414 0.241422
0.459252 0.154851 -0.0042549
0.286756 0.227524 0.23983
0.288223 0.227641 0.240395
0.29024 0.228215 0.240192
0.292249 0.228433 0.2399
0.293706 0.228549 0.239586
0.298042 0.229243 0.238793
0.299715 0.229678 0.238813
0.378557 0.235186 0.00409079
0.380506 0.234773 0.00418708
0.38267 0.233872 0.00407054
0.384024 0.231968 0.00568575
0.34125 0.235732 0.0043718
0.311596 0.230415 0.238526
0.313956 0.230574 0.238945
0.315897 0.230843 0.239291
0.317763 0.231044 0.240001
0.31981 0.231372 0.239966
0.321633 0.2314 0.239587
0.323812 0.231606 0.239935
0.325704 0.232043 0.239983
0.34281 0.235801 0.00456641
0.349945 0.235952 0.00427252
0.351615 0.235905 0.00375466
0.353894 0.235791 0.00351209
0.356031 0.235937 0.00355505
0.357887 0.235915 0.00336587
0.359787 0.235798 0.0033418
0.361739 0.235449 0.00324624
0.363715 0.235157 0.0031232
0.365667 0.234864 0.00301013
0.367532 0.234734 0.00285532
0.34936 0.235636 0.241084
0.35118 0.234435 0.241417
0.353023 0.235002 0.241692
0.355606 0.23583 0.241792
0.357502 0.236226 0.241576
0.364095 0.20844 -0.00509708
0.361621 0.235722 0.241839
0.363658 0.233615 0.241767
0.365535 0.232599 0.241176
0.368097 0.232989 0.241337
0.369839 0.233076 0.241056
0.370869 0.233213 0.240868
0.288251 0.226415 0.240165
0.290191 0.226403 0.24007
0.292007 0.226852 0.239705
0.299865 0.228448 0.238404
0.300955 0.228713 0.238029
0.369421 0.23485 0.00282569
0.371203 0.234977 0.00266156
0.308418 0.228728 0.238527
0.310145 0.228815 0.238733
0.311977 0.228845 0.238695
0.314193 0.228953 0.239339
0.31614 0.229125 0.239741
0.318066 0.229413 0.239921
0.319985 0.229635 0.239747
0.32173 0.229929 0.239299
0.323971 0.230346 0.238545
0.325874 0.230684 0.2383
0.373806 0.234594 0.00255825
0.376207 0.234334 0.00288679
0.378128 0.234053 0.00293983
0.408842 0.227523 0.0044218
0.353694 0.234811 0.00191611
0.363808 0.234071 0.00196789
0.365723 0.233259 0.00210291
0.37139 0.233357 0.00186989
0.373273 0.233343 0.0019748
0.375203 0.233021 0.00213256
0.451379 0.153949 -0.00442088
0.449504 0.153703 -0.00428741
0.541312 0.223492 -0.00200906
0.3536 0.233887 0.23882
0.355808 0.234243 0.239215
0.357846 0.23453 0.239584
0.359281 0.235036 0.240426
0.361908 0.235128 0.240471
0.363702 0.235063 0.241331
0.365537 0.235545 0.240732
0.368065 0.232244 0.241003
0.543285 0.222901 -0.00192093
0.371824 0.232578 0.240984
0.373691 0.234257 0.241829
0.446956 0.153314 -0.0043474
0.379521 0.236381 0.241209
0.381262 0.236293 0.241331
0.383337 0.236813 0.24151
0.545125 0.222837 -0.00178422
0.306271 0.226978 0.238105
0.308584 0.227066 0.238586
0.310417 0.227012 0.238942
0.312336 0.226842 0.239135
0.314414 0.226949 0.23949
0.316258 0.227059 0.240007
0.318122 0.227448 0.24028
0.320218 0.2279 0.239991
0.321914 0.228327 0.23925
0.324039 0.22848 0.238175
0.326271 0.228796 0.23802
0.32815 0.229496 0.238207
0.33027 0.229533 0.238453
0.332174 0.229637 0.238865
0.33404 0.229874 0.23846
0.336206 0.230042 0.238371
0.338027 0.230298 0.238098
0.339896 0.230508 0.237888
0.342052 0.230643 0.237885
0.34401 0.231023 0.237801
0.34635 0.231297 0.237995
0.37156 0.231918 0.00157004
0.373218 0.231866 0.00168949
0.375169 0.231913 0.00191106
0.445105 0.153038 -0.00453814
0.443722 0.153527 -0.00445155
0.409887 0.231813 -0.00189886
0.359976 0.233312 0.239222
0.36172 0.233433 0.239266
0.363589 0.233567 0.239046
0.365736 0.233834 0.239042
0.367746 0.234041 0.238853
0.369551 0.23389 0.23842
0.371856 0.234279 0.238528
0.373799 0.234491 0.238682
0.374913 0.234388 0.238622
0.378241 0.235572 0.239849
0.379731 0.235197 0.241045
0.381611 0.235121 0.241103
0.383757 0.235545 0.241269
0.385476 0.23595 0.240712
0.389587 0.235956 0.241332
0.391371 0.235966 0.241343
0.393313 0.234334 0.240802
0.30534 0.225851 0.238177
0.306817 0.225614 0.238288
0.308684 0.225647 0.238832
0.310856 0.225577 0.239129
0.312267 0.225727 0.239063
0.314528 0.225605 0.239525
0.318736 0.226452 0.239881
0.32054 0.226393 0.239634
0.322171 0.22671 0.23901
0.323754 0.226907 0.23861
0.326534 0.227166 0.238055
0.328517 0.227735 0.238059
0.330442 0.227957 0.238241
0.332336 0.228016 0.238549
0.334197 0.228175 0.238456
0.336468 0.228406 0.238368
0.33828 0.228653 0.238184
0.340222 0.228932 0.237926
0.342188 0.229218 0.237671
0.344367 0.229406 0.238029
0.346257 0.229535 0.238163
0.347991 0.22983 0.238203
0.41094 0.231862 -0.00134005
0.475639 0.227387 -0.00179243
0.477475 0.227021 -0.0013944
0.478973 0.2265 -0.00133334
0.493235 0.225694 -0.00213457
0.495269 0.226078 -0.00209731
0.361977 0.231934 0.238711
0.363826 0.232206 0.238778
0.496733 0.226673 -0.00208124
0.537246 0.222319 -0.00232839
0.538962 0.222753 -0.00233547
0.372059 0.232826 0.238238
0.541181 0.222246 -0.00261906
0.543381 0.222017 -0.00215607
0.37807 0.233745 0.238374
0.379923 0.233999 0.238262
0.381761 0.234272 0.238478
0.384095 0.234463 0.238621
0.386044 0.234712 0.238999
0.387921 0.234799 0.239152
0.390148 0.235007 0.23913
0.391988 0.234509 0.241021
0.393713 0.235439 0.240619
0.403751 0.234836 0.241197
0.406048 0.234889 0.240953
0.40793 0.23533 0.24095
0.409299 0.236659 0.240972
0.414172 0.237791 0.240818
0.415723 0.23756 0.240842
0.437288 0.152726 -0.0047575
0.435373 0.151834 -0.00496831
0.421736 0.238235 0.240417
0.423584 0.238591 0.240113
0.425056 0.238902 0.239803
0.433519 0.151617 -0.00477287
0.309518 0.224952 0.238507
0.31015 0.224877 0.238588
0.32715 0.22579 0.238231
0.328474 0.226051 0.238335
0.332772 0.226677 0.23871
0.334437 0.226256 0.23872
0.336624 0.226612 0.238669
0.33863 0.226914 0.238354
0.34047 0.227009 0.238239
0.342507 0.227156 0.238426
0.344591 0.227439 0.238549
0.346427 0.22763 0.238879
0.348234 0.22788 0.23879
0.350515 0.228422 0.238166
0.352701 0.228969 0.237917
0.54528 0.221486 -0.00213624
0.546992 0.221251 -0.00208474
0.549443 0.220548 -0.00371627
0.407988 0.228957 -0.00201256
0.409831 0.229304 -0.0025307
0.411632 0.23056 -0.00301358
0.431513 0.151362 -0.00483127
0.429021 0.151021 -0.00477039
0.417826 0.230102 -0.00359287
0.462325 0.227492 -0.00262659
0.46433 0.227802 -0.00241223
0.526786 0.225901 -0.00339114
0.537676 0.221383 -0.00328953
0.539343 0.221731 -0.00389029
0.38194 0.232571 0.237595
0.384272 0.232678 0.237764
0.541048 0.221611 -0.00393952
0.38818 0.232976 0.238075
0.390459 0.233182 0.238096
0.392336 0.233352 0.238259
0.394212 0.233583 0.238362
0.543029 0.221132 -0.00420411
0.545162 0.220356 -0.00358464
0.427119 0.150884 -0.00468209
0.402145 0.234338 0.238861
0.403838 0.234636 0.238761
0.40615 0.234981 0.238853
0.408057 0.235135 0.238725
0.40908 0.236026 0.240173
0.553583 0.221388 -0.00585894
0.555482 0.221677 -0.00503066
0.415934 0.235937 0.239736
0.417821 0.23618 0.240385
0.419679 0.236457 0.24025
0.421942 0.236714 0.240353
0.423791 0.237164 0.240066
0.425735 0.237324 0.239444
0.427957 0.236756 0.239563
0.431662 0.235793 0.239533
0.43398 0.237628 0.239402
0.435758 0.237779 0.239533
0.437814 0.237925 0.23963
0.440063 0.238072 0.239769
0.441958 0.238176 0.239977
0.443823 0.238662 0.24009
0.445316 0.238879 0.240183
0.335255 0.225272 0.238446
0.33676 0.225586 0.23841
0.33878 0.225849 0.238169
0.340783 0.225859 0.238631
0.342724 0.22616 0.239126
0.344568 0.225878 0.239247
0.346952 0.225957 0.239401
0.348818 0.226173 0.239433
0.350675 0.226493 0.239075
0.352755 0.227158 0.238131
0.35472 0.227569 0.237792
0.563302 0.221737 -0.00366388
0.564644 0.221954 -0.00395228
0.425153 0.15066 -0.00463797
0.411557 0.230066 -0.00448651
0.413543 0.23059 -0.00501843
0.423068 0.150444 -0.0046438
0.361666 0.208053 -0.00411079
0.402499 0.14756 -0.00116068
0.359892 0.207892 -0.00341547
0.512528 0.224842 -0.00380779
0.514922 0.225326 -0.00531696
0.52561 0.225371 -0.00532683
0.526839 0.22475 -0.00555936
0.382103 0.230883 0.237093
0.384586 0.231036 0.237191
0.38656 0.23114 0.237447
0.388327 0.231316 0.237623
0.390653 0.231581 0.237792
0.392517 0.231801 0.23786
0.394404 0.232037 0.237865
0.358554 0.207996 -0.00319301
0.554715 0.222329 -0.0068148
0.556268 0.221866 -0.00645326
0.413539 0.230895 -0.0069394
0.404075 0.233168 0.237979
0.406372 0.233438 0.237939
0.40824 0.233616 0.237867
0.410134 0.233939 0.23798
0.415491 0.231194 -0.00716856
0.39843 0.146978 -0.00341234
0.416101 0.234537 0.238592
0.418286 0.234793 0.238588
0.420162 0.235008 0.238548
0.422024 0.235195 0.23835
0.423926 0.235354 0.238085
0.425817 0.235603 0.237926
0.428104 0.235943 0.237782
0.43207 0.236247 0.238698
0.434196 0.236413 0.238982
0.436082 0.236626 0.239258
0.437946 0.236682 0.239734
0.44021 0.236729 0.239973
0.442102 0.236968 0.240156
0.44398 0.237384 0.240245
0.445749 0.237518 0.24032
0.396383 0.146758 -0.0037007
0.346955 0.22535 0.239081
0.393677 0.146451 -0.00398269
0.352865 0.225993 0.238575
0.354783 0.226271 0.237715
0.356589 0.226719 0.237814
0.391618 0.146182 -0.0040928
0.390305 0.145997 -0.00411873
0.362808 0.228027 0.237844
0.364972 0.22812 0.237788
0.366772 0.227853 0.238176
0.36914 0.227812 0.238171
0.371064 0.227885 0.238426
0.372886 0.227992 0.238191
0.374462 0.228092 0.237948
0.376271 0.228263 0.237772
0.524377 0.165302 -0.00514834
0.429589 0.228502 -0.00526568
0.433364 0.229387 -0.00344147
0.384913 0.229338 0.237181
0.386778 0.229496 0.237483
0.388524 0.229563 0.237569
0.390839 0.229707 0.237686
0.392722 0.229879 0.23786
0.394615 0.230226 0.237776
0.396648 0.230342 0.237806
0.436861 0.228242 -0.0038737
0.443304 0.227708 -0.00460591
0.402428 0.231433 0.237585
0.404237 0.231736 0.237563
0.406613 0.231958 0.237662
0.40847 0.2321 0.237533
0.410279 0.232492 0.23748
0.412628 0.232658 0.237523
0.414415 0.232859 0.237697
0.416266 0.233024 0.237793
0.418532 0.233219 0.237828
0.420396 0.233358 0.237506
0.422235 0.233507 0.23748
0.424103 0.233719 0.237366
0.425961 0.23392 0.237231
0.428244 0.23433 0.236986
0.447278 0.227943 -0.00527496
0.449201 0.228028 -0.00499638
0.522495 0.164959 -0.00548161
0.355882 0.207832 -0.00326847
0.440496 0.235556 0.23875
0.442353 0.235755 0.238969
0.444204 0.236016 0.239142
0.446035 0.236264 0.23917
0.447923 0.236508 0.239135
0.450063 0.236252 0.238566
0.508828 0.164086 -0.00532819
0.507264 0.162988 -0.00565703
0.47972 0.235503 0.239798
0.369482 0.226925 0.238602
0.371285 0.226783 0.238658
0.373317 0.227177 0.2382
0.375011 0.226968 0.238313
0.37669 0.227209 0.238152
0.378757 0.227016 0.237636
0.380724 0.226935 0.237842
0.382598 0.227217 0.237541
0.385049 0.227247 0.237568
0.386906 0.227237 0.237976
0.38878 0.227135 0.238285
0.391103 0.227433 0.23822
0.393037 0.227668 0.238368
0.39481 0.228051 0.238112
0.397061 0.228707 0.23758
0.398964 0.228961 0.237694
0.470842 0.158379 -0.00200995
0.403579 0.218412 0.129741
0.468936 0.158132 -0.00195631
0.467035 0.157878 -0.00196098
0.405003 0.218179 0.124451
0.404131 0.219686 0.12063
0.403526 0.220101 0.11884
0.404966 0.218497 0.118979
0.403225 0.220168 0.117556
0.402659 0.220174 0.115599
0.405115 0.218947 0.115289
0.465122 0.157612 -0.00213413
0.424322 0.231752 0.236889
0.426211 0.23197 0.236778
0.428386 0.232339 0.236454
0.405063 0.219346 0.113424
0.460863 0.157045 -0.00351807
0.405016 0.219619 0.110884
0.459005 0.156814 -0.00425453
0.405291 0.219416 0.108179
0.329154 0.209442 -0.000301357
0.40538 0.219429 0.105855
0.450549 0.234853 0.237591
0.403795 0.221015 0.103592
0.403298 0.221912 0.100059
0.402392 0.222234 0.0977753
0.327554 0.209774 -0.000375862
0.480204 0.23504 0.239465
0.452955 0.156167 -0.00417214
0.391317 0.226166 0.238444
0.393323 0.226197 0.238156
0.395089 0.226338 0.238074
0.397262 0.227126 0.237769
0.399145 0.227469 0.237347
0.401115 0.227762 0.237241
0.402979 0.228061 0.237012
0.404809 0.22801 0.237111
0.407 0.228135 0.237061
0.403889 0.223112 0.0890557
0.451102 0.155894 -0.0038263
0.448964 0.155997 -0.00337118
0.446654 0.155866 -0.00374105
0.403904 0.222465 0.0814709
0.444745 0.155587 -0.00394344
0.442815 0.155307 -0.00406483
0.440897 0.15507 -0.00409814
0.438977 0.154837 -0.00409759
0.437031 0.154645 -0.00423431
0.280318 0.232648 0.064716
0.281774 0.232668 0.0650537
0.278429 0.232188 0.0632577
0.279752 0.232361 0.0634182
0.281388 0.232333 0.0631402
0.435073 0.154429 -0.00422029
0.278283 0.231964 0.0609477
0.450826 0.233371 0.236949
0.279103 0.232148 0.0616013
0.280806 0.232261 0.0614543
0.28287 0.23275 0.0609895
0.278151 0.231845 0.0600097
0.478411 0.236323 0.238081
0.480282 0.236527 0.237945
0.402132 0.226942 0.237091
0.403166 0.227157 0.237283
0.404951 0.227098 0.23725
0.407434 0.227175 0.237032
0.408925 0.227253 0.237241
0.410637 0.227536 0.237101
0.413326 0.227868 0.236951
0.279228 0.232012 0.0595748
0.280787 0.232422 0.0593079
0.282548 0.232951 0.0585462
0.433183 0.154222 -0.0041098
0.279482 0.232223 0.0571203
0.280647 0.232526 0.0571071
0.282403 0.233052 0.0566064
0.431245 0.15402 -0.00426991
0.428742 0.153123 -0.00441173
0.27505 0.231603 0.0549672
0.277313 0.231742 0.0545399
0.279362 0.232276 0.0550048
0.451077 0.231643 0.236352
0.281185 0.232813 0.0545272
0.426885 0.152883 -0.00431085
0.425 0.152611 -0.0042427
0.274887 0.231589 0.0530207
0.276943 0.231586 0.05299
0.278697 0.232147 0.052722
0.480526 0.234975 0.237341
0.481636 0.234997 0.237134
0.280504 0.232768 0.0528875
0.419578 0.228094 0.236444
0.421512 0.227867 0.236531
0.42329 0.227421 0.236247
0.424968 0.227074 0.236407
0.426494 0.22716 0.236272
0.422887 0.152296 -0.00441187
0.451489 0.229467 0.236027
0.453284 0.229583 0.236337
0.455246 0.229645 0.236724
0.40212 0.225559 0.0480741
0.402199 0.150063 -0.00134969
0.274722 0.231808 0.0510737
0.276608 0.231743 0.0509887
0.278576 0.232259 0.0509922
0.280575 0.232744 0.0510156
0.282874 0.233203 0.0508435
0.401357 0.149921 -0.00201956
0.4503 0.22845 0.23612
0.451794 0.228434 0.236467
0.453718 0.22839 0.236498
0.455509 0.228101 0.236393
0.45789 0.228389 0.236843
0.459433 0.228796 0.237389
0.46107 0.228855 0.237769
0.462974 0.228777 0.237587
0.467408 0.229827 0.237274
0.275025 0.232005 0.0490787
0.276672 0.232042 0.049219
0.278503 0.232335 0.0490564
0.280588 0.232885 0.0490857
0.282492 0.233177 0.0490089
0.455609 0.227525 0.237245
0.457871 0.227742 0.236931
0.459625 0.227786 0.237583
0.461618 0.228018 0.237571
0.463645 0.228189 0.237709
0.465431 0.228238 0.237716
0.467202 0.22859 0.237204
0.469156 0.229239 0.23676
0.471209 0.229499 0.236774
0.47821 0.229277 0.236904
0.284646 0.233626 0.0489162
0.275926 0.232253 0.0476201
0.482928 0.229339 0.236865
0.477672 0.228636 0.236805
0.479864 0.228765 0.236808
0.481672 0.228903 0.236685
0.483381 0.228621 0.23707
0.277207 0.232291 0.0469456
0.543009 0.227945 0.237958
0.543746 0.228837 0.237638
0.347897 0.207819 -0.00133421
0.287914 0.233335 0.239056
0.289101 0.233624 0.239356
0.346685 0.207647 -0.000903887
0.287424 0.232926 0.239458
0.288518 0.23321 0.239806
0.278585 0.23265 0.0472996
0.395972 0.149365 -0.00350151
0.287691 0.231299 0.24018
0.280382 0.232897 0.0471122
0.282787 0.233442 0.0470621
0.319149 0.234345 0.239696
0.285055 0.233756 0.0469735
0.277271 0.232655 0.0451811
0.286232 0.229372 0.239292
0.287537 0.230048 0.239743
0.31955 0.234044 0.240461
0.279065 0.232818 0.0449919
0.280893 0.233122 0.045222
0.283123 0.233631 0.0451093
0.284953 0.233809 0.0450837
0.294547 0.228608 0.238893
0.295771 0.228915 0.238752
0.296971 0.2287 0.238586
0.286585 0.225884 0.239665
0.288287 0.225426 0.240034
0.292658 0.226244 0.239252
0.294126 0.226904 0.238903
0.296183 0.227103 0.238701
0.298088 0.227671 0.238375
0.300195 0.2275 0.238179
0.302217 0.228206 0.237722
0.275317 0.232698 0.0428704
0.288333 0.223884 0.239366
0.290688 0.224652 0.239487
0.292712 0.224424 0.23916
0.294395 0.224777 0.239031
0.296409 0.225287 0.238564
0.298327 0.225778 0.238249
0.300272 0.225806 0.238182
0.277284 0.232509 0.0432611
0.27919 0.232899 0.0432255
0.39315 0.233503 0.239809
0.298473 0.224306 0.238772
0.300445 0.225018 0.238633
0.302313 0.225474 0.238291
0.304049 0.22556 0.238114
0.312713 0.22518 0.239312
0.314514 0.225082 0.239474
0.316678 0.225347 0.239657
0.318401 0.225431 0.239498
0.32013 0.225473 0.239407
0.324404 0.226484 0.238383
0.311394 0.224802 0.238852
0.312804 0.224823 0.239036
0.314622 0.224697 0.23928
0.316864 0.22444 0.239095
0.318633 0.224392 0.239146
0.320601 0.22447 0.239409
0.322747 0.224772 0.23925
0.324578 0.225373 0.238635
0.326379 0.225088 0.23842
0.328854 0.225194 0.238311
0.330438 0.225763 0.238356
0.332504 0.225802 0.238385
0.4296 0.23525 0.239304
0.430651 0.235422 0.239393
0.333217 0.225027 0.238164
0.33436 0.225153 0.238379
0.43003 0.236061 0.238168
0.431218 0.235883 0.237976
0.348527 0.225718 0.237986
0.281139 0.23327 0.0431863
0.283071 0.233522 0.043125
0.393258 0.149078 -0.00359374
0.379674 0.227434 0.236849
0.429392 0.231729 0.236052
0.274577 0.232545 0.0415096
0.27645 0.232273 0.0414348
0.27834 0.232506 0.0413637
0.280191 0.233073 0.0413005
0.282155 0.233503 0.0412799
0.284036 0.233622 0.0412593
0.275297 0.232086 0.0401068
0.276652 0.231993 0.039578
0.278451 0.232291 0.0394835
0.280316 0.233156 0.0394272
0.282186 0.233424 0.0393824
0.284074 0.233672 0.0393979
0.412248 0.227393 0.236545
0.302585 0.233635 0.0378752
0.39126 0.148784 -0.00362952
0.277189 0.232006 0.0381369
0.278537 0.232293 0.03807
0.280424 0.233171 0.0375341
0.282287 0.233525 0.0375736
0.284182 0.233873 0.0372353
0.29833 0.23329 0.0367325
0.300249 0.233264 0.0366231
0.302182 0.233291 0.0365163
0.304551 0.233371 0.0364759
0.306402 0.233439 0.0363779
0.38929 0.148473 -0.0036987
0.295009 0.233328 0.0350378
0.296731 0.23335 0.0347295
0.298547 0.233227 0.0344401
0.300432 0.233146 0.0343187
0.302303 0.233171 0.0342183
0.304279 0.233259 0.0344623
0.306578 0.233408 0.0344261
0.524281 0.167211 -0.0051839
0.537122 0.237177 0.236617
0.538709 0.237277 0.236351
0.540125 0.237366 0.236598
0.300449 0.233125 0.0322203
0.302548 0.233239 0.0320737
0.304247 0.233314 0.0321295
0.449125 0.228439 0.235896
0.470666 0.229317 0.235871
0.562128 0.231425 0.237613
0.522294 0.166848 -0.00551548
0.306342 0.233458 0.032657
0.308184 0.233647 0.0330545
0.283762 0.226431 0.238175
0.284608 0.22497 0.238518
0.28597 0.224706 0.238866
0.285275 0.224245 0.238293
0.286476 0.22379 0.238549
0.290071 0.222945 0.237904
0.291605 0.223468 0.238437
0.307499 0.226125 0.236629
0.331191 0.208665 -6.80432e-06
0.284241 0.234312 0.0307596
0.306177 0.233522 0.0304778
0.294994 0.234348 0.0283083
0.330199 0.209066 -0.000211575
0.508709 0.165434 -0.00570373
0.323941 0.234009 0.0233671
0.325599 0.234073 0.0230945
0.472396 0.160373 -0.00281593
0.46146 0.229899 0.234694
0.305894 0.234274 0.0223721
0.307932 0.234455 0.0222947
0.553771 0.230677 0.234606
0.337768 0.233235 0.235766
0.338939 0.233334 0.2358
0.286001 0.224994 0.234793
0.285993 0.225076 0.234507
0.410069 0.233688 0.235717
0.295416 0.224013 0.234583
0.30577 0.226861 0.235389
0.310225 0.234595 0.0220002
0.316357 0.23446 0.0218268
0.45982 0.230675 0.233173
0.318296 0.234248 0.0217548
0.322129 0.234 0.0215968
0.323989 0.233968 0.0214872
0.325775 0.233964 0.0213615
0.285984 0.225979 0.233649
0.285886 0.225782 0.233932
0.282103 0.223414 0.233466
0.282895 0.223423 0.23308
0.284934 0.223149 0.233011
0.286705 0.222743 0.233691
0.470574 0.160238 -0.00234062
0.305787 0.234406 0.0203964
0.30764 0.234532 0.0203103
0.309987 0.234776 0.0201859
0.316479 0.234637 0.0199422
0.318402 0.234415 0.0198721
0.320276 0.234161 0.0197944
0.322138 0.23401 0.0197253
0.323979 0.233906 0.0196661
0.325781 0.233834 0.0195532
0.468688 0.160031 -0.00194476
0.305817 0.234485 0.0185189
0.30769 0.234612 0.0184182
0.309826 0.234718 0.0183269
0.314487 0.234738 0.0180569
0.316465 0.23467 0.0180051
0.318393 0.234477 0.0179745
0.32028 0.234298 0.0179327
0.322078 0.23418 0.0178853
0.323974 0.23407 0.0178296
0.325816 0.233966 0.0177482
0.30799 0.234585 0.0165827
0.309602 0.234584 0.0162931
0.311492 0.234591 0.0162097
0.313451 0.234648 0.0161154
0.315894 0.234661 0.0160631
0.31832 0.234536 0.0160832
0.32024 0.234473 0.016052
0.322086 0.23435 0.0160532
0.323956 0.234308 0.0160218
0.325898 0.234255 0.015957
0.412613 0.194573 0.0451396
0.327722 0.234273 0.0158958
0.46678 0.159783 -0.00189917
0.309643 0.234364 0.0143908
0.412908 0.192091 0.0453296
0.412812 0.192074 0.0453852
0.311509 0.23437 0.0143046
0.313306 0.2345 0.014352
0.413122 0.190068 0.0475278
0.414311 0.190356 0.04608
0.413671 0.190201 0.0449504
0.315861 0.234474 0.0143875
0.317908 0.23446 0.0140459
0.412258 0.18829 0.0456516
0.415015 0.188566 0.04696
0.460635 0.158992 -0.00349012
0.320091 0.234591 0.014122
0.322055 0.234649 0.0141395
0.412974 0.185912 0.0458937
0.414948 0.186187 0.046254
0.458749 0.158809 -0.00418141
0.323931 0.234677 0.0140843
0.411616 0.184001 0.0489002
0.413766 0.184248 0.0485365
0.415513 0.184434 0.0472843
0.368254 0.209825 -0.00592365
0.325828 0.234608 0.0140301
0.327687 0.234637 0.0139585
0.413771 0.182498 0.0488721
0.415717 0.182717 0.0471107
0.452664 0.158071 -0.00363264
0.329429 0.23477 0.0138219
0.412575 0.179962 0.0486805
0.414008 0.180189 0.0464333
0.415806 0.180431 0.0466601
0.450823 0.157785 -0.00316934
0.33168 0.235045 0.0136539
0.449171 0.157727 -0.0029954
0.414224 0.177857 0.0464401
0.416039 0.178125 0.0464774
0.415568 0.178233 0.0449943
0.309699 0.234307 0.0129859
0.311575 0.234294 0.012874
0.414682 0.176131 0.0467307
0.416173 0.176436 0.0462632
0.317786 0.234521 0.0120382
0.319988 0.234765 0.012104
0.414744 0.174466 0.0462175
0.416424 0.174657 0.0461081
0.32189 0.234877 0.0121061
0.323863 0.234933 0.0121072
0.415319 0.172149 0.0466442
0.416985 0.172389 0.0464063
0.325849 0.234959 0.0120327
0.32767 0.234976 0.0118984
0.415557 0.170373 0.0465825
0.416852 0.170731 0.0456235
0.329398 0.235079 0.0116882
0.331338 0.235374 0.0115928
0.415652 0.169218 0.0462359
0.417123 0.169533 0.0456298
0.333022 0.23572 0.0112448
0.408785 0.226859 0.00884365
0.321715 0.235139 0.00992447
0.323738 0.23529 0.00984887
0.325863 0.235425 0.00937243
0.327618 0.235514 0.00889855
0.329446 0.235536 0.00939313
0.331086 0.235635 0.00912147
0.415697 0.168034 0.0459212
0.417544 0.168245 0.0459175
0.333325 0.235975 0.00898745
0.335153 0.236136 0.0083841
0.40902 0.227045 0.00721515
0.416038 0.166269 0.0460762
0.446399 0.15774 -0.00340362
0.319913 0.235006 0.00769983
0.321742 0.235279 0.00704974
0.414632 0.164243 0.0464209
0.41631 0.164425 0.046584
0.444481 0.157438 -0.00354241
0.323734 0.235415 0.0068104
0.325617 0.235428 0.00635764
0.414839 0.162539 0.0458333
0.416546 0.162676 0.0464799
0.442568 0.157194 -0.00372962
0.32765 0.235186 0.00584745
0.329482 0.235341 0.00633557
0.331227 0.235214 0.00611231
0.415075 0.160157 0.0454652
0.416829 0.160339 0.0465393
0.413669 0.160424 0.0476663
0.333392 0.235759 0.00678696
0.335764 0.236013 0.00676708
0.409093 0.227186 0.00592248
0.41517 0.158477 0.0450698
0.415148 0.158863 0.0436838
0.331423 0.234079 0.00414787
0.333559 0.23455 0.00421376
0.335801 0.235339 0.00451039
0.341942 0.235328 0.00362892
0.414107 0.156737 0.0439017
0.414342 0.156917 0.0477514
0.343475 0.235449 0.00374128
0.345421 0.23571 0.00376319
0.347441 0.235863 0.0035592
0.349304 0.235675 0.00340737
0.415883 0.15437 0.0455217
0.44065 0.156918 -0.00370383
0.333816 0.232245 0.00376164
0.335405 0.233426 0.00337222
0.341665 0.233754 0.00272303
0.363472 0.231876 0.00153397
0.416182 0.151967 0.0458483
0.438744 0.156717 -0.00364468
0.365355 0.231902 0.00161476
0.481345 0.225381 -0.00102288
0.483378 0.224979 -0.001231
0.416425 0.150209 0.0457381
0.436804 0.156545 -0.00370675
0.48514 0.224697 -0.00139232
0.486807 0.224232 -0.00136498
0.413382 0.14812 0.0468006
0.416579 0.148419 0.0457018
0.434869 0.156318 -0.00377212
0.33578 0.232518 0.00415324
0.33788 0.232674 0.00388603
0.414696 0.145806 0.0453913
0.416852 0.146113 0.0450485
0.415862 0.146259 0.0473686
0.340249 0.232572 0.00350542
0.412959 0.143844 0.0464362
0.41482 0.144152 0.0448743
0.416331 0.14456 0.0438797
0.414528 0.144982 0.0435565
0.341925 0.232254 0.0029241
0.361074 0.231587 0.00122976
0.41473 0.14258 0.044345
0.416528 0.14294 0.0438063
0.414561 0.144137 0.0435167
0.369627 0.231192 0.0012927
0.413892 0.139661 0.0451865
0.413499 0.140615 0.0431823
0.371341 0.230486 0.000991693
0.375382 0.230293 0.00106642
0.413995 0.137971 0.0455905
0.479833 0.225798 -0.00108369
0.491788 0.225218 -0.00200536
0.499579 0.223034 -0.00270226
0.501666 0.223666 -0.00241345
0.432932 0.156129 -0.0037791
0.562152 0.221177 -0.00361263
0.411993 0.192817 0.0444714
0.369734 0.229796 0.000584556
0.43101 0.155937 -0.00384717
0.407745 0.2286 -0.00327497
0.4089 0.229262 -0.00350573
0.462906 0.226174 -0.00167338
0.534738 0.220603 -0.00442278
0.53674 0.22079 -0.00418636
0.413068 0.171734 0.044347
0.539013 0.220504 -0.00571927
0.543564 0.219727 -0.00497294
0.544589 0.218704 -0.00489943
0.546714 0.219889 -0.005314
0.428557 0.154977 -0.0040103
0.426629 0.154844 -0.00396184
0.424704 0.154669 -0.00388241
0.407818 0.228753 -0.00517917
0.409303 0.229449 -0.00508598
0.410848 0.230067 -0.00572463
0.528089 0.22247 -0.00611656
0.422779 0.154234 -0.00409108
0.401926 0.151927 -0.00147088
0.556857 0.220297 -0.00681174
0.409314 0.229004 -0.00690652
0.411045 0.229724 -0.00721978
0.412703 0.230192 -0.00761005
0.314725 0.212096 -0.00361077
0.428168 0.231671 -0.00307752
0.434937 0.228554 -0.00390744
0.439279 0.228276 -0.00538958
0.440692 0.227841 -0.00574103
0.411882 0.193792 0.0441587
0.443369 0.227527 -0.00561552
0.409899 0.176347 0.0423966
0.445506 0.227362 -0.00598092
0.447372 0.227163 -0.00629953
0.449442 0.226262 -0.0057964
0.301817 0.213291 -0.00190417
0.300043 0.213088 -0.0019873
0.395602 0.151252 -0.00323742
0.392936 0.150939 -0.00318487
0.391007 0.150711 -0.00316814
0.427468 0.230125 -0.00525905
0.429339 0.229592 -0.00550376
0.431015 0.229157 -0.0053239
0.411414 0.197597 0.0422252
0.411423 0.196389 0.0422974
0.409041 0.194175 0.040599
0.41162 0.194924 0.0425511
0.411807 0.189423 0.0440916
0.409572 0.184703 0.0416013
0.411794 0.180041 0.04258
0.389045 0.150388 -0.00321579
0.410203 0.165437 0.0402133
0.410236 0.163641 0.0404779
0.410504 0.161881 0.0408135
0.387096 0.150049 -0.00324311
0.403394 0.221057 0.094239
0.564371 0.174252 -0.00740902
0.411823 0.151224 0.0422202
0.412795 0.141412 0.0411871
0.412016 0.139258 0.0410148
0.40559 0.220008 0.0921358
0.563361 0.175639 -0.0065396
0.404384 0.220027 0.0898132
0.410513 0.144651 0.0379019
0.410401 0.229317 0.0106142
0.409433 0.228544 0.00968464
0.40615 0.174909 0.00663281
0.523945 0.169743 -0.00512023
0.409964 0.226798 0.0063629
0.406719 0.199831 0.00521241
0.406054 0.194725 0.00529185
0.415339 0.195082 0.00168038
0.414844 0.193548 0.00251941
0.415293 0.191827 0.00290229
0.405618 0.187686 0.00507131
0.415526 0.189837 0.00238929
0.405804 0.185734 0.00575368
0.415757 0.188205 0.00198513
0.406265 0.184484 0.00595617
0.415554 0.181707 0.00189192
0.415688 0.179749 0.00135924
0.405528 0.175973 0.0055946
0.416147 0.177842 0.000881771
0.416477 0.176612 1.46345e-05
0.415628 0.167948 0.000864527
0.41458 0.162744 0.0021647
0.413955 0.150804 0.00271597
0.414358 0.137116 0.00159448
0.404608 0.219777 0.0886672
0.408806 0.131151 0.00399458
0.474462 0.235846 0.00352285
0.411407 0.225229 0.0052342
0.411465 0.219689 0.00430066
0.412862 0.217924 0.00356356
0.41359 0.216812 0.00251687
0.413621 0.215604 0.00259673
0.413899 0.214637 0.00233035
0.415201 0.199391 -3.1752e-05
0.415821 0.197457 0.000314238
0.415708 0.196312 0.000822442
0.404396 0.190257 0.00372862
0.416678 0.187644 -0.00113072
0.404495 0.177585 0.00427553
0.416853 0.174997 -0.000500446
0.417171 0.173227 -0.000875399
0.417814 0.170696 -0.00141254
0.405674 0.165483 0.00356529
0.416681 0.166266 -0.00131102
0.404694 0.141149 0.00298598
0.405092 0.139915 0.0030748
0.416046 0.130616 0.000457765
0.411369 0.130894 0.00117274
0.412197 0.130921 0.00143457
0.415214 0.129777 0.00154061
0.336198 0.23342 0.00331277
0.521967 0.169481 -0.00551333
0.298197 0.213357 -0.0019488
0.296921 0.212979 -0.00176277
0.402678 0.221528 0.047995
0.289077 0.214108 -0.00113927
0.468353 0.162536 -0.00224794
0.399903 0.223222 0.0476461
0.466445 0.16231 -0.00201497
0.407619 0.224343 0.038989
0.408084 0.223397 0.0376615
0.274891 0.231951 0.038998
0.412045 0.229203 0.00299505
0.276321 0.231802 0.0381903
0.464546 0.162073 -0.00194781
0.276398 0.2316 0.0367892
0.278624 0.232109 0.036657
0.280439 0.233083 0.0361422
0.282311 0.233582 0.036129
0.2837 0.233946 0.0361221
0.460268 0.161618 -0.00343905
0.276406 0.231562 0.0349084
0.278674 0.23184 0.0347981
0.280536 0.233215 0.0347612
0.282363 0.233694 0.0347758
0.284214 0.23426 0.0346894
0.458382 0.161443 -0.0040451
0.279152 0.21557 -0.00246871
0.276442 0.231464 0.0330219
0.27827 0.23167 0.0329543
0.279778 0.232408 0.0330258
0.282072 0.23385 0.0328214
0.476886 0.23427 0.00161025
0.478745 0.234768 0.00149698
0.481457 0.234962 0.00155859
0.483356 0.235022 0.00175472
0.484584 0.235006 0.0019821
0.284096 0.234292 0.0329371
0.454194 0.160953 -0.00390071
0.452344 0.160589 -0.00307883
0.450519 0.160284 -0.00268945
0.277853 0.231562 0.0310936
0.279736 0.232807 0.0309176
0.281946 0.233888 0.0309972
0.283412 0.234031 0.0308831
0.448668 0.159971 -0.00267315
0.446139 0.159602 -0.00306794
0.444227 0.159314 -0.00329886
0.277945 0.231361 0.0292214
0.279737 0.23289 0.0291638
0.281846 0.23375 0.0288123
0.283355 0.233986 0.0288081
0.442317 0.159066 -0.00346335
0.440404 0.158797 -0.00345893
0.438491 0.15859 -0.00335967
0.277879 0.231727 0.0273283
0.279552 0.232481 0.0272319
0.281758 0.233778 0.0270164
0.436558 0.15841 -0.00347439
0.434644 0.158173 -0.00343258
0.278047 0.231223 0.0250019
0.279654 0.232221 0.0248932
0.281712 0.233479 0.0247753
0.283629 0.23375 0.0247661
0.300517 0.234173 0.0247253
0.432742 0.157937 -0.00341619
0.280171 0.232793 0.0230097
0.281557 0.233318 0.0228755
0.283614 0.233754 0.0232239
0.28543 0.234366 0.0226798
0.295768 0.235001 0.0229966
0.298098 0.234755 0.0230525
0.295537 0.23511 0.0208376
0.298087 0.234953 0.0209611
0.408854 0.224763 0.0159448
0.295434 0.235143 0.0188257
0.297911 0.235073 0.0188382
0.430766 0.157764 -0.00361068
0.295357 0.235223 0.0164335
0.297783 0.235122 0.0163397
0.300191 0.234922 0.0161427
0.303795 0.234779 0.0162653
0.305891 0.234731 0.0159266
0.307485 0.234622 0.0154667
0.274188 0.23199 0.0156894
0.27583 0.231323 0.0156956
0.295299 0.235188 0.0138788
0.297659 0.234961 0.0140809
0.299407 0.234966 0.0137525
0.301296 0.234917 0.0138603
0.303479 0.23491 0.013745
0.305703 0.234798 0.0137376
0.307954 0.234563 0.0136938
0.313723 0.2343 0.0131309
0.315307 0.234449 0.0130483
0.428068 0.157614 -0.00372451
0.485859 0.230173 -0.00218919
0.487633 0.230555 -0.00199206
0.40842 0.224961 0.0106945
0.499791 0.232629 -0.000783004
0.501728 0.233055 -0.000406213
0.29739 0.234853 0.0118256
0.299203 0.234949 0.0119164
0.301165 0.234948 0.0119107
0.303371 0.235043 0.0117761
0.305464 0.234901 0.0116895
0.307852 0.234679 0.0114706
0.309976 0.234355 0.0115349
0.311758 0.234237 0.0114881
0.313662 0.234268 0.0113776
0.315502 0.234373 0.0112746
0.426194 0.157404 -0.00364065
0.297219 0.234711 0.0103292
0.299339 0.234973 0.00957081
0.301047 0.235058 0.00954061
0.303321 0.235226 0.00931684
0.305308 0.235159 0.0092764
0.307281 0.234824 0.00919875
0.309637 0.234473 0.00907546
0.311916 0.234262 0.00900604
0.313734 0.234202 0.00898494
0.315521 0.234321 0.00896878
0.545348 0.235954 0.00238155
0.547184 0.236149 0.00271332
0.549188 0.236292 0.00343751
0.318575 0.234667 0.00844445
0.299869 0.234476 0.00701519
0.47653 0.225606 -0.000910913
0.478195 0.225576 -0.000616738
0.480019 0.225852 -0.000499188
0.482451 0.226122 -0.00108935
0.484263 0.226424 -0.00130075
0.486189 0.226678 -0.00139225
0.487988 0.227753 -0.00183925
0.500457 0.22949 -0.00242892
0.502062 0.229789 -0.00223354
0.5039 0.230342 -0.00210152
0.505922 0.230528 -0.00207399
0.301203 0.234963 0.00691595
0.303175 0.23528 0.00706747
0.305292 0.235147 0.0070554
0.307193 0.234573 0.00686979
0.308949 0.234288 0.00693952
0.311502 0.234223 0.00726364
0.313958 0.234064 0.00676818
0.315543 0.234124 0.00659969
0.526313 0.233367 -0.00073064
0.317311 0.234554 0.00664203
0.318879 0.234707 0.00650184
0.320304 0.234929 0.00600648
0.301474 0.233849 0.00512148
0.30301 0.234138 0.00491044
0.314173 0.23355 0.00508284
0.315593 0.233344 0.00455649
0.319104 0.233864 0.00448931
0.321208 0.234251 0.00439534
0.32359 0.234189 0.00397013
0.325861 0.234031 0.00388719
0.327763 0.233753 0.00383398
0.329711 0.233532 0.00381984
0.331575 0.232895 0.00369293
0.406311 0.226672 0.00200108
0.27736 0.229633 0.00571648
0.303814 0.232824 0.00404389
0.405283 0.226963 0.000233821
0.560674 0.238296 -0.00230175
0.563935 0.238235 -0.00222441
0.478438 0.223681 -2.56042e-05
0.480229 0.223946 -0.000118977
0.482741 0.22421 -0.00029051
0.484427 0.224454 -0.000753073
0.485775 0.224662 -0.000991962
0.424548 0.157183 -0.0031434
0.335191 0.230314 0.00287926
0.373301 0.22885 0.000125222
0.379859 0.228678 0.0006658
0.381335 0.228387 0.00058747
0.405665 0.226628 -0.00114882
0.465012 0.225451 -0.00113839
0.466455 0.224962 -0.000897743
