0.52803718440615532 0.23418929037380112 -0.00072852404881752883 0.015577245498983806 -0.72719373284436972 0.68625550951124303
0.56158849666671451 0.23873878249410796 0.044925874209441087 -0.029086382763593373 0.99893545541636697 0.035804165258046299
0.52315376923857548 0.23792338645379046 0.0032251633737638793 0.022969001260645092 -0.78620589497914772 0.61753762288716119
0.51829963429996917 0.23974703367015832 0.0036578719271461325 0.013098786667036049 0.99967430677284919 -0.021902104147202742
0.51895320957064184 0.23715124356436196 0.14767518583228478 0.02553199144869301 -0.99731880405064288 -0.068580758960945537
0.56160250059575456 0.23878821307924089 0.04279851936054991 -0.030840929880273444 0.9987620895843845 0.039027239886442709
0.49169698305687609 0.15207043699363779 -0.0027097075884909201 0.0014925211353035777 -0.055133433856241913 0.99847788000129489
0.51563770420100241 0.23840975178750298 0.0039544298735172288 0.038296936144563497 -0.82200898684572343 0.5681853308796404
0.51207935221820222 0.23821617679666546 0.0038301453409771511 0.0449025471118897 -0.82386721518588535 0.56500139203785926
0.50904767255726135 0.2370153015568352 0.14775515038153292 0.026214896759986242 -0.99742701010942847 -0.066724348569539432
0.50612498812844764 0.23675595309927744 0.14774446014867174 -0.068548491600027614 0.99631704860113579 0.051511580892872035
0.50844561427646007 0.2379263440115422 0.0036470705547118737 0.049659275028069938 -0.82578107791516842 0.56180029170600199
0.5064558452522574 0.23793985656669964 0.0038199102101459789 0.05230408937002895 -0.82747983823705706 0.55905402202859256
0.50254398436309877 0.23835808427701108 0.0038458105957072893 0.046305406150488053 -0.9202795941857661 0.38851161872783158
0.49798095765569417 0.24059701790057558 0.0033839165930598081 -0.027128719347214024 0.99870584625113623 0.043019359018725334
0.51503383038598116 0.23696403004172242 0.14948315299173764 0.025767119932744924 -0.99719339437632082 -0.070295019329985248
0.51284003395565547 0.23689284440950978 0.14961730951866128 -0.062779889273809758 0.99648646220383652 0.055438399573310884
0.51180772166997668 0.24006069662664056 0.0063839213645984251 -0.0098597872693332173 0.99984052772903675 0.014889718114350067
0.50869529248407752 0.23677197233872452 0.14968992744241405 -0.065028278546456902 0.9964233204287094 0.05396192634728509
0.50648997675372109 0.23668130848155849 0.14962534653911819 -0.066680584030211862 0.99635557714187173 0.053190822626441529
0.28914460071172715 0.2196394528186425 -0.0013943697303645238 0.0071900026185834258 -0.35175849270704329 0.93606317450843757
0.29059354718319219 0.24864420513763 -0.00700666852932869 -0.011910080993714073 0.092055220722966152 0.99568267350013129
0.29160361745291974 0.11605654967229012 -0.0017001423800215797 0.031163982499491025 -0.11689320552077172 0.99265542092805292
0.29257227495380944 0.14867953178836465 -0.0014534545192101975 0.042197921567751359 -0.0085291239371092162 0.99907286494040426
0.29303090875125448 0.14815393523699552 -0.0014481902314140457 0.042111655705409937 -0.0090761994792752272 0.99907168464368035
0.2925097679455792 0.12389322424471563 -0.00095126205823086807 0.03349722665035329 -0.090682866750685126 0.99531630825813977
0.50940209595042674 0.2395274087438935 0.011660788300521264 0.017989663901193022 -0.99751538783476867 -0.068113310193919599
0.51047421759344191 0.23664408153465646 0.15354942384735809 0.025417554204363004 -0.99710557204643246 -0.071654910035704802
0.50853367381242831 0.23654761984429984 0.15368022562890279 -0.062221720907784536 0.99640083034646365 0.057565985895765927
0.50377672650152738 0.23740265483640288 0.040187836628104906 -0.050925118152815058 0.9982702876702042 0.029377969568531951
0.50509105446697411 0.23656935820710231 0.1543612147667596 0.025713017002125516 -0.99744828970682364 -0.066601427293869891
0.56159887770839623 0.23887974454571503 0.039011330495629395 -0.033750489540749135 0.99833814914921259 0.046710217394958661
0.29557874034279918 0.11641809113380382 -0.002263954995352192 0.0109622276437998 0.019521213612809351 -0.99974934447798891
0.50818416335137606 0.23637641769336037 0.15615079698014203 -0.060772340561992821 0.99635696658493966 0.059829071196823368
0.29492185605323545 0.14764122599777182 -0.0015086051352850777 0.042048629491713056 -0.0093644101484825111 0.99907167940065222
0.5051977876914443 0.23644747602090052 0.15640043809816148 0.024985037957588448 -0.99725531616581897 -0.069696357560996819
0.29439771235859413 0.13942443774445648 -0.0011298460127057888 0.040121738660991932 -0.023609073988547672 0.99891584115591159
0.50130217249509246 0.23639061017049515 0.15678063407665568 0.02560687816650729 -0.99782822481370992 -0.060688726759474579
0.51041596055296623 0.23637822214177032 0.15699050743672838 -0.0587414940951443 0.99640740749566714 0.0610058616792966
0.29449527412977011 0.13768090065427557 -0.0010842717109282136 0.039671043502052361 -0.027364926933756573 0.99883800942964152
0.51365793303716645 0.23771385872019279 0.038577411902228048 0.021854833095792475 -0.99841560558440923 -0.051852143599590589
0.51195111728127807 0.23777004618010059 0.038560593610602434 -0.046005891255676723 0.99845920193099336 0.031027085733188818
0.50378689537763655 0.23746482006784214 0.038105813345442781 -0.051193188559697525 0.99815165711550868 0.03274945560853381
0.50167380156637431 0.23736412531718526 0.038116919069233063 -0.052350814727075819 0.99809566913733005 0.032625564312615596
0.49996359060783474 0.23728364472952887 0.038027781986664018 -0.053291804344683988 0.99804090233145837 0.032777139336683823
0.29407616081179094 0.15400648807478012 -0.00278916248770897 0.021664679425122998 0.013843224582536855 -0.9996694487672233
0.50598838244993261 0.23876124334767265 0.021196884276619241 -0.040468907879250615 0.99793969211915812 0.049785925603334925
0.49812752998185167 0.23865716114215599 0.021318797008433376 -0.048163745275816516 0.99729563605468852 0.055512772830048296
0.49617578913485211 0.23876565540716516 0.021467765963905882 0.022443871802415104 -0.99921093430161145 -0.032768603733107658
0.49220181584855816 0.23877843243214592 0.021486433712822762 0.022386104351432463 -0.99952283062247405 -0.021283171671621609
0.50491646311256555 0.23626563305464232 0.15906450308005529 0.024028252793865692 -0.99711741658025077 -0.071968747522802273
0.50365206879198265 0.23599176567050037 0.15939266562897633 -0.064466998151696944 0.9960920171774722 0.060371346387368574
0.51197316716356978 0.2378453683462862 0.036423882009756464 -0.04610297067412137 0.99835531413710898 0.034076132838329325
0.49923623047228888 0.23575400214334791 0.15969951154874201 -0.06908327442879604 0.99581252425455125 0.05987418251612639
0.50379837393005256 0.23755105646432317 0.036002499512522886 -0.050917903778754291 0.99807223595161443 0.035484910839994638
0.50170338640106471 0.23745313638712137 0.036011067096598036 -0.052047125423831504 0.99801852730701168 0.035356977911856588
0.49999573366654793 0.23738154216174021 0.035929860624700306 -0.053231550730134899 0.99794071843434939 0.03578721136942236
0.49565836085794962 0.2379242869031048 0.036232006665258783 0.026547522700514886 -0.99915682913216397 -0.031318681917114677
0.49401622168557552 0.23710094821163386 0.036170735026180727 -0.056775153587722456 0.99767964213193416 0.037575438927393394
0.49422332249024686 0.2382903571968189 0.023430824026789799 -0.054666596620881525 0.99681165651441728 0.058121292577446325
0.49228761434566842 0.23868387731134075 0.023376572775451843 0.022753259450745137 -0.99946105210330016 -0.02366209020630973
0.48824407989524982 0.23873894381842545 0.023564737811377592 0.022496272365448218 -0.99968018625647337 -0.0115517503384604
0.48258382413262385 0.23891443099169885 0.023550028443892385 0.021736069038258192 -0.99969528413930919 0.011699665481965296
0.49039151379256402 0.23849993075352788 0.027075984340100771 0.023146076873585882 -0.99944072143337448 -0.024135108578540902
0.48841077862006338 0.23762636846453644 0.027657369989870038 -0.060341144917379803 0.99662804978819541 0.055601048600166923
0.51370563819974657 0.2379758708539676 0.034343844699919239 -0.044933423634815547 0.99831252547476179 0.036784357010246925
0.48802481126308583 0.23723635778242003 0.031105993645333965 -0.060820569902929902 0.99691810133856673 0.049549545913056658
0.43970793483593934 0.23452545900104432 0.061019099446286106 0.030854431978203825 -0.99857493926864471 0.043544169436619214
0.51973711388109012 0.23791022789843955 0.032681877277271919 0.018085846232931812 -0.99741304379054008 -0.06957098707456208
0.39256260298519058 0.1392063988957061 -0.0036185826725136159 -0.050632895633665569 -0.08157327535801083 0.99538038489168379
0.51372176890346255 0.23805300786967573 0.032196859881576743 0.019891380968488699 -0.99794238086900833 -0.0609535678091234
0.51200089688564543 0.23805304531510937 0.032174688852864224 -0.045019864772868137 0.99819031604200525 0.039866085032196227
0.50998847679363635 0.23812703695677923 0.03232677124155952 0.021384281415729151 -0.99832781013287819 -0.053705642381642126
0.52713117428541711 0.15795045820436523 -0.0041261753773404464 -0.023822527539307702 0.014098976577537344 -0.99961677959161177
0.50600110745366167 0.23817093068775236 0.032398999487509003 0.022543338813392474 -0.99862597753636773 -0.047307027645780465
0.5038597855872563 0.23775419910266676 0.032178541192662787 -0.049869203388022712 0.99793192224091243 0.04055787378551267
0.50173910157756318 0.23767426321741308 0.032183193597278489 -0.051564169002767349 0.99782867575730572 0.040976460455675434
0.50002537985044415 0.23762062616979981 0.032081977782130996 -0.052686606399778249 0.9977329957273342 0.04186873228358181
0.49573203805851684 0.23744886924005401 0.031994888006844073 -0.055634845771781398 0.99750881163564886 0.043369743430019918
0.44551967419121513 0.23470983691384181 0.063025147144135318 0.030898514430121 -0.99736096324555179 0.065699245048301588
0.28777886520744966 0.23280084466472042 0.028798162415599841 -0.029141690372118119 0.99944620687620667 0.016063668417213184
0.43977267100548711 0.23469024079874853 0.062964640705848965 0.032054074519958772 -0.99832544713655325 0.048154313475220395
0.43580175008998601 0.23464029978434187 0.063119732654079011 0.032827645348943779 -0.99878851360934295 0.036658570387882991
0.44383980270301687 0.23524214375306807 0.064723797163467933 -0.031610857392677029 0.99941441742485271 -0.013098699868397819
0.44583946286729731 0.23537479568883454 0.066574204415780491 -0.033400556935656182 0.99931775599470019 -0.01576151484169052
0.44187386507067705 0.23526407769529983 0.066792628135620757 -0.032937666750024207 0.99935336107795858 -0.014421158457346586
0.43987622486193995 0.23520857907511183 0.066872599499492633 -0.032891998945245166 0.99936462731213294 -0.013728003593663544
0.43194960596760645 0.23500742612856898 0.06717423599713869 -0.034268716988294055 0.99935295960603143 -0.010923239567174878
0.42611959689556778 0.23496165307140593 0.071324578949482589 -0.044828732984110144 0.99893903129565942 -0.010544972884221016
0.42417347631144803 0.23478437994181933 0.083100813639049878 -0.042188763540670866 0.99909066483608067 -0.0061604925377440611
0.4717940800109226 0.1508014072930822 -0.0035714007941175965 -0.037727874301870988 0.032330770277827096 -0.99876490166300136
0.4699083471613526 0.150541586752581 -0.0024055518694263917 0.0030593178162694489 -0.072822896541086882 0.99734019587794875
0.51372025596744264 0.23832005152401298 0.028428895747619264 -0.042015408749442804 0.9981631345499884 0.043647018832434825
0.51200296308151139 0.23828820850681465 0.028417641953517755 -0.04286980254974123 0.99811453597722055 0.043926678685327493
0.50988603998609416 0.23837232712576314 0.028371725291565741 0.020398217056776035 -0.99815418536938816 -0.057202578355155569
0.50775452773259044 0.23840393911961558 0.028244729173552387 0.021176868812737198 -0.99837730080896725 -0.052861190458492802
0.39693455500352637 0.14094772819895662 -0.0034511406037068823 0.17990621261977163 0.021939322156910891 -0.98343907833892019
0.50604630848105259 0.23812210938127826 0.02827670009227649 -0.046133095479178779 0.99792369426354799 0.044944832060002229
0.39247630442939002 0.14048618259704304 -0.0037637963456321902 -0.051428777331382111 -0.073227037372044251 0.99598839444037313
0.50130703307321933 0.23839444274917215 0.028836493832482553 0.022831067599659846 -0.99886279518381094 -0.041855211740520329
0.50002103161389044 0.23841997497341197 0.028368510042871213 0.022967192703409099 -0.99893405137253843 -0.040040842495772763
0.49574077565875707 0.23843631647396865 0.02816134365745334 0.023379112589730088 -0.99917469697945294 -0.033216592398004445
0.52883038864647758 0.16020893153272608 -0.003853972262918197 -0.042333820521576658 -0.086276547101827486 0.99537139051724466
0.5269674686060436 0.15992697355490165 -0.0040381880832655688 -0.041887498000445209 -0.087735891650865414 0.99526270442908193
0.52500048887842798 0.15952865229078181 -0.0042360761150227926 -0.014889604443451962 0.0114801195919071 -0.99982323764437131
0.50665547540498979 0.15711873680597879 -0.0045886901907075655 -0.034880744117125155 -0.0073065484631174276 -0.99936477226255671
0.49192603996522383 0.23770343385898254 0.028014312809274522 -0.057828726458360305 0.99691043273280244 0.053154750537471658
0.50341061660780606 0.15677879678459092 -0.0044370354409077094 -0.039986603752381007 -0.0088950847223740106 -0.99916062221653423
0.37738910964382333 0.2324191441882231 0.10075403522930469 0.025361920578191487 -0.99964257639098453 0.0084553208679657814
0.52191814646817813 0.23851486123504256 0.026667010590931014 -0.036554951111276907 0.99813490780963054 0.048892140074991507
0.51200766882176518 0.2384350130670144 0.026331189131582229 -0.041499210811970236 0.99809934643824705 0.045557767082331897
0.50989482587762325 0.23851512126292193 0.026297784358464853 0.01995041663237997 -0.99807240299505662 -0.058766140386004931
0.47136500049225644 0.15245850220130625 -0.0036788620908724447 -0.040935495200988242 0.030869169053168426 -0.99868482497463473
0.4696498013062933 0.15244732992174917 -0.0036805700658048761 -0.041142386843814889 0.031086270101227862 -0.99866958891116098
0.50603951909885725 0.23854200219583357 0.026227630325527562 0.021338776507419638 -0.99849990401967559 -0.050424183581540584
0.49779064434281695 0.23853778692636474 0.026159983219728188 0.022925872341863891 -0.99908456971206205 -0.036116851200351276
0.45574171491979376 0.15047439376132118 -0.0031771218921564093 0.0021856966988330292 -0.071390665579121257 0.99744603643410734
0.45380705470207094 0.15026588550069159 -0.004047895643638718 -0.047421734853334958 0.031675291011360816 -0.99837260329139921
0.45192350881022864 0.14993200426528108 -0.0033130489393197447 0.0029188753665502888 -0.071236763649150173 0.9974551637398994
0.49580798992482078 0.2380143388222371 0.026088345784951929 -0.054121134382592181 0.99712508344296225 0.053032733118395979
0.49190390260532579 0.23854355251492265 0.025960763899008164 0.023089963753232339 -0.99939315059177758 -0.026080339800605642
0.42608330273358536 0.23723127659707688 0.025224557824940447 -0.041470402778053084 0.99888274932422505 0.022659629209307027
0.42401984962245692 0.23708618961755606 0.025236878905269804 -0.041570594768257467 0.99883090794125273 0.024671906936149048
0.29962065922169373 0.23339874903228655 0.023028588216798516 -0.046510266309584387 0.99864075775924532 0.023525136978387953
0.29884373463888497 0.11617833782952899 -0.0018175309165877032 0.033454451335494288 -0.10438737434596396 0.99397388082534477
0.53606061662558124 0.23833039947635462 0.024475629618926208 0.017262517034751932 -0.99439089616885346 -0.10434917882824661
0.39667435015095359 0.14290098539138321 -0.0034149493117792509 0.1895091951262951 0.022555062663348606 -0.98161985213769809
0.3940777955649209 0.1425742704781294 -0.0035460962628060528 -0.052486656055339961 -0.077222856512911608 0.99563134812445242
0.29884225884485272 0.14594551629176711 -0.0016655798202968271 0.042048915111316705 -0.008591710450397529 0.9990786111460388
0.5219421181797963 0.23870446413956006 0.02388088575155476 -0.034363702897467728 0.99815046934658547 0.050147546962595727
0.42617933245028783 0.23604982842006272 0.022435663020977152 0.035604326730218148 -0.99111347076248912 -0.12816559597341437
0.52669494712350462 0.16181933585667516 -0.0039122155086574045 -0.043301478358153025 -0.090509677049523965 0.99495375788646045
0.41046009440329251 0.23898251735116599 0.023167623424798719 -0.97949476873842567 0.19927207886331419 -0.029675521891806333
0.37944429031319532 0.23176042574031086 0.10663038830726863 -0.01310249098342875 0.99991324442795748 0.0013521640376534467
0.38624731913305344 0.23492375174321112 0.022114892631916867 -0.044083020571334522 0.99619609258630337 0.075166697500214014
0.2999706465460138 0.11384535467673114 -0.0074431387138960943 -0.00077321944085082493 -0.85281440242423123 0.5222135551184951
0.50638512587806095 0.15887476599584383 -0.0046864199083669206 -0.028082957851258413 -0.0066840266595953948 -0.99958324879218452
0.29544217631122421 0.24274808617603336 0.008929711918747538 0.0072427951455427009 -0.42692019632525269 0.90426029874593494
0.50354940078925736 0.15705769785504958 -0.0054084898447675058 -0.022272603372550558 0.20889207946660193 0.97768503633589887
0.44032507492924666 0.23681041330853458 0.021679138760378035 0.033365766142885667 -0.9906185930166882 -0.13251991857579465
0.50544846797082255 0.23471643814749407 0.17745479500268238 0.017233393292635648 -0.99704092264192101 -0.074916011192322579
0.43576764446943661 0.23678189555357168 0.020546744768099943 0.034499873601335371 -0.99037763500893916 -0.13402200862392821
0.43390369446706917 0.23659087630640629 0.021263928930444834 0.03540900531795526 -0.99065346249257358 -0.13172668520033506
0.43222654256187626 0.23795844067985464 0.021250629917255934 -0.040301518058763842 0.99915209856105835 0.0084185261888568164
0.43016166385547627 0.23643342228517145 0.020912374332061917 0.035973208630185459 -0.99041311173281521 -0.13337089775723598
0.42811233410283012 0.23629356297575399 0.021134041862155815 0.035914945271588929 -0.9905547306951179 -0.1323308059510758
0.27939089657122557 0.22686772749855283 0.0013801160883938398 0.0063061499954041806 -0.36579961878747375 0.93067226850657503
0.421933594062539 0.23595048358816059 0.021578750424469519 0.031976430703211108 -0.99155727708840968 -0.12566492801295714
0.45547353013468772 0.15242282879908836 -0.0038709705947340433 -0.046597979619329502 0.030968452872571481 -0.99843356475134382
0.45356277988294585 0.15216613772652496 -0.0039731151991770292 -0.049005722860015616 0.030387494313324877 -0.99833613543551802
0.29917168567435831 0.23339086178304627 0.018997977768054182 -0.043908562132982401 0.99869508005509466 0.026080169576946657
0.29057051820336077 0.23790197525554421 0.016259015756710651 -0.79915983180772499 0.035313234665274376 -0.60008044350947132
0.43586989527552034 0.23698229187477343 0.019073777603265053 0.033672357180974416 -0.99015408053002441 -0.13587151714623261
0.43197948976585782 0.23681577095765283 0.018883105517451378 0.034947632795484435 -0.9902049807030977 -0.13517677001900102
0.2934868821744126 0.22541793058763965 0.00065725324645297435 0.010351758482104212 -0.37599972553709654 0.92656195016434617
0.3007553248669419 0.11231183699085621 -0.0022886502450699892 0.01000509657124953 0.019085427386372859 -0.99976779529252668
0.30190838180112095 0.140858277397205 -0.0021303386868393873 0.0071234206578081388 0.0085029218357477749 -0.99993847670663571
0.39398251298138864 0.23582693301736821 0.018468575598827811 -0.041955195723378871 0.99633390986355119 0.074555359350095884
0.30116507345551186 0.13185370485689538 -0.0020296671693940736 0.0082228237273460156 0.011734325794790305 -0.99989734011451936
0.39212204758292685 0.23595454923321418 0.016277807587118144 -0.04159649518236265 0.99625624468388541 0.075784078254644061
0.30921418390680311 0.22462434389899349 -0.0010526641527956707 0.042969629610814915 0.096131429838423932 -0.99444072680493611
0.52777532683042172 0.16326571806015441 -0.0037117289192352522 -0.044580719683958846 -0.091375887974145212 0.99481807710223924
0.38236240837826951 0.23491875587324623 0.016054682873415937 0.0056593541480375563 -0.98628124566886033 -0.16497659274123819
0.37388278948472203 0.23481650816262942 0.015949706446953576 -0.03677374931076053 0.99660171515101759 0.073706938070166317
0.37014511871197958 0.23435382763797571 0.015953623067423796 0.0058638381344019493 -0.9857169771751334 -0.16830821819225303
0.2993514934705947 0.23361362183974965 0.015030602372393337 0.0063754351472636228 -0.99424067550605189 -0.10698052624638126
0.50534350405896322 0.23402240810941821 0.18623926682365211 0.016136847809147255 -0.99764519256844053 -0.066660872240494357
0.42518722532122788 0.2379725909879821 0.015541757689610315 -0.040055409091499128 0.9991973597177044 -0.00044781210478064473
0.40496455275686433 0.22827159376650344 0.10881956629214547 -0.94485838212027817 -0.32645409913612922 -0.025891289930572894
0.5054582107265414 0.15872385578039533 -0.0065418420122343481 -0.025457636733754396 0.312476030083293 0.94958445614664377
0.39347820665458783 0.23192020928685067 0.11005893716467118 -0.017580755163356721 0.99984294957887609 0.0022345525948775495
0.30122531434952321 0.17387747590241542 -0.0033001189472830956 0.048818686013497217 -0.03578649226704305 0.99816635029795331
0.30041313271067699 0.17220773337779385 -0.003558925489399534 0.018016622846904518 0.031261316871024659 -0.9993488536885814
0.40000852714434254 0.23606842576503423 0.014691158536393377 0.0064874307150473379 -0.98832638114196836 -0.15221326348757563
0.39628554613982159 0.23591542488683073 0.014496824342641578 0.0058818751945520168 -0.98702147334932011 -0.16048057418744827
0.50816557370225302 0.23396153212590592 0.1885038922950035 0.015999178874786649 -0.99791112991814102 -0.062589160889339288
0.39210775333267378 0.23565201577709988 0.014419500060689662 0.0054262670043681216 -0.98536951718769827 -0.17034515027930724
0.30026696891002636 0.17829637551000929 -0.00369718635489926 0.02605006238714597 0.03758907210147671 -0.9989536805619047
0.38344826595883663 0.23258997966528658 0.10999796935447681 0.030030740700400287 -0.9994984106625564 0.010053939327895806
0.41171172021618657 0.23657624249541204 0.012929800496376273 0.012439518258549737 -0.98917914854388711 -0.14618437150217475
0.41003558395240919 0.23658766556091806 0.012719889555774239 0.010430414414140212 -0.98916042808938043 -0.14646792808387449
0.45328660272012927 0.1540980073032891 -0.0038106627750669627 -0.048511317339680768 0.029927851207771552 -0.99837416623831687
0.40199605408264133 0.2363679062628668 0.012577296765622558 0.0059279385533243358 -0.98722794921875401 -0.15920375569012596
0.44950426225534057 0.15359072889532854 -0.0041448663824721647 -0.05540104326420172 0.02829086169946313 -0.99806330037204549
0.39984449384247256 0.23625885251140619 0.012944785863961368 0.0056920688323848336 -0.986884053619563 -0.16133029803427201
0.39619522332062773 0.23607250757067674 0.013056448365538089 0.0055578365662845748 -0.9858674187246661 -0.1674351908944664
0.3021999203084057 0.12564907178405399 -0.0020533443329006878 0.0091180375631301283 0.0140952861502169 -0.99985908222076025
0.50929442389706592 0.23361082557020005 0.19030727235738179 -0.068917531678798508 0.99561639524264378 0.063232644665122531
0.30251982316659431 0.11682356188997847 -0.002578442718862681 -0.0005959313013550394 -0.84855128959781345 0.52911279873744499
0.50580833309875572 0.23376724158249956 0.18967793711616768 0.015886888828654543 -0.9979582385741792 -0.061862434685901829
0.380065630310017 0.23505339563646485 0.012437793425333939 0.0052968681242792758 -0.97996129116570885 -0.1991175808534015
0.37627414779880503 0.2348252475912202 0.012341034959384206 0.005322967793558662 -0.97937197889849981 -0.20199552708489699
0.37431105837889012 0.23511581018297661 0.012491787323412528 -0.038105038515075289 0.99658386079693806 0.073270829385464725
0.36596167952082365 0.23474695029341583 0.012185436128016067 -0.02698106145328822 0.99727161468000225 0.068712072275511488
0.34610637013279666 0.23490413615887462 0.011954081839692765 -0.01000756633992589 0.99813795253826809 0.0601703940378168
0.3962837417708423 0.14674953132328392 -0.0032805840412648076 0.21128021455231857 0.021631815844801946 -0.97718613144169353
0.39368757620277545 0.14639156982559479 -0.00372276559227712 0.20968277106399283 0.01734279905403505 -0.97761565190001765
0.33588348574018156 0.23500626711058734 0.011901764244854575 -0.02115646527521985 0.99787623151363014 0.061607065805916808
0.33024770075113041 0.23490310839592463 0.01179369124288027 -0.02896486175233362 0.99745253644050502 0.065187992238379608
0.29382619440882618 0.2339709955302838 0.010521849005933089 0.0011347301437629202 -0.99126351839416538 -0.13189143068570058
0.29123035927006724 0.23311922868508261 0.011386084359766603 -0.020358155533070181 0.99953393061345763 0.022747902226426611
0.37947097917855638 0.23184903778695473 0.11013066965229269 -0.021029031526663043 0.99977763121347674 0.0015709736535101894
0.37748290183388156 0.2318440000571205 0.11020139285769905 -0.021332970688074718 0.99977116284094425 0.0015894380414921293
0.40414383273819615 0.23699536101417629 0.010646352918252519 -0.038695852822993516 0.99844679880386644 0.040082676215701649
0.35821637427502806 0.23458976146000107 0.0092027907687327777 0.0054761929174398944 -0.96724515656084664 -0.25378498462421734
0.35607102912435179 0.23464407304451926 0.008896034213335317 0.0059439469213728342 -0.96663186570510296 -0.25610057730990732
0.45893812711850918 0.15675252353395244 -0.0037669382938564692 -0.050741526036104621 0.028427526630182155 -0.99830715376842694
0.35394589298981111 0.23486777159661681 0.0091241479521855778 -0.010992900526796088 0.99797919185851658 0.062583454326443841
0.31966874510826038 0.2344204395253463 0.0064236088613750988 -0.020032000670739965 0.97556193297446281 0.21880958361154393
0.45303772752426347 0.15604323925788852 -0.0037263045089803858 -0.049619542233272224 0.028879550755399282 -0.99835057598857868
0.3180194121478197 0.23397303541097067 0.0081520229251483382 0.0072318806275838646 -0.97957639518226713 -0.20094224519573595
0.30598647280870345 0.22400087254622744 -0.0010512316450147718 0.047113892001863091 0.10107606830789993 -0.99376250160481183
0.30571739483178084 0.2337546344657441 0.0091052079538542878 -0.004724818513926028 -0.98469365005183263 -0.17422999637723019
0.50743504644682202 0.23329730547999311 0.19352035019600716 -0.070847150105766046 0.9956768017297003 0.060069857825753213
0.50562979881787684 0.23315326768877662 0.19384201742115117 -0.072492073209038513 0.99566382780662144 0.058296151839737478
0.29965095426868926 0.23390692339126681 0.0084899681244857746 -0.012332152564729708 -0.98034607603431811 -0.19689969328882978
0.29371930059595502 0.23327799634893978 0.0093400378111332515 -0.019583933836306869 0.99935359963438708 0.030147179524597587
0.4078503524499279 0.23709481051636114 0.009247533393582379 -0.042040982376370696 0.99894948871820111 0.018233891259802754
0.40574861538369333 0.23705377930000704 0.0090026366018046509 -0.041289479578873613 0.99877013915702939 0.027447914389878626
0.38002425491226099 0.23563618102640529 0.0078554031559135047 0.0046177765800491169 -0.96881477267983485 -0.24774303698949152
0.37620663734055526 0.23535667380239134 0.0081485220330732907 0.0046155177093499715 -0.9685562223453329 -0.24875196713275
0.37405447996072289 0.23542961055246231 0.0083021197001596318 -0.038019102671522031 0.99695918464686617 0.068021555262343283
0.37000488927390784 0.23514741623022742 0.0078881625029049891 0.0044340519131019591 -0.96674330667629693 -0.25571022306550661
0.36627809136240719 0.2350120900474581 0.0080249834217578191 -0.028091930488093553 0.99733757152357461 0.067294961690388566
0.52213296640945073 0.16695471914883925 -0.0044123074348903432 0.018113554003872708 0.01084082780389858 -0.99977716297876851
0.36413848550184658 0.23493913130088293 0.0079186847415530642 -0.024541404382201013 0.99738621601685284 0.067959219908214741
0.34989574426566489 0.23493214973660287 0.0074267494239079477 0.0077519852474659534 -0.96307888655819562 -0.26910772005007455
0.34604327146600561 0.23502970987966962 0.0071083007152551534 0.0095465697562678933 -0.96535757150780199 -0.26075586693006098
0.34401347176033442 0.23504813167104649 0.0070457018823182425 0.01070166099296696 -0.96676915802015118 -0.25542683796539384
0.34016901960402335 0.23505529949697404 0.0067854620743140063 0.012197063695250235 -0.96736132524376695 -0.25310728567118945
0.51839091385151459 0.16647613194524344 -0.0046823394835963867 0.017546832975667209 0.0076094447335930768 -0.99981708577287798
0.3362156198116561 0.23495040548673504 0.0069331386992530766 0.013698077032081894 -0.97037946240940287 -0.24119714264406503
0.33411545776714979 0.23487526994420632 0.007026967136006086 0.014232009563375753 -0.97186885673599732 -0.23509226956761783
0.31293790341059152 0.22408665814416873 -0.0009715763532616615 0.026852745939200583 -0.40033232222143594 0.91597650724258051
0.29248908964018661 0.1894859173856209 -0.01057842737686729 0.8310925554121954 -0.081403238331178657 0.55014423302223592
0.30319615298359726 0.18511504720676025 -0.0036723802657685043 0.033554575942539556 0.039877852778172143 -0.99864100020533841
0.38445048972282431 0.23634911038954401 0.0062375257149342713 -0.041654701604419156 0.99647591131026692 0.072805521855281899
0.4261356697515124 0.11732033640247143 -0.0086909863043121739 0.029461792711680777 -0.92064974619391116 0.38927631266659529
0.50467482107530515 0.23322082629320093 0.19688231783347396 0.015884350137027117 -0.99872189233898767 -0.047981967274757918
0.50308464867566383 0.23310706480453572 0.19698470601842735 0.016149369787091215 -0.99883154288050902 -0.045549388606451593
0.37437178221120421 0.23559113305687063 0.006017853351032487 -0.037736486428206102 0.99721674441913899 0.064301805901135947
0.37013408604954984 0.23573525565128822 0.0051968295561967848 0.0037743999071287882 -0.9588463972533614 -0.28390022962229211
0.36604747785996422 0.23561006648682814 0.0051709691937774768 0.0034549434079784004 -0.95568233796707347 -0.2943795717502084
0.30505318361656458 0.12855588191280845 -0.0020393976301427284 0.0067922406211729887 0.010997291358201025 -0.99991645903551707
0.35598422365885346 0.23500430645114018 0.0056993904510886503 -0.012075263484757705 0.99776117893572869 0.065778551371692584
0.354267799382391 0.23502379064409548 0.005683656236191291 -0.010995029106991882 0.9978118659588664 0.065196545051265653
0.39301717971202937 0.15102517247576355 -0.0037969609701374416 -0.051723941686978275 -0.06255772338878797 0.9967001380057966
0.34990648968993038 0.23511600463516169 0.0055361050847711714 -0.0082550080822705648 0.99758770179101841 0.068924829175528099
0.38915186948952901 0.15055867561611688 -0.0043141833206244385 -0.046364730911970985 -0.048765080995948826 0.99773357095114279
0.34223411020953126 0.23541348379554219 0.0054444866886357015 0.010729289769963504 -0.96103939921175285 -0.2762031055287853
0.33219735463100591 0.23520466174465202 0.0052348852749723876 0.012834650277071194 -0.96292132457767532 -0.26947689033726135
0.33046541740055857 0.23527352572026472 0.0047439684554996661 0.012447401643260683 -0.96185947166201513 -0.27326071610533503
0.49694560675260063 0.23249640061581758 0.19918362879412058 0.017290750197754529 -0.99938757241816878 -0.030422196727364386
0.49472308472574356 0.23209266113275728 0.19927075496686483 -0.075361927392755601 0.99597181484831798 0.048587281539481324
0.32614438020136649 0.23517228186374406 0.0053784067753684193 -0.033437886108610822 0.99533737432669889 0.090473305681955038
0.52184148429041688 0.16948964220319684 -0.0044328491705927162 0.03085872628217072 0.0125967158502712 -0.99944437652229035
0.32423838533665456 0.23510110027442566 0.0042360176186610424 0.0085422372610831233 -0.95986005948104547 -0.28034924004822853
0.32033778111249434 0.23488829522353891 0.0055282818662322824 -0.042061585124759278 0.9961307901482388 0.077163929237943421
0.51669492514559456 0.16902993566587288 -0.0040297742590530705 -0.046544169919697502 -0.10815368923003668 0.9930440170266468
0.30421990037042634 0.11844811413491586 -0.0017036923019299853 0.036102292961207628 -0.086782975200703563 0.99557287008950635
0.30499004927382961 0.11732737705378468 -0.0018240105193862077 0.036000333650744662 -0.090880047859797419 0.99521092883771933
0.3035144489640576 0.23475191281406718 0.0042989635504980927 -0.020141820845145462 -0.95566458003791588 -0.29376779522949092
0.2977673534782101 0.23480327451978369 0.0046429003002205404 -0.022269189844321378 -0.96014488664297815 -0.27861421327172148
0.29390520172300721 0.23346085339737849 0.0050767586732812821 -0.014793461516734276 0.99921869591011736 0.036649027818446873
0.28641819789542766 0.23801038478787356 0.005776679445734588 -0.90942088631089779 0.35612445876431759 0.21477667799675801
0.45229793838917959 0.16052283881764084 -0.0034894724371460845 -0.051993023843455263 0.027950517776241572 -0.99825622664106328
0.30835820027354954 0.23533828456210606 0.0024624094715236062 -0.018243130504559224 -0.94226206861216688 -0.33437909959223477
0.49436443811334502 0.23196231259811537 0.20292759158523779 -0.073288146017483527 0.99627580710100672 0.045424264865349777
0.29604661512826436 0.23532365119780707 0.0031423761555102125 -0.024244361174406565 -0.95594070493221117 -0.29255696813604026
0.44868953794273919 0.15998369793898032 -0.0031105898143863756 0.0055182302984565258 -0.05833514997390013 0.99828180360652463
0.29411278198345692 0.23357769394493005 0.0028709659638256387 -0.012237465458838526 0.99914626498362269 0.039458656951551936
0.4168157333159101 0.11732310064842753 -0.0082255856685529583 0.032227118310526527 -0.90368808182645199 0.42697688884789425
0.37232713241269089 0.23564395139801636 0.0021290657654498986 -0.036430360980363008 0.99783491966229343 0.054756752107704636
0.41264078232140866 0.1172816887375623 -0.0081713486051975519 0.031996328553768098 -0.90379104656588505 0.42677626352272857
0.37012654460404698 0.23661533609407173 0.0020974395638668512 0.0027880474025244939 -0.9472097925165518 -0.32060230153951191
0.36186474910995381 0.23644980182159206 0.0022131158363451089 0.0028009024816276176 -0.94571902767290872 -0.32497334604963624
0.39276238350226411 0.1529018033758702 -0.0038399590690646464 -0.051471648045022578 -0.059496228692339462 0.99690063106556326
0.39085706791107439 0.152718209467364 -0.0040762457233468937 -0.048654980902543256 -0.05323277783227591 0.9973960919301984
0.3601537168826307 0.23654927127022624 0.0018964139585207411 0.0029000914268305883 -0.94427928907957526 -0.32913251690631851
0.35624683504256854 0.23658739613400839 0.0017644554058814641 0.0036896449522983077 -0.94438441796376837 -0.3288228362315494
0.35407300733124736 0.23660633518380855 0.0017405248973870321 0.004060545362232975 -0.94312317415824409 -0.33241869733370849
0.35027048040532432 0.23531961362214474 0.0019859120070312747 -0.0079018824387937538 0.99734155386339818 0.072438837589140437
0.30619589989709428 0.23602541349348705 0.00089007758569071541 -0.02277453975261497 -0.93475304398972947 -0.35456743659139317
0.38618731531454831 0.23688664316659203 2.948544789199497e-05 -0.040490413783600937 0.99703408488946088 0.065448911070148372
0.31208300535541844 0.23673814977897845 -0.00076025258972966874 -0.016698712447431492 -0.92609302065875065 -0.37692554979697079
0.51580817051602423 0.1707363164137034 -0.0039634019801380064 -0.046831776476011583 -0.10894956376845838 0.99294349147711503
0.31010301628760545 0.23678463796046403 -0.00075414533394612792 -0.019400582988193221 -0.92373840880736668 -0.38253231167282131
0.30440088900332696 0.23425245436803288 -0.00017293296304430583 -0.028011444691673465 0.9977387000061293 0.061097016918704589
0.38750574449266112 0.23842820995564321 -0.0013858724146212521 0.0040756617994357732 -0.95167663285575688 -0.30707486946545376
0.3841048504783261 0.23826384354773972 -0.001244478417756016 0.003896518489562871 -0.94926200314305553 -0.31446218617266852
0.38617128699730913 0.23706238053970755 -0.0030584731347080888 -0.040176168832016829 0.99722169730123322 0.062727680410077924
0.30456055159623835 0.1451731136934464 -0.001944502868792371 0.04237332508949198 -0.0058355685764575 0.9990848049391251
0.56163842382905393 0.23913394395602863 0.032215586543500076 -0.037287475074567422 0.9972548131737704 0.06397250819150356
0.50595546741007857 0.21324589385837922 -0.0039648439396400099 -0.0041707023924527709 0.09524413768722409 -0.9954452066677355
0.37907082750784998 0.23190973913759627 0.11311545210804329 -0.027769511523383115 0.9996124804769484 0.001934710436968978
0.377581635051572 0.23189690165307142 0.11316853757574358 -0.028044178128279976 0.99960487938938525 0.0018997826301243585
0.39355687414629126 0.23211835610272888 0.11399439703044621 -0.026143965326430912 0.99965337917711861 0.0031007381021481021
0.30555365972319393 0.19393638426614107 -0.0051892526249285543 0.046449522848343264 -0.14346619153551662 0.98856456223832723
0.30532489911577482 0.19211072977871629 -0.0035355448494130957 0.042115748154957666 0.039816113300174254 -0.99831905765592588
0.50340320093200819 0.23823464197740013 0.025889900624468873 -0.046286466271005987 0.99775923344353246 0.048312266747869988
0.37950073150472691 0.23198330869575118 0.11640292866098378 -0.035520027577755825 0.99936594997639738 0.0024547237417297096
0.30499038022540687 0.18213246994902393 -0.0037487646654882009 0.049325261688296922 -0.055136389213292197 0.99725974407067164
0.30472426576823997 0.17208589761318649 -0.0035950923754492011 0.014219237373670035 0.028156562205837538 -0.99950238683720016
0.30494529148106275 0.17087804594432704 -0.0033916902442108965 0.047999919555923656 -0.029734607529703697 0.99840465786056887
0.38986762758503379 0.2321957432109942 0.11802046061774644 -0.037562561191620082 0.99928629385063505 0.0039946112436588799
0.4129879581429225 0.11789004655891447 -0.0066243855031760859 0.038372355725080402 -0.82696685123191083 0.56093973765431049
0.30495494754126462 0.19023656696809116 -0.0035535262981614781 0.039188174958523052 0.04036572545131982 -0.99841619335435905
0.51943361336137561 0.17302896811147228 -0.0034845908382454623 -0.048168429158198023 -0.10620742208293693 0.99317661366291166
0.51753080022781328 0.17281802803110669 -0.0036906004557163601 -0.047925202778301784 -0.10800306439308416 0.99299471953297014
0.51559014831828476 0.17262239579115798 -0.0038817671437898029 -0.046934296846158741 -0.10856580512655076 0.9929806834660887
0.30764369847271394 0.11682942638058394 -0.0025811417140356912 0.0012212911897050045 -0.85517415090161686 0.51833934837857776
0.39025225273932596 0.23225440358070676 0.12016011402969422 -0.041179701526504853 0.99914107504647354 0.0046199931996950671
0.37921685437911196 0.23269631232689073 0.12002555116882754 0.029833666928508289 -0.9993383611136496 0.020803661319196413
0.55205327899519641 0.23938823440122728 0.022945698613562729 -0.036717446734274004 0.99549674097106844 0.087396040077896156
0.54799105859791875 0.23854522483725762 0.022645121225620572 0.020574201571530507 -0.99298172514241234 -0.11646456870178462
0.48901370919177278 0.23095675955029285 0.21374916353820878 0.023548177416323032 -0.99595533106397005 0.086709064495167937
0.30591157943995279 0.13955738163473688 -0.0021316616447257502 0.0036665729315307604 0.006777189775354072 -0.99997031253017032
0.48500531972820138 0.23145570900013587 0.21341417971230461 -0.063479075822278463 0.99742460583810466 0.033385065545105341
0.48287190446396044 0.2304214767674212 0.21363253073594599 0.024639486693508853 -0.99378001490586687 0.10860100215548374
0.53787754953112688 0.23854511401466308 0.022345795258487705 0.017672927028098327 -0.99382002735909059 -0.10958750325760662
0.53600685933757541 0.23853932134040409 0.022422068780882317 0.017157888560138054 -0.99397106896807674 -0.10829183216945171
0.53167920873228569 0.2385723235757668 0.022322950747315832 0.016367295648344351 -0.99451239790970991 -0.10333054745349311
0.52994838403445632 0.23859855741511871 0.022267179226036819 0.016043423198426079 -0.99476758552208366 -0.10089628024184075
0.52588614131867861 0.23866430222670182 0.022154255696096269 0.015811006906246327 -0.99545169242305209 -0.093946474722003057
0.52188273838980426 0.23870816056904384 0.022256675026595101 0.016115051498758699 -0.99617648029925321 -0.085864574847744901
0.51201576722193842 0.23879697371162925 0.022236029355352047 -0.036495798153570624 0.99824334455679486 0.046672066219505294
0.39668700256546907 0.15706429411293085 -0.002074356849488312 0.30664971012025238 0.01621159385398635 -0.95168436968770198
0.51018573535553635 0.2387859167569755 0.022087742211537777 -0.037882717258139652 0.99815257772747812 0.04750085587787746
0.39250456857621785 0.15661288508183233 -0.0032268339420322635 0.30093779283476696 0.0091610438147474039 -0.95359976935817425
0.39068881378286685 0.1563942257984744 -0.0036709998685628656 0.30357331291512502 0.0046823020009199951 -0.95279657835957188
0.50597580719646695 0.23866620679318237 0.022075180437241455 -0.041586378856665628 0.9979065196353174 0.049529296006684445
0.38653058993033124 0.15597827290412022 -0.0042789914636623752 -0.044919978792745084 -0.045687389791781045 0.99794531810078313
0.5017698487310035 0.23882017692216709 0.021506289153534041 0.021702774669228132 -0.99885840994969 -0.042554276452946974
0.50016068250376244 0.23868519378751199 0.021376198649883566 -0.045977450022911183 0.99749012625324529 0.053847210853260136
0.48873701314996776 0.23105300494569292 0.21608885927393481 0.024004348657384642 -0.9951407708065162 0.095491557344864836
0.49580469461344756 0.23875876638968124 0.021602847160388888 0.022446308032009608 -0.9992361494028329 -0.031988763376093111
0.48262731307761808 0.23144009172992031 0.21557966832926748 -0.060777698092961338 0.99765682788304133 0.031415365553633917
0.49199757372129294 0.23846852651124714 0.021727592495898507 -0.055811393739100976 0.9965862869276455 0.060834702569075569
0.48978286983618313 0.23880026901200446 0.021619445540377702 0.022300228788736259 -0.99966267583817892 -0.013312938519423438
0.39685358706885843 0.11772327575829168 -0.006392878146126226 0.028697039519905671 -0.91027129792009687 0.41301651795739969
0.30752353078912892 0.14959953008757801 -0.0025795950964131284 0.0001199358188052774 0.0065768010491075697 -0.99997836541765228
0.30647995328744676 0.14564021968526172 -0.002384122346504564 0.0018276136748835315 0.0063472679753240639 -0.99997818577082209
0.37585695854211931 0.23196990030026846 0.12263845527553141 -0.047926039596493469 0.99884741514549458 0.0026336259717801244
0.44037328783736768 0.23724738704415022 0.018694660212743394 0.032138640309645014 -0.99038463127477572 -0.13455627051079389
0.54623466798162068 0.23897878691697158 0.018477576715984736 0.020536648443757331 -0.99203512285617723 -0.12427614851783532
0.54199508270530539 0.2393331558972184 0.018692762621471338 -0.035833165759431289 0.99545678742232002 0.088214333339266121
0.53807562088691274 0.2391421364050334 0.018875732833353826 -0.035010133480941431 0.9961048538591365 0.080928429318226289
0.53588240661749154 0.23898375106671185 0.018266305945822202 0.017243016476348835 -0.99333232510146985 -0.1139893428847803
0.53221089929897381 0.23893389182160862 0.018904041294571856 0.016314797636928498 -0.99407138755829649 -0.10749838982975138
0.40211537043615547 0.15977029056461317 -0.00054977632508128283 0.3133923423655321 0.027748478457920705 -0.94921823712459064
0.51996074022351546 0.23910204607616709 0.018938387635539448 -0.029141223101935697 0.99841242228608529 0.048201910138033231
0.51627500347034572 0.23913346094275362 0.018090297100347354 0.017015892473659068 -0.99703517571658207 -0.075042106760999316
0.51203421975098684 0.23906878811454457 0.01892821479545808 0.018533326770705027 -0.99776653304390539 -0.064175239277741103
0.50972266202169736 0.23911381040426369 0.01824513012548494 0.019288481617051084 -0.99812395022037737 -0.058107955336409868
0.50613545282171091 0.23908753165459237 0.018065154147752463 0.020320961120462971 -0.99851323489391741 -0.050580414004090267
0.49155095556948886 0.23890901706246764 0.018528687957786154 0.02208601432719692 -0.99964792029423788 -0.014705217527938833
0.49026063319564539 0.23892435047992744 0.018510868562905746 0.022047502675044371 -0.99971944813422586 -0.0086563645944981032
0.48598390578187278 0.23870526298485539 0.018457064729393145 -0.059769447198999459 0.99602804779165588 0.065998039318366758
0.30631336484223876 0.17322231571802624 -0.0034877475172187889 0.04831570286405662 -0.033177086498212695 0.99828095934373218
0.308221378505039 0.11707245450684355 -0.0019085656403431117 0.037768968691878554 -0.077404286151966775 0.99628413692543361
0.30840525481428388 0.13075900764650722 -0.0014011319497489981 0.040120377428820228 -0.041321955671410546 0.99834004792678688
0.51620120010223192 0.23928043754427175 0.016268366696023519 0.016733452383186267 -0.99689165015148784 -0.07698720302480809
0.50904211369348074 0.23942823682259493 0.015979947698146767 -0.029408932733396242 0.99870958184273351 0.041403934728415345
0.48883210226521073 0.23136194046373754 0.22007019825323662 0.023969355682290805 -0.9944056008707598 0.10287356776664729
0.50656752275815498 0.23917774717513715 0.01657476846325141 0.020069502084695615 -0.998437308930057 -0.052155107348927768
0.30843279094271259 0.11496188504314919 -0.0020851618632009238 0.037590121406105986 -0.07948061645249184 0.99612740870884886
0.51911961713398125 0.17684239263337209 -0.0047026330843118998 0.060710924043829891 0.019166328729856057 -0.99797136008242415
0.30846578329070257 0.1375086748829378 -0.0017884308954759173 0.041874568078136602 -0.014321267713319385 0.99902023094597681
0.51545493790958918 0.17626004511671989 -0.0051460354199533058 0.060089312169852721 0.017020247336563415 -0.99804788750017204
0.51415268610602238 0.17515712727103733 -0.0052567180800702842 0.056908813750838214 0.015274149736697527 -0.99826253424001299
0.30869070545899796 0.15376527247140193 -0.002716179554062417 0.044016308094926779 5.0692937602518013e-05 0.99903081136265193
0.43610750349064958 0.23755871443280552 0.014858235663692564 0.031627699158793834 -0.98943736165821017 -0.1414687103240885
0.43223007792180057 0.23832003587380729 0.01497099504204057 -0.038820708204083239 0.99921588369979186 -0.0077826972559224611
0.42972222394276494 0.23731854466397512 0.013961726526097984 0.032738653801467885 -0.9885358382533822 -0.1473942910561688
0.30852326420678283 0.18192243559525409 -0.0038166313875710482 0.049132950570596426 -0.051979846385082226 0.99743874435376256
0.3093958020706607 0.20541662611856518 -0.0049657431580688235 0.039007035883391848 -0.22278190728347144 0.97408761050468684
0.43180365031799084 0.23836335789991414 0.012134676026612688 -0.036411778724007311 0.99918622928142531 -0.017351126318511094
0.42734231572450876 0.2371956433826663 0.011111092973438841 -0.75632172130292497 -0.44526608824274855 -0.47928651613245027
0.42464922259914206 0.23604795898423134 0.0015327420246062217 0.141065756193333 -0.099524172042504494 0.98498497024515919
0.4225223946526574 0.23827570968078077 0.00013431726811938545 -0.22549052113155368 0.03504567857160814 -0.97361482388739129
0.39626412832001456 0.16104612504771598 -0.0026227663310883055 -0.058907211151127112 -0.072531026098162574 0.99562502516135276
0.46900462198306581 0.23121925652750999 0.22272711024282058 -0.054433017731779887 0.99770571682441722 0.040253561289500014
0.31161280993595386 0.13385215715544016 -0.002088348833099038 0.0021009625226522917 0.0053544326632379647 -0.9999834578668455
0.39994117106293225 0.23640605793918337 0.011721935536568992 0.005501521041080407 -0.98601012432656621 -0.16659462173714978
0.39596004173815058 0.2361469541103807 0.011945575092679461 0.0052061558877126938 -0.98425603077630364 -0.1766719044481854
0.39221274158361441 0.16046289634278577 -0.002942996887338672 0.35592815184353777 0.0031603750588921281 -0.93450797896793303
