0.38548768601301636 0.21345584811082771 -0.0064879400093522457 0.28110601935203533 0.015124817313781491 -0.95955752604274736
0.37037727467546155 0.21312830458445003 -0.0057063304635945507 -0.71521090549598343 0.38952096672352943 -0.58029886881018711
0.310850567672453 0.2167418788007518 -0.0032571619772314253 0.011181883138013611 -0.23704768847380353 0.97143366159440581
0.39590177399580023 0.19875802397662612 -0.0027554140922432524 0.44028759607949314 -0.012682806305067334 -0.8977672188060607
0.30879505518529382 0.21796140026544839 -0.003053932944280093 0.011647471196728005 -0.2441294084205492 0.96967271198015781
0.38787844349611067 0.19762784702503305 -0.0060023977936272703 0.40046230136860006 -0.010067480123022875 -0.91625792822028951
0.38633953430476881 0.1976351039977475 -0.006526982949632794 0.3881034798605521 -0.0092656794509535009 -0.92156922480323866
0.38454131890600468 0.19784117302666351 -0.0071334346354437646 0.37641918705662464 -0.0083482732673928334 -0.92641184251340547
0.38331296266961951 0.19951498145642432 -0.0073626948137078176 0.35219000530214245 -0.0057149771092895943 -0.93591107440927168
0.31711870154749822 0.18952703959629158 -0.0051101079454116006 0.019962166206805937 -0.085575494830244708 0.9961316913967202
0.31516547181348137 0.18919451908892201 -0.0028860791002481845 -0.055734305028085976 0.0034117503625234933 -0.99843980649937036
0.31143767558358193 0.18875220473187357 -0.0027346458620884887 -0.052414990710201941 0.0036731112964279778 -0.99861863441568799
0.30942618943713707 0.18911946226867243 -0.002660762015346577 -0.051107978323723637 0.0039790458352617596 -0.99868520653201953
0.30293433490164429 0.18840572557328625 -0.0045564373916094367 0.022982582142133282 -0.056989280373224788 0.99811022579704201
0.43444325678932644 0.20626575667244515 -0.0052525721446990562 -0.19741749910163139 0.057937556760543948 -0.97860593221432912
0.42990749540674694 0.20562277915294178 -0.0043096695549361052 0.032416642340409481 -0.066335219129219913 0.99727067539482595
0.42636847899220714 0.20500542632835628 -0.0041330962679615117 0.034989929316593074 -0.061656296365859814 0.99748393769767796
0.29877356846180436 0.21687504725985324 -0.0027336254078347906 -0.01279183508856304 0.10774422959498368 -0.99409634842104233
0.39576461582355849 0.20079825021007103 -0.0030041142797442733 0.43248238498197866 -0.012562373084192457 -0.90155486436644172
0.39374094967789935 0.20044365679221776 -0.0038360632145112085 0.42764609824003041 -0.012316499179221603 -0.90386233382526038
0.39110049987320655 0.20031869983283676 -0.0035443460329562292 -0.040943047352740999 -0.016600605095955529 0.99902356668094638
0.38951520969538117 0.19989020896889947 -0.0054678793833964519 0.40208358351809159 -0.01066001613461528 -0.91554090892830098
0.38640613425201581 0.19997712421557343 -0.0040114049940841367 -0.037478645076435474 -0.031789478976242229 0.99879166005211195
0.5582213729134331 0.22654249904676385 -0.0014431346511387347 -0.14195163842672703 0.034149408308050334 -0.9892843626885941
0.38334721874449096 0.20030961514517343 -0.0073255713370781747 0.34809181393087146 -0.0055333126978979533 -0.9374441164810321
0.37923671533532494 0.20199360149067894 -0.0079952135427173443 0.28750623488937282 0.0038716388397590997 -0.95777094094174275
0.40824435851126467 0.21630947167926398 0.048092431619659669 -0.99929389386104961 -0.036462975345956591 -0.0090644978317286108
0.4095485496716208 0.14817626984775803 0.043872274004279441 0.98953979586026064 0.048376851060945435 -0.13590685299226363
0.33068555202403072 0.19342156544378905 -0.0056516083417560668 0.02662876983190901 -0.16185866067639473 0.9864546023924684
0.31680947437478713 0.19133633824839411 -0.0029961598068524867 -0.056689687277092997 0.0069637020556738228 -0.99836756067597932
0.31496105122213047 0.19111569856917826 -0.0029459785257045798 -0.053947201777291447 0.0065545470305816457 -0.99852227683393435
0.31117842721861938 0.19065888257904992 -0.0049508868988180658 0.020244540553731892 -0.079422492123514002 0.99663545307331836
0.30730442671689845 0.1901597571104657 -0.0026408132896231212 -0.048440038734708264 0.0050005545534920048 -0.99881357474832988
0.5638524406443679 0.22544438930583341 -0.0016205287574487899 0.025865438918020938 -0.23983052927527951 0.97047014188851644
0.29465632929003938 0.2187734151274624 -0.0024600941140761239 -0.0096622346254082881 0.13098806997566431 -0.99133685836152297
0.43835959999402552 0.20869830896180933 -0.0044433045792698486 0.026259036607265994 -0.076460658113976676 0.99672675832308011
0.43431146873878801 0.20857275478073695 -0.0051963468970406624 -0.19374712332800093 0.061606196339674839 -0.97911527859322145
0.43234733164065625 0.20853298454496375 -0.0052476464455701588 -0.21860570583076119 0.063031541294847421 -0.97377542081335711
0.42705956114323557 0.207486890952609 -0.0044421844500177644 -0.25323697961774816 0.062251414677194153 -0.96539929227484322
0.42606163733391167 0.20745114640478327 -0.0042771325865401718 0.038987429148283834 -0.073676486532339963 0.99651982203098077
0.29243776771828606 0.21888557379489371 -0.0024185746025675607 -0.010229573854132399 0.13407258131429897 -0.99091871450613123
0.28981162981771968 0.21834270798533967 -0.0024474354136299432 -0.011053391857478204 0.1292229321480243 -0.99155396037508325
0.39737797143727621 0.20367595096672894 -0.0024271569514772006 0.44417574686473055 -0.013964483367101732 -0.895830842905874
0.3955188077623617 0.20354658676396439 -0.003266096965973703 0.42741948833490256 -0.012273661853540894 -0.90397009807638828
0.39349036718501629 0.20348490343774772 -0.0041552447990237645 0.41758772548722123 -0.011360096141840897 -0.9085655946259783
0.39052695477446986 0.2034042626823212 -0.003822291528928946 -0.034328579455740429 -0.030977218541123813 0.99893040826876733
0.38826323485818387 0.20327215098815671 -0.0040682205734850494 -0.033140497900824718 -0.04188359067689925 0.9985727175478486
0.38650028500971068 0.20281322629325277 -0.0064971751768321175 0.36507540606128258 -0.0070254935508061956 -0.93095144359389514
0.3840871630264695 0.2028186960477453 -0.0043504995781923133 -0.030304300751595407 -0.051955345131994284 0.99818950679125662
0.38291869691434477 0.20301532943788961 -0.0072834465744954901 0.32012922745655747 -0.0010867623040151299 -0.94737326153726875
0.42911573448408974 0.23547326726935516 -0.0027695205004806584 -0.21197918345405092 0.11588268848444755 -0.97037932185912246
0.42672581787492464 0.23521190283601831 -0.0023240620908041806 -0.23329672397851559 0.11558391834596109 -0.96551177952456202
0.37990024407213618 0.20882617035350901 -0.008781579627751673 -0.017052308429833057 -0.44361824354404661 0.89605361043416853
0.39526325494148817 0.15882800727510785 -0.0037063265578442871 0.45139720968156155 0.025890952561554721 -0.89194742987866493
0.33608860275477709 0.1988222286577849 -0.0055825483276299975 0.034426861051930734 -0.25565919185675778 0.96615380186451705
0.3343613364778168 0.19597723301390715 -0.0035944420308630549 -0.067115550854576406 0.018691238437826219 -0.99757011805644369
0.33051222289323534 0.19527644877550421 -0.0055070912078488184 0.02603880568316784 -0.1785482675005034 0.98358654767700171
0.3292599752138658 0.1956425868836966 -0.0054250197068457778 0.024895406650488443 -0.17669410342362266 0.98395091978361859
0.30894686318781595 0.19236660034652009 -0.0050056984601085002 0.019146820449570695 -0.086159345689874989 0.99609736793998427
0.30699701404464541 0.19205624987007636 -0.0027621223161904346 -0.046499556300863859 0.0088248377495883414 -0.99887932879928809
0.30314707848711048 0.19167517906504961 -0.0047245400377603055 0.021461323733850766 -0.070318351767981499 0.99729370848723653
0.39695844806365982 0.15904503249213922 -0.0028374961419676903 0.46784318479983106 0.026542281837142349 -0.88341284896204042
0.39865613509322761 0.15927728707793312 -0.001897391194833801 0.48188315733382048 0.026539199277564124 -0.87583348507561309
0.42281196847576241 0.2354658290379526 -3.0309564508453231e-05 0.12953850580265872 -0.39379647409335389 0.91002423731791715
0.38896858175749727 0.21501882077293133 -0.0061576728332721539 0.34996541385538549 0.0046882504484119011 -0.93675088973150267
0.4377428945366228 0.21063762372349967 -0.0047106250265830834 0.030472951192323634 -0.092919627781983052 0.99520718547370224
0.41684185137676932 0.23562794918722368 0.0013289860716576155 0.1734833078267447 -0.46616065393125727 0.86752394009149603
0.43416755644126354 0.21009432222973587 -0.0045658624014679374 0.033231782899692808 -0.085652716875265822 0.99577068680353964
0.43213154959407896 0.21000433749333364 -0.0051824392260564059 -0.21984811236454907 0.064950969785009235 -0.97336949767995673
0.32394952016338774 0.2172412019468718 -0.0022451888035759028 0.012110872062387874 -0.25187298150688203 0.96768451882042761
0.42196527304375481 0.2383207577434697 0.0023279312972689665 0.33725198289205022 -0.85383139335931435 0.39652623084667671
0.42023839010120401 0.2374434713802171 0.0014588676751259512 0.14298622896016441 -0.42282036483836855 0.89486193203516051
0.3179948360606204 0.21784371168159583 -0.0025900784849176247 0.010378710736073363 -0.24470614349788364 0.96954174004931326
0.39524701074140817 0.20546064092532332 -0.0035298101251245006 0.42683930648422691 -0.012067572644414914 -0.90424696854926534
0.41473033200953291 0.23634915194195277 0.003738023966978499 0.30704581228392924 -0.92070427921002784 0.24088690168468091
0.39284155850656943 0.20553933498605434 -0.0040400235776168088 -0.037137129579950939 -0.051597662464189079 0.99797721158090258
0.41114602116132021 0.23540147100091247 0.0027830672962390443 0.14006774783560372 -0.46164696427267499 0.87593556064021361
0.39017787984315155 0.20537044209523644 -0.0041402245715691597 -0.033064689422556866 -0.054350696069392579 0.99797431236989376
0.42173467086672639 0.23821196150441726 0.0054435360500007229 -0.3205871628569667 0.94437192097009881 -0.073386278653207473
0.42008098649737441 0.2376715311475289 0.0055984124456936188 -0.32539310741845101 0.94262641790339718 -0.074664328264402599
0.41845484628942942 0.23646148887995622 0.0055951959802783202 0.041718025543693776 -0.9808047305039066 -0.19047752351890465
0.38830926789188375 0.20544984199404001 -0.0060323760403709781 0.36496982750690066 -0.0068171173605529557 -0.93099438876959706
0.41482897164148386 0.23601667892577968 0.0060928311891510776 -0.32826477116588149 0.94188012482159733 -0.071442777643815653
0.41321917651287809 0.23539104246983297 0.0065266700355252989 -0.34940512512775096 0.93374435944967693 -0.077701542651180025
0.38510485656256616 0.20550254833086848 -0.0066356605842643589 0.31583561334915833 0.00055268177189871494 -0.94881376459409561
0.38312799942567483 0.20606215952379847 -0.0058402993335220661 -0.022653465864528363 -0.17601824481745029 0.98412621038955617
0.40955925137351429 0.15816516703104391 0.044055903235044172 0.99226493778363056 0.041880987293265448 -0.11686007080516868
0.41839016746210317 0.23615638399666275 0.0082034094282795039 0.045630320628000695 -0.98427984393960533 -0.17061964322319992
0.41636970665235867 0.23602582052529048 0.0085920420542878236 0.044152685447571269 -0.98511896092138063 -0.16610590959067978
0.4147283643069874 0.2361484328560477 0.0085832841884526216 -0.32944808617611149 0.94193889398065034 -0.064923636076598443
0.41300896327033398 0.23551716965866967 0.0088959637643111766 -0.3446114205252323 0.93607905031177963 -0.070703468167963121
0.40019689471367687 0.15955906023472302 -0.0010122857258385361 0.49925332566281233 0.027502596470914867 -0.86601947091389342
0.4080580632929019 0.23270269624539883 0.0097391715982389077 -0.99602191976665566 -0.070172966837386622 0.054918940900065764
0.3322066723320094 0.19719154923900889 -0.003428326977546596 -0.06457034715465923 0.020493532138131779 -0.99770270391977489
0.41633658119264028 0.2367945655577447 0.010980904876490097 -0.34104336734412277 0.93804859398530405 -0.061271991258452646
0.41431004943369293 0.23571098928775849 0.010955562250013323 0.045341360697211897 -0.98787751256534273 -0.14846609437119526
0.4128172785771731 0.23556179203394301 0.011465550361852836 -0.35047833490490732 0.93466388230849096 -0.059735783834339772
0.4112994516588675 0.2349394936159267 0.011374914130753493 -0.36101046207866522 0.93051733577262796 -0.061716562577309605
0.40918526809208072 0.23285874884421598 0.011068209045619941 0.99766623718647229 0.035235162310249063 -0.058485575274214836
0.33037633195590715 0.19680675368749365 -0.0033814479840847209 -0.064145927663728938 0.017780934555012916 -0.99778210964644487
0.32916306432109804 0.19685243400347394 -0.0052855054911639153 0.024375411743396056 -0.18421127973338008 0.98258436977255559
0.31449764413913422 0.19477988778356994 -0.0050183405730838369 0.017398403137859828 -0.10326560310602775 0.99450163940709557
0.31254386613592966 0.19454530147743054 -0.0049897185356311564 0.017856969715966613 -0.098818295695913022 0.99494526134271233
0.30864429052892989 0.19418584301866201 -0.0049791050628948787 0.018455622762251933 -0.092042486335089505 0.99558403497530656
0.30668201492688535 0.1939662978571155 -0.0028321248473543617 -0.044775728468935398 0.011918438809501877 -0.998925965703375
0.42375557279965859 0.1627069439396483 -0.002260681714539481 0.014221850755805435 -0.067354971051697479 0.99762770953683144
0.41403771787600863 0.23612667034488807 0.014807738334192347 -0.34477833159771015 0.93741290975846558 -0.048835833963046645
0.41285868699694611 0.23568532779337739 0.015384185775941655 -0.34991936445871291 0.93559513227516478 -0.047097630936463818
0.41140103505772113 0.23510553724824915 0.015542441342978228 -0.3586235056124471 0.93235327459154427 -0.045897195782133783
0.56411699515352787 0.22957833119315982 -0.0024224276676690819 -0.15777060344825761 0.035515301196798771 -0.98683691665263185
0.27808590453508852 0.21953580827100641 -0.0021339559497073842 -0.0082733751178112411 0.13687538401155325 -0.99055372419462928
0.41239788233824431 0.23477838908842538 0.016693656256352021 0.03497407837913994 -0.9892481778396951 -0.14200301575097871
0.41122482723891102 0.23468507032367439 0.017253016998590671 0.039532015905607031 -0.99058246235743841 -0.13108625018785469
0.40976768932636459 0.23457132312556445 0.017657308625219695 -0.35011207777823722 0.93594487001948656 -0.037798588307130912
0.43356505109351362 0.21195929083618209 -0.0052688906104669348 -0.20076796596658558 0.069947904010244116 -0.97713843162891389
0.41090709915037188 0.23496361126628323 0.01942188048728298 -0.34887709486542695 0.93661911600926784 -0.032084329575007189
0.40965677438391079 0.23452972198608871 0.019506241086016462 -0.34347247970840555 0.93870637701109427 -0.029274450322152847
0.42947704819926547 0.21166587608898552 -0.0048602009586634388 -0.23954056223493125 0.069204390370601623 -0.96841678599537218
0.42539351606850684 0.21099199385456846 -0.0041325619776282239 -0.27226014111587205 0.069291558570708359 -0.95972553132153759
0.42555093231684782 0.16294420982714308 -0.0022665738093736697 0.01561148857045927 -0.06721733926532332 0.99761621414585333
0.40937574540281552 0.23432324352615605 0.022936098683279345 -0.34037203363517315 0.94012777571812045 -0.017511254733910041
0.42710043803021241 0.1632508106886727 -0.004414431315314056 -0.23724009668171844 0.035839931601925348 -0.97078969701435247
0.39702208466092087 0.20733109448007753 -0.0028655238316944915 0.43868424261171474 -0.012827303212066661 -0.89854971792132465
0.39501560633222377 0.20718014280858818 -0.0037683524644013798 0.42447979966638222 -0.011203955314390866 -0.90536808595206242
0.38961472183629714 0.20734975976274675 -0.0043821807351348621 -0.031239550634813085 -0.079607453049794025 0.99633666192460257
0.38766254098113351 0.207385783814516 -0.0060885464698635086 0.33303203778725077 9.9110458122659564e-05 -0.94291550628059362
0.37961952759528772 0.20651689725564479 -0.0053707612500510302 -0.020201454678966026 -0.14219940943502182 0.98963186548594151
0.37795586788767915 0.20927539867286418 -0.0083235641722920854 -0.01445737788366443 -0.42913684681486286 0.90312377387073905
0.40859210699230786 0.23241150279006287 0.025178382361800099 -0.057293387421552863 -0.56436947325492848 -0.82353176345282419
0.37489655022905871 0.21151128515008824 -0.0076808372543500569 -0.01147303511756812 -0.46227138411483359 0.88666427518748436
0.40854683271188974 0.21605527776956918 0.050161204487153895 0.99873042072767326 0.040903705548076923 0.02940125142848812
0.4084445096579587 0.21773322368013431 0.050238329865985837 0.99871915484050044 0.04164442841522243 0.028736585333784787
0.42982088222619064 0.1635121978459903 -0.0045829861627628334 -0.20142776943078292 0.036751614678901576 -0.978813655667223
0.33993370238091491 0.20510207230661587 -0.0046447293493203073 0.039961115646672721 -0.3423994159563758 0.93870429272961453
0.33880958172449943 0.20409457438196499 -0.0048147855480273147 0.039303418544521566 -0.33000805936202343 0.94315954220207376
0.48546656870604327 0.20587590530706887 -0.0075674688288713335 -0.014769276021717055 -0.79974898080353007 0.60015284402351143
0.40971336865696495 0.14973854021236793 0.045409106564015957 0.98973352201979725 0.047856971296689935 -0.13467466609795364
0.32870988041156934 0.19879835904726717 -0.0049908512062763425 0.023789998279160611 -0.18972626296719225 0.98154876655333911
0.40779818346697994 0.23358867002875869 0.027414199165644689 -0.33679722211030966 0.94154535905773395 -0.0077439018344448232
0.31612496788568917 0.19780250092151572 -0.0048613239214243863 0.016384615141455953 -0.11709121673824548 0.99298599755959471
0.31433351232303475 0.19668794276101875 -0.0049296832438504067 0.016762414627189672 -0.1097347674997888 0.99381955216107187
0.31231407591632343 0.19640412710322241 -0.0049131039104194779 0.017316380264104102 -0.10435341186926356 0.99438951543436582
0.3064019645233953 0.19587173727963192 -0.0029607885417304793 -0.041991348684454019 0.017429876522388383 -0.99896592836796738
0.3006721367641772 0.1953045291163745 -0.00518951974753778 0.019585342005188328 -0.099471189023588147 0.99484767524117657
0.41150060110995151 0.1620491341961387 0.046419189983684016 0.044711965384826108 0.023653706555668799 -0.99871985176905553
0.29926841474860238 0.19571347346761403 -0.0052031890910605059 0.019858289913086385 -0.10148602917347369 0.99463874557767396
0.47997396668338344 0.20585953029073945 -0.0076661552536922009 -0.014204065832273922 -0.7967251164522966 0.60417491947937296
0.43548541682101138 0.21406405161228317 -0.0051760247231604824 0.040354850030091503 -0.13560181051115119 0.9899412280863682
0.43329721935633292 0.21431343186355764 -0.0052608363926463951 -0.20538442233051907 0.073641642693366885 -0.97590683342488249
0.43141221096460347 0.21397688195666489 -0.0049879419451537635 0.046029087137438876 -0.12948975115878464 0.99051185125778785
0.4292465713522689 0.21401259755612326 -0.0049438380134420364 0.050147978852460771 -0.13118399439088907 0.99008885451390904
0.42691681700371015 0.21354831121904141 -0.0048628873253811194 0.05229647952982467 -0.12887768223891588 0.99028057703335359
0.36088396512675058 0.23486128590191813 0.029244041984006455 -0.0068604504288004549 0.99896320555507245 0.045004979358377217
0.3873111584147001 0.20905524677201981 -0.0061485436095415572 0.31915609515080123 0.0033435989534943366 -0.94769626319519218
0.38504860750181347 0.2088958006966504 -0.0065822377428467159 0.29699518328701408 0.0056242639965419453 -0.95486241352291701
0.38348974002138519 0.20845763653281321 -0.0069022551980783726 0.28741287218516948 0.0063074934658777461 -0.95778601807942965
0.38013398950120841 0.20779291918733292 -0.0073918518705328286 0.25463924890245504 0.013030657144450857 -0.96694832069391246
0.43966907110336012 0.16448757285492421 -0.0021850549979824602 0.011780727800704922 -0.061891910700027045 0.9980133294913377
0.44157941715419441 0.16473351483031459 -0.0021706736922747476 0.011096838732864649 -0.06016129878230763 0.99812698505699293
0.47220443312096816 0.20617075141265237 -0.0072992257567013503 -0.013015921980306783 -0.79236548144297891 0.6099078041742364
0.31964840849933607 0.19930792425919541 -0.0047528462359692101 0.016858065396546169 -0.14050790854427109 0.98993602483574683
0.31843832387976467 0.19919815304728541 -0.0047645052937493456 0.016429886060102199 -0.13314247991264541 0.99096071510769934
0.37261070383497219 0.23491365224819286 0.030770252388799827 -0.033488113191798792 -0.99554423727839025 -0.088148839451472713
0.31425138141832132 0.19875469432047188 -0.003208729173662593 -0.043407811825618342 0.024526660036111671 -0.99875632905127809
0.36872739060789622 0.23495057611192594 0.030918082342367606 -0.024547197551704696 -0.99652359440217719 -0.079612567425767514
0.36679069747887033 0.23496499860152303 0.030991578076109749 -0.018977389547974319 -0.99719981995206386 -0.072335176598359807
0.30785163777450236 0.19793809291296555 -0.0031005340725326729 -0.040612586533466298 0.02317724579250344 -0.99890611825763476
0.3059865060821027 0.19762692358881753 -0.0051166345121913077 0.017285672760019917 -0.11083511118335879 0.99368847414378625
0.36089292068540907 0.23489919441926221 0.031163464852594226 -0.0079548731750630555 -0.99810734099195708 -0.060979142751714226
0.35898078122411087 0.23472253004179125 0.031246767396321356 -0.0063389806818069357 0.99908002423829578 0.042413706415756904
0.44539339850438336 0.16528397969057532 -0.0020940466415259274 0.010181312861920174 -0.059302964807218153 0.99818810814068581
0.40819938100512648 0.23252836383712372 0.030821475147468524 -0.0058833998604872059 -0.99663312519649394 -0.081778966532667488
0.30224231600619561 0.19717615270439645 -0.0051646324512047582 0.018050528801614354 -0.10866951570149694 0.99391403791635025
0.30045059951779846 0.19690808668601348 -0.0029860646232287131 -0.037687260854491964 0.021982918973757391 -0.99904775743839125
0.29908054956257901 0.19683065991663704 -0.0051714475961689502 0.019728757829045807 -0.10504800298075512 0.99427143838303944
0.44785724771349933 0.16571215771012832 -0.0037047520786405541 -0.073116829391303234 0.033872739805455021 -0.99674799561264982
0.37850527078989421 0.23463480302048295 0.032480079166583804 -0.047308260184458308 -0.99450911466290404 -0.093346394524514958
0.38774484261580072 0.21421879187951381 -0.003408946974148102 0.81034933577954904 0.35860726000240428 0.46339485007411529
0.37458304366364265 0.2349618322552692 0.032617326743115044 0.011190793715757279 0.99819463605334147 0.059010462549860115
0.37262681462366443 0.23481106890027378 0.032683440521503022 -0.034895596636037501 -0.99584223567914354 -0.08414593854120328
0.41099705937398795 0.15427657665890446 0.046158197956431758 0.060786101876004243 0.023604931120716009 -0.99787166361486901
0.43474957126601954 0.21620299755272623 -0.0052262098616029434 -0.18699023607704374 0.076870826177657114 -0.9793495431635304
0.43081827579952048 0.21604861469483533 -0.0050820355234485531 0.052362565153280319 -0.15362506144721416 0.98674084858482891
0.42873906555523261 0.21601924437001552 -0.0050534753993453831 0.056354149407193146 -0.15657067440618211 0.98605772334107555
0.35829000923848708 0.21427550875002527 -0.0034121292199892177 -0.016662526428942701 0.078867509383950749 -0.99674584332044103
0.39641189039764158 0.21079277619225625 -0.0033541223584593626 0.43082524304164388 -0.010311717071850761 -0.90237646159966889
0.35902693935673807 0.23463897326700925 0.033182685222230016 -0.0049681644634679565 0.99911336514974614 0.041806709043092014
0.39420515427523173 0.21030518575938617 -0.0043003045786655647 0.41750665118212521 -0.0092338471696227047 -0.90862694890980167
0.39119378235688007 0.21025287983559696 -0.0042299871422245647 -0.031081946636298978 -0.088116110810503773 0.99562516220158348
0.38909221772173119 0.21040641991732323 -0.005917755142083733 0.34425028549855885 0.0022684452470697744 -0.93887517545748411
0.3849048806501838 0.20984537186301228 -0.0044374512072879258 -0.023792187904896244 -0.09763638914205755 0.99493772031720595
0.38310848691727695 0.2098093974407883 -0.0046415095496234486 -0.021445653675047228 -0.11648763014651181 0.9929605812726402
0.38054165043083282 0.2347598920041235 0.034377876122975583 0.021946100461447061 0.99776135304560731 0.063171599972890541
0.41054869718515147 0.13018783134741871 0.045582369182061488 0.98844241404200495 0.054960082309339679 -0.14128334464955261
0.37229474447926614 0.21198729248524104 -0.0073513348126152548 -0.0059287367085877653 -0.47211618152349705 0.88151639872705301
0.37300778841033061 0.20924000055915742 -0.0078403568979004551 0.18838618312039679 0.027066259353393296 -0.9817219889632417
0.37025174742340838 0.21315252202446472 -0.0066118797807033945 -0.0016141766720653879 -0.47345648313268102 0.88081573158822768
0.36835904642372969 0.21030496334639551 -0.0071038887896591523 0.1211821124042867 0.044698395783124213 -0.99162339073241412
0.36383444988066704 0.21215232096158743 -0.0064782746045105779 0.011929411907595311 -0.47113306380439013 0.88198147674530414
0.36121823679468401 0.21182399498755211 -0.0063367980183334253 0.017172216954982052 -0.47008467149967176 0.88245425750341122
0.34421591267299945 0.20788605622179476 -0.0042992515096415577 0.041665940930571688 -0.38104373746192977 0.92361768037831227
0.34116309852113952 0.20703067212087128 -0.0041507451398853428 0.039281687550529368 -0.34618237902416571 0.93734449882439252
0.41114905275959923 0.1560536076753804 0.046219152132291025 0.057789770764852387 0.023641441709426468 -0.99804880874075774
0.33897791183596399 0.20615496361883343 -0.0040931160952161188 0.037578531187984723 -0.32082807898266524 0.94639167247500988
0.33368615203063162 0.20415708728926132 -0.004203496487335672 0.029331508928465599 -0.25338270020387865 0.96692133590141172
0.33180662208617745 0.20374319490409523 -0.0042466293160377264 0.028136250312674266 -0.24432730626373678 0.96928453966430761
0.3280075724117742 0.20302191402667133 -0.0043112924907186094 0.023093959207644624 -0.20803565064331528 0.9778485757567621
0.35601145025364644 0.21356026728307689 -0.0031357343228735203 -0.023143752079665715 0.077769107197793272 -0.99670273035912427
0.38260173666050035 0.23421618642534714 0.036272372218578298 -0.055189166112729129 -0.99478094546416151 -0.085819732493235712
0.35268111018518433 0.215263999048529 -0.0030006317091770675 0.033411511865335683 -0.43058068301731489 0.90193344892359728
0.33822374787327458 0.21602618205606866 -0.0010690087660547424 0.033829578306165883 -0.3396914305825936 0.9399283438754138
0.33620796113081941 0.21611691163584978 -0.0010820809166914047 -0.025908939838297538 0.090243789687327533 -0.99558263607765118
0.30581293603433402 0.19936920783111231 -0.0031949161745160079 -0.036810439927954047 0.029874379177368959 -0.99887562438027155
0.3041471624254265 0.19893379795184826 -0.003134290228817083 -0.037286692444485015 0.02621760916406175 -0.99896062962274479
0.30217093859962252 0.19881344123144803 -0.0051003307832825882 0.017821038582041617 -0.11363749415459695 0.99336243662931079
0.44974752427599329 0.16597524902820013 -0.0036188106557342612 -0.068035704272614655 0.033427428008808956 -0.99712273567542586
0.43384323633725674 0.21827516420845774 -0.0050816177294301249 -0.19439133544287593 0.080638585158486223 -0.97760392147759556
0.43229290374684387 0.21820125889027511 -0.0049998013956604609 -0.21289471856991712 0.081346528171001048 -0.97368299829028571
0.33472989439816359 0.21649813254902295 -0.0010839897987571726 -0.024246810721152989 0.091586348832668432 -0.99550189998681238
0.33021925841720512 0.21639063974173206 -0.0013824817063805798 -0.019266922042449515 0.092323839676821076 -0.99554261302183289
0.39028604069033118 0.21158063594780566 -0.0057169933138561044 0.36834826403950993 -0.00091138685899172728 -0.929687434438625
0.3829088668248472 0.21140462466504994 -0.0045168069403670819 -0.021151774417958704 -0.12165515228609572 0.99234702919957318
0.38162573101380276 0.21126561961650875 -0.0045759951340086135 -0.020939849558906758 -0.12412798681935064 0.99204524372058023
0.37156128293001911 0.20999683239258157 -0.0073743523857080235 0.15366382745896079 0.036210485378220539 -0.9874594821456405
0.37032883835298425 0.21073037351932272 -0.0070860340242354632 0.13216748314215845 0.041835764927571649 -0.99034414481673594
0.38263096934147667 0.23410183468554902 0.038151697343270903 -0.056337737443083957 -0.99511649150183201 -0.081050772241098981
0.36672301021699732 0.21104702047127255 -0.0065293225925013715 0.091239601282378902 0.05335839088056419 -0.99439841978980914
0.35895440106840332 0.21189707173589953 -0.0057832430691847451 0.023203880118505441 -0.46436275423781748 0.88534107123984396
0.34491696709447384 0.2088041337639632 -0.0040507495054255098 0.041418248522070454 -0.38491074355325516 0.92202399545057623
0.33733989665361191 0.20698317625666865 -0.0037371487027552178 0.035205420225800664 -0.31015192459810892 0.95003492675522916
0.3335119250770841 0.20600442597273044 -0.0037564475051214091 0.029367925156321091 -0.26362488060036393 0.96417812011083126
0.33156987270769156 0.20571977417377665 -0.0037815746225553898 0.027973562707097586 -0.25294877308849378 0.96707517700667811
0.32786133357635949 0.20526099966218517 -0.0039199923398107531 0.022533861371589265 -0.22001033771069503 0.97523724108142629
0.4085114326923765 0.22452745056699422 0.04339693954517447 0.99910533826739534 0.035603846606621949 0.022822996131214652
0.32815043251815584 0.21694913270291613 -0.0015072580347006918 -0.015381137686096337 0.096194729752836994 -0.99524368602431224
0.31364906893859562 0.20308276079559026 -0.0047036277809603556 0.013924623166879743 -0.14300541647585752 0.98962394662226472
0.30213785431818413 0.20065894356455682 -0.0032199360170188716 -0.034146572743748237 0.033109608556764675 -0.99886824225774329
0.47601015813252129 0.20629700765070852 -0.0052478792356946118 -0.09739363575841406 0.86731839049184456 -0.48813245049719201
0.45174732031481146 0.22175389410143659 -0.0036293276311255107 -0.041444750492041077 0.06025321094119062 -0.99732235672721625
0.44864721939167124 0.22268942233622441 -0.0039980626854985383 -0.058562985735846437 0.067693667757901865 -0.99598591558675453
0.40883764908892017 0.21298948358956996 0.046370642403852469 0.99896337012045056 0.039848484153937457 0.022006441516636336
0.4299688096872411 0.2201362468406356 -0.0046075546300287521 -0.23463645423034735 0.08581446777695266 -0.96828797961472624
0.4725713147284194 0.20762870855804194 -0.0054119432121976516 -0.012569197918273298 -0.78630170671012722 0.61771485435306828
0.38608413004069514 0.2128046951235891 -0.0042934775232646438 -0.023645297401615275 -0.11474024209162245 0.99311408043363525
0.35883919709581014 0.21266427503211865 -0.0054296680931028955 0.022437238849834673 -0.46058693857559879 0.88733096549503621
0.34803956973208877 0.21097125412277815 -0.0038170434171359933 0.039071445720608798 -0.40449783311655879 0.9137039592413454
0.33716175765804168 0.20859382498567144 -0.0032466462433819354 0.034890102674225126 -0.31597961424447712 0.94812423453748584
0.40833745376137004 0.2243677199090128 0.047492062365611341 0.99889978028004622 0.038029294928432759 0.027440876147118081
0.33520045510079638 0.20756304927488198 -0.0023306358257722637 -0.041291875959102747 0.062624332706769092 -0.99718261814614984
0.33317853702021882 0.20728171344690896 -0.0023342231287040239 -0.038738097725678294 0.063997155737766057 -0.99719793614009844
0.33124380348339877 0.20707002071715003 -0.0024070957823304154 -0.036018923731438279 0.06485543887898762 -0.9972444079467393
0.32573621873977127 0.20649154398231642 -0.0027498872303784849 -0.031775811625622 0.062541663480794832 -0.99753638436128633
0.32175509034121685 0.20581946672009077 -0.0029368785193333567 -0.029417528040009692 0.062088378265972653 -0.99763702934900966
0.47071827413137141 0.20783794447767573 -0.0052050804382915662 -0.011840533629843893 -0.7758762812506782 0.63077396740510694
0.31556626696388107 0.20459562861290168 -0.0045297213104171933 0.013244314602241717 -0.15358506948855216 0.98804666618582015
0.45943999172593813 0.21074583235456124 -0.0043851116666221938 0.0061434959273979923 -0.14422088840717767 0.98952644876467777
0.38766052719917704 0.21331307116806028 -0.0061676425841318524 0.31347409739612186 0.0095914415997913078 -0.94954831078240809
0.49798809365981628 0.20768600594064859 -0.0049193078636257373 -0.01657377486525435 -0.80693169204312265 0.5904121902223386
0.44907400419209925 0.22455420183977423 -0.0039201386301197195 -0.053677373563102156 0.071681031583558694 -0.99598221333439696
0.43284822705891723 0.2231187251572504 -0.0047352329731558673 -0.19904733434473584 0.09412265733939093 -0.975459422049747
0.34808439499866856 0.23415316784919088 0.041340213298126448 -0.006621376218899278 0.99943111685579133 0.033069624088477335
0.43179488056574289 0.22312690731982557 -0.0048056699230246275 0.068664181763414975 -0.24244488673117159 0.96773224966447724
0.49437204166096338 0.20733472623066052 -0.0054759231657595612 -0.015796863969494722 -0.80232439960778079 0.59667915740600785
0.49213627799764875 0.20772833568612326 -0.0049857413080221418 -0.015448788902085392 -0.80149598272801337 0.59780057259282959
0.48975881661128112 0.20754071698300222 -0.0052703187251040996 -0.015143135515854772 -0.80140135831304826 0.59793523758075151
0.3677790314360273 0.21406414467584459 -0.0057730440774284757 0.066970939538162813 0.064792493590533018 -0.99564894718555119
0.36289066572639561 0.21401757176599609 -0.0042157907363818145 0.0055289016597598727 0.078463359907983241 -0.99690166636353206
0.36075565243025037 0.21372601956383952 -0.003852101581366655 -0.005355811485068601 0.077902901882240194 -0.9969465648477166
0.4080138349338065 0.22418048906261553 0.049120979748127042 -0.99975963584585437 -0.019921285699683867 -0.0091549390733330939
0.33297007320836752 0.21017631005148318 -0.0027179470061127402 0.028810129407860364 -0.28822819799707944 0.95712824758381188
0.32915808430519028 0.20958596396845922 -0.0029940510775838319 0.022852515569847291 -0.24911314169837154 0.96820473308350274
0.37273407647059253 0.23433972486843349 0.041794845773503508 0.014492263983322132 0.99867652230337423 0.049347523592129086
0.32543215737970699 0.20912405047889401 -0.0033052417482041614 0.018421952778838156 -0.21935358161764465 0.97547149516904164
0.32365272526954514 0.20907192375569117 -0.0034515167127486803 0.016833181632756638 -0.21069049808265949 0.97740787699598541
0.31949277642661772 0.2086517862888875 -0.0028714925929494246 -0.023682952325753119 0.071596594593654944 -0.99715246848800809
0.31736282651240444 0.20828975303477923 -0.0030855035345798199 -0.024537472338364973 0.066697899700551413 -0.99747145454232378
0.31547775354861873 0.20818266941295613 -0.004144790782833651 0.012549397348922013 -0.16898253730911453 0.98553914925321595
0.40914803482567885 0.19760340115272262 0.049261461274004562 -0.99873244624244961 -0.050123202760588542 -0.004600583397081354
0.4090175920346184 0.199777048413213 0.049432328406507402 -0.99879891065134951 -0.048698920222843375 -0.0053991898287342058
0.40887600508839717 0.20160282425123227 0.049218548453097602 -0.99894187321009897 -0.045546091569358807 -0.0063786746471360435
0.31292189284539834 0.20786835753530644 -0.0042636561942382117 0.012916176432650143 -0.16111664998954114 0.9868508486506502
0.40860200106290867 0.20596800435476412 0.049542025934313734 -0.99909828936660461 -0.041807361059729535 -0.0073995098449612653
0.40849338820090197 0.20768396451704646 0.049710566094764645 -0.99919294477939846 -0.039399114402213622 -0.007821054110229618
0.31025411361129845 0.2070347194226306 -0.0033548594043965613 -0.025599690414963138 0.062739258176316509 -0.99770157929821057
0.30800149608260646 0.20682263423861633 -0.0045495995934275862 0.013932296598319795 -0.15575522142530993 0.98769742437157804
0.40872836827426207 0.21259518336938499 0.050072511513310436 0.99883656432659285 0.040863739165655194 0.02560610446064239
0.34068711739604884 0.23395918347333644 0.043681561791598419 -0.0080493346573849382 0.9995514790919382 0.02884525709179725
0.33886731924664798 0.23394869525223916 0.043566355715652774 -0.0085005081559797278 0.99956771670119915 0.028144645846793662
0.43263246142855361 0.22487505696428578 -0.0044976185105445946 -0.19365962144499713 0.097401750427978204 -0.97622172175963506
0.39456167767864475 0.23226720559792824 0.044267414375796427 0.00021517607666013213 0.99839269127740449 0.056674400774223387
0.43135076396681632 0.22473110571102503 -0.0043476094396963051 -0.20567586133520474 0.097113931745279353 -0.9737896715025246
0.3914771416630502 0.23279816222206337 0.04382484078392071 0.018045322882525642 0.99813610188376456 0.058298271315269039
0.48616782866471203 0.20781619365415591 -0.0049690436063981654 -0.014757630516671526 -0.79928153174699779 0.60077553657726979
0.48428742678299863 0.2081054603619599 -0.004634752841719751 -0.014660765070339777 -0.79828581064999971 0.60210034585808458
0.36696115529286139 0.21599280630073339 -0.0050063794611629282 0.038673996249581087 0.07475311411399943 -0.99645185229610911
0.40801340163619565 0.21970386291009836 0.05076455719581411 -0.99954313253535565 -0.028854188283006219 -0.0089978897491144634
0.36262725345220859 0.21575991941884698 -0.0039033484542618964 -0.0011393605534502852 0.081406886311646512 -0.99668030015575804
0.36060952140861752 0.21538279585872588 -0.0036008379073568129 -0.0092688870621519832 0.081770254804128778 -0.99660810410205725
0.35081834183289001 0.21459665448309956 -0.0029121830171099593 0.035942933472228371 -0.42023272551600754 0.90670423068319184
0.34831189497380605 0.2136829330501234 -0.0020225654239411461 -0.038759080360402959 0.078028921000151838 -0.99619738063155339
0.34644633625006027 0.21343076161661526 -0.0018457499047959708 -0.040391376115371462 0.077344070780202279 -0.99618594220690226
0.34459359854732752 0.21322990823121502 -0.001791540970324924 -0.037874543324837279 0.078314516165530867 -0.99620899189160805
0.40796742908738814 0.21771882279923815 0.052646223345481372 -0.9995586131035904 -0.028446035000001507 -0.0085675004059281631
0.33785932199355428 0.21228319580477958 -0.0017394357590688921 -0.035849557371664516 0.075032800405484323 -0.9965364459464422
0.33464481439604499 0.21182547063853083 -0.0017355415270259543 -0.032770318267149809 0.076630401871349674 -0.99652089177784176
0.33078420760374427 0.21166510450592574 -0.0024414267685169029 0.024777894157215017 -0.27454570937137629 0.96125475781756298
0.32889311463446419 0.21139905646817211 -0.0025911034573155643 0.022243837721069432 -0.2558462036933013 0.96646155212670737
0.32522035011748412 0.21101193413589553 -0.0029814537594626536 0.017859980749317605 -0.23216911585922417 0.97251145120701799
0.3233457539248098 0.21078233716925762 -0.0032006615169069969 0.016034421389086971 -0.21742165583848033 0.97594606454617705
0.31930021966210359 0.21052946225185207 -0.0036362382718533753 0.012082980946798678 -0.19306000344889995 0.98111255044451962
0.31715655508304313 0.21050444579169211 -0.003762524860661681 0.011776090642617924 -0.19040937023015073 0.98163414540129668
0.3151795204497273 0.21027228802862469 -0.003931465131163425 0.012093310888477598 -0.18066832277221734 0.98346972956895251
0.31267674012853985 0.2102119090556035 -0.0040732350725013085 0.012227282273396834 -0.17870970038144712 0.98382586698957053
0.31135520090366081 0.21012654167508646 -0.0041422624364886333 0.012650922691573021 -0.1778984917807992 0.9839675201840602
0.30969558772136707 0.2097914254039587 -0.0042617808351263818 0.013075673982920127 -0.1746835652170772 0.98453779957548782
0.37615961555950295 0.21909986957146371 -0.0037488752737591079 -0.015733179876556366 -0.18746952024544805 0.98214441200360825
0.37508894669013954 0.21678567617530189 -0.0061430381540913664 0.11872209567599284 0.05832169246987106 -0.99121321832678877
0.37283012984885672 0.21841775793526502 -0.0039591743423560838 -0.012002520848552831 -0.25099651852756505 0.96791357423084101
0.36835206905441581 0.21821263243709171 -0.0045772229652106065 0.028838636871374484 0.079191426185145006 -0.99644219653834609
0.36654743629090364 0.21798716201311893 -0.0042005625870569462 0.012547064368564403 0.082967782420067582 -0.9964732401103541
0.35721173715282573 0.23417234097748924 0.046698944445703931 -0.0069545755880572038 -0.99917230212308572 -0.040079228391315162
0.35527478805164653 0.23414771100310083 0.046770754456565061 -0.0054199848687378838 -0.9992074833802489 -0.039433855009779646
0.35841396822404498 0.21695746501851756 -0.0030905286655985701 -0.018310529262814602 0.08318839635953662 -0.99636560319455236
0.40928046602759666 0.20112662406337778 0.053433333751437773 0.99898215541871926 0.041796392700057097 0.016962155294431978
0.40857689915039941 0.20342766823717673 0.053401358165083811 -0.99917565015845411 -0.039911005122439468 -0.0074250791609914426
0.35636860444529261 0.21690957620628504 -0.0031446261139731232 0.024166583164234971 -0.44395730080209056 0.89572199443950695
0.34479990026615204 0.23390088286767816 0.047233292049879284 -0.005942927029477141 0.99952787308149571 0.030144859454040777
0.34285574312745992 0.23377304068317664 0.047295204425896943 0.0055175922578368751 -0.99945917309967736 -0.032417857464448085
0.35206625454866475 0.21659842601771059 -0.0023242817781301867 0.033748061579385001 -0.4236873742813555 0.90517958285315114
0.33889446809624041 0.23368276288952641 0.047408322123218209 0.0066655187640194012 -0.99947893463902648 -0.031582116338890534
0.33694783919237087 0.23362636983104954 0.047474322119628744 0.0073375689527576081 -0.99950075323388121 -0.030731162795561519
0.35045183041062583 0.21567824306376665 -0.0019771709621305028 -0.035284898261621692 0.082024773219621483 -0.99600547816411977
0.3481145632831657 0.21554822928211578 -0.0016769370049676251 -0.038394949748011949 0.082500189334169152 -0.99585116688874442
0.34624921832317274 0.21529254757248051 -0.0015424627886944276 -0.037386676363277305 0.082081791672086471 -0.99592410147882648
0.33765286304239484 0.21412348540912937 -0.0014256151338135695 -0.032317390479845359 0.081262546158589216 -0.99616865282159739
0.33638550583362503 0.21397235934790848 -0.0014542350716375237 -0.031437807585656244 0.080988553453145026 -0.99621911167361887
0.39215668748210597 0.23218530948595609 0.046815952090809798 0.0028241445794638725 0.99862032025436365 0.052435485908558281
0.36717769449656334 0.2342382924270319 0.048596033703206948 -0.026230675851390318 -0.99851275283414165 -0.047793661420355946
0.33049540457661697 0.21350483786920824 -0.0019964480416460469 0.024233507110076869 -0.27953402467999688 0.95982991523464656
0.3286137669917466 0.21327629383609059 -0.0022340024995640105 0.021177468098771936 -0.26263832311757945 0.9646619232015492
0.32495098936738376 0.21262783405333746 -0.0022470061465828077 -0.019291719182071346 0.084717988899687485 -0.99621819493913699
0.35913782639689457 0.23417553321216247 0.048884806920574841 -0.012303680390966411 -0.9990817071074346 -0.041040979180949032
0.35738899222913173 0.23408028879231738 0.049331779901430471 -0.0074620266729987462 -0.99925492129373461 -0.037867141801089424
0.35523914638255844 0.23399639388873172 0.049396279587846745 0.00034480160883221489 0.99947856965139081 0.032287302759142003
0.35349249033965607 0.23398200194771956 0.049072264030064872 -0.0010024849909549924 0.99948506037772644 0.03207193641761244
0.32308537510178481 0.21267397921104661 -0.0030048054932135062 0.013979977576207819 -0.22320330666759494 0.97467165964729896
0.4084993039363557 0.20350474509423383 0.055017199616710116 -0.99921811313056508 -0.038840233337500613 -0.0073890910186374427
0.40838821850388185 0.20538697130028805 0.055513680860661156 -0.99924258180635483 -0.038149343132975806 -0.0076740030943896701
0.31620967595669619 0.21162327565703878 -0.0029361582633019388 -0.018059093785141925 0.080717349731306065 -0.99657341856183046
0.30930677353904373 0.21145393353554592 -0.0041417756856751749 0.012446053947138677 -0.18688684114107385 0.98230260324884411
0.48016542904080106 0.20834853732344108 -0.0044018725031212983 -0.013970964829723063 -0.79390087030381695 0.60788668374341659
0.47781579702390792 0.20734942665603756 -0.0037381975519441531 -0.097393635629258943 0.86731838939246286 -0.48813245247635323
0.33699851253503599 0.2335742286567595 0.049413740851912788 0.0070841757921372402 -0.99953287793376289 -0.029729453119683402
0.42691790094993487 0.22801927034044456 -0.0032776558889899996 -0.24621717041402527 0.10239592429722578 -0.96379052686806777
0.33318773096473875 0.23349679605027249 0.049581833006297496 0.007312121257931418 -0.99957340602605205 -0.028276117982968731
0.37859163478281793 0.22160835143436894 -0.0031269568800984583 -0.026091198148521001 -0.45449696473708889 0.89036608112840199
0.43112541281435712 0.23683842522691934 0.047195605720562833 -0.15800495832958639 0.98690366436042909 0.032489850957233501
0.40693030762707399 0.23167715429407496 0.0492427685025809 -0.17642964871471231 0.98360011899232513 0.037461780159078382
0.36689738518234993 0.23415930007329575 0.050745774286648261 -0.025794535824245061 -0.99865560344292947 -0.044962513649150049
0.37635604181885557 0.22066195300459013 -0.0055725123071745297 0.10626878702835552 0.070564415311076351 -0.9918304331867055
0.36326778486155747 0.23415735467124701 0.050906395953087866 -0.019707877262455445 -0.99892469413305718 -0.041964926128687421
0.36130094322733253 0.23402289859073952 0.050975857612129929 0.0063225559037449639 0.99941387833709483 0.033644094192752411
0.3639601586371311 0.21947853559601072 -0.0032057511130938548 0.0048699965412182739 -0.45061568257183099 0.89270476068743543
0.40951608971428149 0.13860087658529582 0.044390452058224644 -0.99587599402656335 -0.085393189958056989 0.030643231396042636
0.40870880511031155 0.20740255658865875 0.057585381441793052 0.99870913333387012 0.042662669887308657 0.027567437196744659
0.36012428113767453 0.21906768772466717 -0.0031521727450284291 -0.013557694650587747 0.084573276655611193 -0.99632502216470242
0.40843939415957053 0.2113758869547458 0.057798988852707595 0.99859708023444982 0.042652932144085901 0.031378316187198795
0.40829849627962972 0.21315482873966829 0.058222525014491364 0.9985146978228332 0.042667709328872393 0.033880153665575431
0.35813866511548587 0.21876114400498234 -0.0026517411691280683 0.019751526578025282 -0.44576939345461541 0.89492989952115343
0.35620894434283495 0.21855390543270467 -0.0024200431502956572 -0.028033273655148596 0.085365453594012763 -0.99595525747940306
0.35167833351185607 0.21807891762391804 -0.0018483768820297289 0.031416091459638688 -0.4162937990329833 0.9086872410703728
0.40787920238074926 0.22042089767152345 0.058900113222540497 0.99840923206422139 0.043209968255421012 0.036220214967574195
0.3441879670595871 0.21692649497688998 -0.0012137763141285985 -0.033687336094824168 0.086419167519795934 -0.99568915373826372
0.3340976869110277 0.21562994114233885 -0.001226675743190827 -0.024171900810277789 0.090196162072912839 -0.995630640126415
0.3943074734798902 0.19808638846394983 -0.0033907499498635574 0.43803156316511954 -0.012275024651343266 -0.89887578309849392
0.31411775351550641 0.21308418179114963 -0.0028857703211797349 -0.015331585202745969 0.087823157162561422 -0.99601808997686936
0.47596839172833344 0.20837940886554907 -0.0044378907045685839 -0.012849465811257194 -0.78654498683094309 0.61739928321911497
0.36522006634575371 0.23411386159101308 0.052745578158036981 -0.022979830755672281 -0.99895505859972766 -0.039505927105377453
0.36327536444617314 0.23412195534381894 0.053321570205172766 -0.02152363396917889 -0.99903952039480981 -0.038167654762500121
0.42692899336194434 0.23115847466487138 -0.0024477421744113262 0.11436782344640153 -0.36528608365158177 0.92384310250746715
0.37419327811341646 0.22250519117120557 -0.0049006521242447258 0.068643065294738501 0.084666562961975111 -0.99404210308374175
0.37246356221477972 0.22201594129422522 -0.0048281099039576307 0.058169691060444943 0.0821281828244078 -0.99492273500402695
0.36957082651625839 0.22179496646604752 -0.0042270992002538896 0.027626078492440451 0.084600666017718734 -0.99603189060214736
