# .PCD v0.7 - Point Cloud Data file format
VERSION 0.7
FIELDS x y z rgb
SIZE 4 4 4 4
TYPE F F F U
COUNT 1 1 1 1
WIDTH 1124
HEIGHT 1
VIEWPOINT 0 0 0 1 0 0 0
POINTS 1124
DATA ascii
-0.25338605 -0.15125626 0.546 11317936
-0.25230744 -0.15132552 0.54625005 10660006
-0.25099787 -0.15125626 0.546 11054764
-0.24946064 -0.1510485 0.54525 10595496
-0.24769902 -0.15070222 0.54400003 10463912
-0.24605617 -0.1504252 0.54300004 10200991
-0.24453041 -0.15021743 0.54225004 9740440
-0.24334453 -0.15021743 0.54225004 10134175
-0.24227028 -0.15028667 0.54250002 10265248
-0.24141712 -0.15049444 0.54325002 10528422
-0.24078181 -0.15084073 0.54450005 10396836
-0.239921 -0.1510485 0.54525 10527650
-0.238838 -0.15111776 0.54550004 10002591
-0.237645 -0.15111776 0.54550004 10003361
-0.23536836 -0.1504252 0.54300004 7502708
-0.22253647 -0.14294548 0.51600003 6778472
-0.21218266 -0.13698941 0.49450001 7697775
0.14751044 -0.15728159 0.56775004 3620406
0.14907959 -0.15762787 0.56900001 3224880
0.14966351 -0.1569353 0.56650001 3225397
0.13951483 -0.14509243 0.52375001 3291443
0.13220052 -0.13636611 0.49225003 3422259
0.1331417 -0.13622761 0.49175003 3488052
0.14267822 -0.14481542 0.52275002 3225399
0.15682112 -0.15790491 0.57000005 3488569
0.16534713 -0.16517684 0.59625006 3356464
0.16679086 -0.16531534 0.59675002 3750706
0.16823679 -0.16545387 0.59725004 3487534
0.16968489 -0.16559236 0.59775001 2697764
0.17120673 -0.16580014 0.59850001 2566948
0.17323625 -0.1664927 0.60100001 2698534
0.17905235 -0.1707866 0.61650002 2698534
0.18596041 -0.1760501 0.63550001 2894888
0.18727654 -0.17598085 0.63525003 2960936
0.18866582 -0.17598085 0.63525003 3555128
0.18998031 -0.17591161 0.63500005 4081472
0.19121836 -0.17577308 0.63450003 4146499
0.19207481 -0.17528829 0.63275003 4014913
0.18841386 -0.17071736 0.61625004 4016196
0.18960762 -0.17057884 0.61575001 4015679
0.19079921 -0.17044033 0.61525005 2829350
0.19206667 -0.17037107 0.61500001 2960681
0.19325443 -0.17023256 0.61450005 2894888
0.19443998 -0.17009404 0.61400002 2698536
0.19570307 -0.1700248 0.61375004 2633513
0.1967243 -0.16974777 0.61275005 2698536
0.19111474 -0.16379169 0.59125 2894888
0.17792636 -0.15146403 0.54675001 2500387
0.17191464 -0.14536947 0.52475005 2237985
0.17306226 -0.14536947 0.52475005 2435364
0.1809326 -0.15097924 0.54500002 2237983
0.19098009 -0.15832043 0.5715 1844510
0.19239813 -0.15845895 0.57200003 1909790
0.19381838 -0.15859747 0.57250005 2237985
0.19396305 -0.15769713 0.56925005 2434592
0.18500607 -0.14945559 0.5395 2237213
0.18627223 -0.14952485 0.53975004 2171422
0.17521049 -0.13975969 0.50450003 2106399
0.17631383 -0.13975969 0.50450003 2106399
0.17741716 -0.13975969 0.50450003 2040606
0.19196703 -0.15028667 0.54250002 2237215
0.19591282 -0.15243363 0.55025005 2368801
0.21440081 -0.16580014 0.59850001 2368799
0.22589153 -0.17362614 0.62675005 2434335
0.23224801 -0.17743523 0.64050001 855562
0.23373999 -0.17750449 0.64075005 396551
0.23523304 -0.17757376 0.64100003 512
0.23672718 -0.177643 0.64125001 5593426
0.23822244 -0.17771228 0.64150006 3355694
0.19362053 -0.13872083 0.50075001 2237215
0.19461846 -0.13865158 0.50050002 2500385
0.20529342 -0.14543872 0.52500004 2434589
0.19641443 -0.13837455 0.49950004 2040604
0.25255439 -0.15852819 0.57225001 2106146
-0.36782503 -0.1434669 0.52200001 11642275
-0.36650783 -0.1433982 0.52175003 12037801
-0.36501661 -0.14326078 0.52125001 11315874
-0.36352763 -0.14312336 0.52075005 11514023
-0.36186683 -0.14291723 0.52000004 11381154
-0.36038271 -0.1427798 0.51950002 11052189
-0.35907373 -0.1427111 0.51925004 11314078
-0.35776579 -0.14264239 0.51900005 11774888
-0.3657355 -0.14628403 0.53225005 11841453
-0.36491391 -0.14642145 0.53275001 11249576
-0.3639195 -0.14649016 0.53300005 11644585
-0.36309412 -0.14662758 0.53350002 11775912
-0.36209694 -0.14669628 0.53375 12169383
-0.36126778 -0.1468337 0.53425002 12629422
-0.36009938 -0.1468337 0.53425002 12499635
-0.35893098 -0.1468337 0.53425002 12039595
-0.35726032 -0.14662758 0.53350002 11972519
-0.35058698 -0.14436014 0.52525002 12891826
-0.34910566 -0.14422272 0.52475005 13352377
-0.347958 -0.14422272 0.52475005 12499635
-0.3468104 -0.14422272 0.52475005 12303537
-0.34599212 -0.14436014 0.52525002 12235691
-0.34533581 -0.14456627 0.52600002 12169900
-0.3446762 -0.1447724 0.52675003 12104877
-0.34385031 -0.14490983 0.52725005 12697014
-0.34285969 -0.14497854 0.52750003 13157311
-0.34170607 -0.14497854 0.52750003 13222588
-0.34055242 -0.14497854 0.52750003 13288379
-0.33923793 -0.14490983 0.52725005 12762037
-0.33792454 -0.1448411 0.52700001 12432307
-0.33693177 -0.14490983 0.52725005 12432818
-0.3362563 -0.14511594 0.528 12894906
-0.33573624 -0.14539079 0.52900004 13157563
-0.33457935 -0.14539079 0.52900004 13420483
-0.33326483 -0.14532207 0.52875 13487559
-0.33053818 -0.14463498 0.52625 13487308
-0.32860494 -0.14429143 0.52500004 13618894
-0.32730082 -0.14422272 0.52475005 13816530
-0.32630858 -0.14429143 0.52500004 13618894
-0.32547006 -0.14442883 0.5255 13683657
-0.32478368 -0.14463498 0.52625 13552071
-0.32440153 -0.14497854 0.52750003 13486789
-0.32401389 -0.14532207 0.52875 13420996
-0.32362077 -0.14566563 0.53000003 13683655
-0.32307005 -0.14594047 0.53100002 13881034
-0.32251501 -0.1462153 0.53200001 13947340
-0.32150257 -0.14628403 0.53225005 13486278
-0.32033855 -0.14628403 0.53225005 13683404
-0.3181251 -0.14580306 0.53050005 13749710
-0.31591928 -0.14532207 0.52875 13290180
-0.31431642 -0.14511594 0.528 13685192
-0.31286517 -0.14497854 0.52750003 13817035
-0.31156382 -0.14490983 0.52725005 13815241
-0.31261843 -0.14594047 0.53100002 13814473
-0.3167361 -0.14841405 0.54000002 13814992
-0.31657776 -0.14889501 0.54175001 13814990
-0.31553853 -0.14896373 0.54200006 13617611
-0.31435317 -0.14896373 0.54200006 13816273
-0.31316784 -0.14896373 0.54200006 13552333
-0.31140685 -0.14868888 0.54100001 13881296
-0.30778661 -0.14752081 0.53675002 13487308
-0.30532748 -0.14690241 0.5345 13290186
-0.30358946 -0.14662758 0.53350002 12698302
-0.30199757 -0.14642145 0.53275001 13026238
-0.30069128 -0.14635274 0.53250003 13158596
-0.29952672 -0.14635274 0.53250003 13422025
-0.29864231 -0.14649016 0.53300005 13093579
-0.29845336 -0.14697114 0.53475004 12698569
-0.29964656 -0.14813921 0.53900003 12829639
-0.29957524 -0.14868888 0.54100001 12304061
-0.29894367 -0.14896373 0.54200006 12567486
-0.29830766 -0.14923857 0.54300004 12238521
-0.29753053 -0.1494447 0.54375005 12830658
-0.2967501 -0.14965083 0.54450005 12961474
-0.29569501 -0.14971954 0.54475003 12895171
-0.29463878 -0.14978825 0.54500002 13487308
-0.29331228 -0.14971954 0.54475003 12764095
-0.29185277 -0.1495821 0.54425001 13225416
-0.2897279 -0.14910114 0.54250002 12898251
-0.28774366 -0.14868888 0.54100001 12701125
-0.2860308 -0.14841405 0.54000002 12502976
-0.28458607 -0.14827661 0.5395 13027784
-0.28327486 -0.1482079 0.53925002 12566459
-0.28196478 -0.14813921 0.53900003 12434620
-0.28078598 -0.14813921 0.53900003 12434879
-0.27986652 -0.14827661 0.5395 12304063
-0.2790741 -0.14848274 0.54025 12041661
-0.27840698 -0.14875759 0.54125005 12634311
-0.27735132 -0.1488263 0.54150003 12172475
-0.27629453 -0.14889501 0.54175001 12960964
-0.27510977 -0.14889501 0.54175001 12499645
-0.27405137 -0.14896373 0.54200006 12105908
-0.2729919 -0.14903243 0.54225004 12107705
-0.27205658 -0.14916985 0.54275 12107705
-0.27136871 -0.1494447 0.54375005 11778487
-0.27055219 -0.14965083 0.54450005 11712694
-0.26985607 -0.14992566 0.54550004 11975866
-0.26903242 -0.15013181 0.54625005 11778487
-0.26796037 -0.1502005 0.54650003 11647414
-0.26688719 -0.15026921 0.54675001 11581621
-0.26556998 -0.1502005 0.54650003 11581623
-0.26425388 -0.15013181 0.54625005 10989488
-0.26293883 -0.15006308 0.546 11253428
-0.26150504 -0.14992566 0.54550004 11317940
-0.26007345 -0.14978825 0.54500002 11251375
-0.25864404 -0.14965083 0.54450005 10988971
-0.25709859 -0.1494447 0.54375005 9213843
-0.25579175 -0.14937598 0.54350001 6714222
-0.25472024 -0.1494447 0.54375005 5725782
-0.25376418 -0.1495821 0.54425001 8225918
-0.25315404 -0.14992566 0.54550004 10396834
-0.25230744 -0.15013181 0.54625005 10726316
-0.25111282 -0.15013181 0.54625005 10331556
-0.2496894 -0.14999437 0.54575002 10594726
-0.24804053 -0.14971954 0.54475003 10134945
-0.24639602 -0.1494447 0.54375005 9937566
-0.24498136 -0.14930727 0.54325002 9477017
-0.24379328 -0.14930727 0.54325002 9674398
-0.2428285 -0.1494447 0.54375005 9804697
-0.24197264 -0.14965083 0.54450005 9870492
-0.24122402 -0.14992566 0.54550004 10001056
-0.24036103 -0.15013181 0.54625005 10131872
-0.23927583 -0.1502005 0.54650003 10197665
-0.23818955 -0.15026921 0.54675001 10067871
-0.2367771 -0.15013181 0.54625005 8160636
-0.23126975 -0.14738339 0.53625005 6515300
-0.22140799 -0.14181787 0.51600003 7698029
-0.21088775 -0.13577136 0.49400002 7369321
0.12984295 -0.13735169 0.49975002 3489082
0.14842458 -0.15569732 0.56650001 3488822
0.13823731 -0.14381047 0.52325004 2896685
0.13938165 -0.14381047 0.52325004 3356466
0.13213338 -0.13522168 0.49200001 3357236
0.13401245 -0.13494684 0.49100003 3291703
0.14884248 -0.14868888 0.54100001 3489082
0.16534713 -0.16387385 0.59625006 3291703
0.16672099 -0.16394255 0.59650004 3159087
0.16816635 -0.16407996 0.597 3618868
0.16961393 -0.16421738 0.59750003 2895143
0.17113522 -0.16442353 0.59825003 2698534
0.17265975 -0.16462965 0.59900004 2370339
0.17556715 -0.16614129 0.60450006 2436134
0.18596041 -0.17466134 0.63550001 2697509
0.18735024 -0.17466134 0.63550001 3025704
0.18874007 -0.17466134 0.63550001 3159857
0.1900551 -0.17459263 0.63525003 4081472
0.19121836 -0.1743865 0.63450003 3819070
0.19253014 -0.17431779 0.63425004 3884612
0.19192991 -0.17253132 0.62775004 3884610
0.18983857 -0.16943936 0.61650002 4082242
0.1910318 -0.16930196 0.61600006 3487280
0.19230089 -0.16923323 0.61575001 3222570
0.1934903 -0.16909581 0.61525005 2894118
0.19475666 -0.16902709 0.61500001 2566950
0.19610165 -0.16902709 0.61500001 2566950
0.19736639 -0.1689584 0.61475003 2960938
0.19757952 -0.16799645 0.61125004 2894888
0.1847603 -0.15604088 0.56775004 2631973
0.17879449 -0.14999437 0.54575002 2368799
0.1751235 -0.14594047 0.53100002 2237983
0.1809326 -0.14978825 0.54500002 1909790
0.19081302 -0.15693411 0.57100004 2107169
0.19206178 -0.15693411 0.57100004 2434594
0.19339518 -0.15700281 0.57125002 2434594
0.18399656 -0.14841405 0.54000002 2107169
0.18500607 -0.14827661 0.5395 1909790
0.18618594 -0.14827661 0.5395 1909790
0.18736582 -0.14827661 0.5395 1975583
0.18880782 -0.14848274 0.54025 2040606
0.19350605 -0.15123117 0.55025005 2040606
0.19479789 -0.15129986 0.55050004 2237213
0.21273585 -0.16421738 0.59750003 2171420
0.22514774 -0.17273745 0.62850004 2237215
0.23093736 -0.17610426 0.64075005 2303776
0.23233868 -0.17610426 0.64075005 1843225
0.24057981 -0.18125752 0.6595 528135
0.24715984 -0.18510529 0.67350006 1251858
0.24872506 -0.185174 0.67375004 4540738
0.23822244 -0.17631039 0.64150006 2236956
0.19362053 -0.13762653 0.50075001 2106146
0.20414525 -0.14429143 0.52500004 2106146
0.2100836 -0.14765823 0.53725004 2500385
0.20624496 -0.144154 0.52450001 2171674
0.19730912 -0.13714556 0.49900001 1975583
-0.36676806 -0.14191718 0.5205 10787995
-0.36562973 -0.14191718 0.5205 11972008
-0.36414129 -0.14178087 0.52000004 11578531
-0.36265498 -0.14164454 0.51950002 10921632
-0.3613449 -0.14157636 0.51925004 10855839
-0.3600359 -0.14150821 0.51900005 10985372
-0.35872793 -0.14144003 0.51875001 11247517
-0.35759342 -0.14144003 0.51875001 11051165
-0.3657355 -0.14512089 0.53225005 11775658
-0.36491391 -0.14525722 0.53275001 11840168
-0.36374879 -0.14525722 0.53275001 11905701
-0.36309412 -0.14546171 0.53350002 11708322
-0.36209694 -0.14552987 0.53375 12168873
-0.36126778 -0.1456662 0.53425002 12366250
-0.35554969 -0.14382578 0.52750003 12433070
-0.35305238 -0.14328046 0.5255 12039595
-0.35173568 -0.1432123 0.52525002 11906724
-0.35025328 -0.14307599 0.52475005 11972008
-0.34910566 -0.14307599 0.52475005 12169133
-0.347958 -0.14307599 0.52475005 11974320
-0.34697562 -0.14314415 0.52500004 11908011
-0.34615678 -0.14328046 0.5255 12039084
-0.34549993 -0.14348495 0.52625 12104623
-0.34483978 -0.14368944 0.52700001 11775658
-0.34417638 -0.14389394 0.52775002 12695990
-0.34334719 -0.14403027 0.52825004 13091518
-0.34235385 -0.14409843 0.52850002 12762807
-0.34103662 -0.14403027 0.52825004 13354940
-0.33988133 -0.14403027 0.52825004 13156791
-0.33872607 -0.14403027 0.52825004 12695731
-0.3378903 -0.14416659 0.52875 12498352
-0.33721158 -0.14437108 0.52950001 12893623
-0.33652955 -0.14457558 0.53025001 12697012
-0.33536991 -0.14457558 0.53025001 12302002
-0.33421025 -0.14457558 0.53025001 12762302
-0.33053818 -0.14348495 0.52625 12959681
-0.3287614 -0.1432123 0.52525002 12828608
-0.32745674 -0.14314415 0.52500004 12895424
-0.32630858 -0.14314415 0.52500004 13356230
-0.32547006 -0.14328046 0.5255 12961215
-0.32478368 -0.14348495 0.52625 12829629
-0.32424778 -0.14375763 0.52725005 12829883
-0.32370749 -0.14403027 0.52825004 12961215
-0.32331544 -0.14437108 0.52950001 12961215
-0.32276586 -0.14464375 0.53050005 13619147
-0.32206035 -0.14484823 0.53125 13553611
-0.32089847 -0.14484823 0.53125 13093060
-0.31943575 -0.14471191 0.53075004 13026757
-0.31782523 -0.14450742 0.53000003 13289159
-0.31621805 -0.14430292 0.52925003 13289410
-0.31491175 -0.14423476 0.52900004 12697273
-0.31345829 -0.14409843 0.52850002 13618375
-0.31289336 -0.14437108 0.52950001 13420485
-0.31482622 -0.14580253 0.53475004 13485257
-0.3174693 -0.1475748 0.54125005 13024704
-0.31643167 -0.14764296 0.54150003 13289159
-0.31539297 -0.14771111 0.54175001 12698049
-0.31406316 -0.14764296 0.54150003 12961221
-0.31259 -0.14750662 0.54100001 12763842
-0.31025562 -0.14696132 0.53900003 13289161
-0.30735654 -0.14614335 0.53600001 13091782
-0.30547029 -0.14580253 0.53475004 12698049
-0.30358946 -0.14546171 0.53350002 12238521
-0.30213931 -0.14532539 0.53300005 12632507
-0.30083245 -0.14525722 0.53275001 12698043
-0.29966733 -0.14525722 0.53275001 12895681
-0.29892245 -0.14546171 0.53350002 12698819
-0.30026725 -0.14668867 0.53800005 12763844
-0.30048046 -0.14737031 0.54050004 12040121
-0.2998521 -0.14764296 0.54150003 11843512
-0.29921943 -0.1479156 0.54250002 12173247
-0.29844502 -0.14812011 0.54325002 12370624
-0.29766732 -0.14832459 0.54400003 12369854
-0.29688635 -0.14852908 0.54475003 12434622
-0.29596639 -0.1486654 0.54525 12303036
-0.29490909 -0.14873359 0.54550004 12369084
-0.2937161 -0.14873359 0.54550004 12106935
-0.29238901 -0.1486654 0.54525 12568516
-0.29039547 -0.14825644 0.54375005 12371907
-0.28761068 -0.14743847 0.54075003 12305344
-0.28589839 -0.14716581 0.53975004 12107452
-0.2844542 -0.14702947 0.53925002 12436670
-0.28314355 -0.14696132 0.53900003 11712696
-0.28183401 -0.14689316 0.53875005 11581112
-0.28065574 -0.14689316 0.53875005 11777721
-0.27960718 -0.14696132 0.53900003 11711926
-0.27868667 -0.14709763 0.5395 11449524
-0.27776396 -0.14723396 0.54000002 12041663
-0.27696717 -0.14743847 0.54075003 11647418
-0.27591202 -0.14750662 0.54100001 11712696
-0.27485585 -0.1475748 0.54125005 11448754
-0.27392495 -0.14771111 0.54175001 11579313
-0.2729919 -0.14784744 0.54225004 11711924
-0.27230722 -0.14812011 0.54325002 11450035
-0.27161822 -0.14839275 0.54425001 11449524
-0.27092484 -0.1486654 0.54525 11186352
-0.27010339 -0.1488699 0.546 11120559
-0.26915556 -0.14900623 0.54650003 11252658
-0.26808295 -0.14907439 0.54675001 10989486
-0.26688719 -0.14907439 0.54675001 11055279
-0.26556998 -0.14900623 0.54650003 11382961
-0.26425388 -0.14893807 0.54625005 11054764
-0.26281843 -0.14880174 0.54575002 10461859
-0.26138517 -0.1486654 0.54525 11185582
-0.25995415 -0.14852908 0.54475003 10528933
-0.25852528 -0.14839275 0.54425001 9477268
-0.25709859 -0.14825644 0.54375005 2436132
-0.25579175 -0.14818826 0.54350001 721664
-0.25460312 -0.14818826 0.54350001 1182217
-0.25364763 -0.14832459 0.54400003 852224
-0.25303799 -0.1486654 0.54525 6443094
-0.25265387 -0.14914256 0.54700005 10855588
-0.25157252 -0.14921072 0.54725003 10067101
-0.25014693 -0.14907439 0.54675001 10133664
-0.24838202 -0.14873359 0.54550004 9870492
-0.24684916 -0.14852908 0.54475003 9804697
-0.24543232 -0.14839275 0.54425001 9607833
-0.24424204 -0.14839275 0.54425001 9409941
-0.24327508 -0.14852908 0.54475003 9868950
-0.24241702 -0.14873359 0.54550004 10001306
-0.24166623 -0.14900623 0.54650003 9804699
-0.24080105 -0.14921072 0.54725003 9869724
-0.23982313 -0.14934705 0.54775006 10067103
-0.23862521 -0.14934705 0.54775006 9804697
-0.23731892 -0.14927888 0.54750001 8621189
-0.23321046 -0.14743847 0.54075003 6251358
-0.22194433 -0.14103106 0.51725 7435630
-0.21152809 -0.1351008 0.49550003 7500653
0.13113241 -0.13646407 0.50050002 3291703
0.13823731 -0.142667 0.52325004 3028531
0.13345477 -0.1366004 0.50100005 3028784
0.15827566 -0.15561812 0.57075 3095347
0.16672099 -0.16263901 0.59650004 3226163
0.16809593 -0.16270716 0.59675002 3619638
0.16954297 -0.1628435 0.59725004 2895913
0.17099218 -0.16297983 0.59775001 2764327
0.17265975 -0.16332065 0.59900004 2566948
0.17593019 -0.16516107 0.60575002 2369571
0.18266845 -0.17020521 0.62425005 2829352
0.18742396 -0.17334074 0.63575006 2895143
0.18874007 -0.17327257 0.63550001 2961706
0.1900551 -0.17320441 0.63525003 4015166
0.19121836 -0.17299992 0.63450003 3949886
0.19253014 -0.17293176 0.63425004 4015426
0.19368793 -0.17272726 0.63350004 4081989
0.19014649 -0.16836476 0.61750001 4213058
0.19141944 -0.16829661 0.61725003 4013373
0.19269128 -0.16822845 0.61700004 3091244
0.19380479 -0.16802396 0.61625004 2894886
0.19507335 -0.1679558 0.61600006 2500387
0.1963408 -0.16788761 0.61575001 2829352
0.19768743 -0.16788761 0.61575001 2764329
0.19903409 -0.16788761 0.61575001 2566950
0.19948581 -0.16713782 0.61300004 2631973
0.18608387 -0.15486832 0.56800002 2500385
0.18765587 -0.15514098 0.56900001 2040606
0.18923226 -0.15541364 0.57000005 1975330
0.19056238 -0.1554818 0.57025003 2369571
0.19172543 -0.15541364 0.57000005 2237215
0.19204099 -0.15466383 0.56725001 2434594
0.18382619 -0.14709763 0.5395 2303778
0.18500607 -0.14709763 0.5395 2434594
0.18627223 -0.14716581 0.53975004 2434594
0.19101243 -0.14996052 0.55000001 1975583
0.20261236 -0.15807202 0.57975 2040606
0.20959489 -0.16250268 0.59600002 2368801
0.21107528 -0.16263901 0.59650004 2171420
0.21878859 -0.16754681 0.61450005 2171420
0.22532684 -0.17150031 0.62900001 2171422
0.23102747 -0.17477217 0.64100003 2434594
0.23904684 -0.17974813 0.65925002 2040606
0.24559569 -0.18356532 0.67325002 2040606
0.24715984 -0.18363349 0.67350006 2501155
0.24872506 -0.18370165 0.67375004 2237983
0.21350513 -0.1488699 0.546 2106146
0.20722802 -0.14368944 0.52700001 2106397
0.19711141 -0.13591877 0.49850002 2237213
0.29867399 -0.1845196 0.67675 2237985
0.30015403 -0.1845196 0.67675 2106399
-0.36571112 -0.14037403 0.51900005 10723737
-0.3645761 -0.14037403 0.51900005 10986909
-0.36326593 -0.1403064 0.51875001 10921886
-0.36195692 -0.14023879 0.51850003 10461340
-0.36064902 -0.14017119 0.51825005 10395037
-0.35951561 -0.14017119 0.51825005 10919581
-0.35855508 -0.14023879 0.51850003 11511457
-0.3574211 -0.14023879 0.51850003 11250081
-0.35645896 -0.1403064 0.51875001 11315874
-0.3647427 -0.14402537 0.53250003 11643554
-0.36374879 -0.14409299 0.53275001 12103078
-0.36292398 -0.14422823 0.53325003 11905701
-0.36141855 -0.14409299 0.53275001 12037801
-0.3550128 -0.14199685 0.52500004 12235693
-0.34712434 -0.13929215 0.51500005 11710632
-0.34599808 -0.13929215 0.51500005 11645607
-0.34503916 -0.13935976 0.51525003 11709865
-0.34391233 -0.13935976 0.51525003 11973039
-0.3489393 -0.1418616 0.52450001 11906476
-0.347958 -0.14192924 0.52475005 12235188
-0.34697562 -0.14199685 0.52500004 11972267
-0.34632149 -0.14219971 0.52575004 11906474
-0.34566408 -0.14240256 0.52650005 12103853
-0.34516695 -0.14267303 0.52750003 11841451
-0.34450248 -0.14287588 0.52825004 12499381
-0.34383467 -0.14307873 0.52900004 12565174
-0.34283969 -0.14314635 0.52925003 12434101
-0.34168223 -0.14314635 0.52925003 12303285
-0.34068558 -0.14321396 0.52950001 12827830
-0.33952758 -0.14321396 0.52950001 12433072
-0.33868909 -0.1433492 0.53000003 12236976
-0.33816686 -0.14361967 0.53100002 12369332
-0.33716419 -0.14368728 0.53125 12500146
-0.33584428 -0.14361967 0.53100002 12369589
-0.33452541 -0.14355205 0.53075004 12106935
-0.33053818 -0.14233492 0.52625 12828861
-0.32891786 -0.14213207 0.5255 13156028
-0.32745674 -0.14199685 0.52500004 12892856
-0.32630858 -0.14199685 0.52500004 12630969
-0.32547006 -0.14213207 0.5255 12764095
-0.32478368 -0.14233492 0.52625 12304312
-0.32409403 -0.14253779 0.52700001 12105906
-0.32370749 -0.14287588 0.52825004 12105906
-0.32316279 -0.14314635 0.52925003 13026240
-0.32246163 -0.1433492 0.53000003 13157060
-0.32160568 -0.14348444 0.53050005 12961221
-0.32059649 -0.14355205 0.53075004 12436668
-0.3192853 -0.14348444 0.53050005 12501693
-0.31782523 -0.1433492 0.53000003 12698049
-0.31651679 -0.14328159 0.52975005 12633026
-0.31535822 -0.14328159 0.52975005 12237241
-0.31449622 -0.14341681 0.53025001 12565436
-0.31481385 -0.14409299 0.53275001 12434620
-0.31629807 -0.14531012 0.53725004 11842742
-0.31732264 -0.14632437 0.54100001 11974071
-0.31643167 -0.14645961 0.54150003 12237498
-0.31539297 -0.14652722 0.54175001 12304314
-0.31406316 -0.14645961 0.54150003 12237751
-0.31230113 -0.14618914 0.54050004 12238268
-0.31011173 -0.14571582 0.53875005 12238272
-0.30764326 -0.14510725 0.53650004 12434622
-0.3056131 -0.14470156 0.53500003 12369854
-0.30387402 -0.14443108 0.53400004 11909556
-0.30242273 -0.14429584 0.53350002 12105655
-0.3011148 -0.14422823 0.53325003 12433850
-0.30008921 -0.14429584 0.53350002 12697792
-0.30060336 -0.14510725 0.53650004 12434877
-0.30138347 -0.1460539 0.54000002 12303036
-0.30075839 -0.14632437 0.54100001 12237500
-0.29999053 -0.14652722 0.54175001 11316398
-0.29921943 -0.14673008 0.54250002 11711154
-0.29844502 -0.14693293 0.54325002 12369854
-0.29766732 -0.14713578 0.54400003 11777719
-0.29688635 -0.14733863 0.54475003 11974071
-0.29610211 -0.14754149 0.54550004 11776949
-0.29504424 -0.1476091 0.54575002 11711154
-0.29398531 -0.14767672 0.546 12105655
-0.29279119 -0.14767672 0.546 12171958
-0.2915971 -0.14767672 0.546 11843510
-0.2900041 -0.14747386 0.54525 12172477
-0.28616321 -0.14612152 0.54025 12105655
-0.28471798 -0.14598629 0.53975004 11908533
-0.28327486 -0.14585105 0.53925002 11186352
-0.28209555 -0.14585105 0.53925002 11054766
-0.28078598 -0.14578344 0.53900003 11186350
-0.27960718 -0.14578344 0.53900003 11382961
-0.27855754 -0.14585105 0.53925002 11316398
-0.27750677 -0.14591865 0.5395 11251375
-0.27658302 -0.1460539 0.54000002 11317940
-0.27565706 -0.14618914 0.54050004 10988973
-0.27472889 -0.14632437 0.54100001 10988971
-0.27379856 -0.14645961 0.54150003 10725801
-0.27311775 -0.14673008 0.54250002 11054766
-0.27243254 -0.14700054 0.54350001 11054766
-0.27186775 -0.14733863 0.54475003 10792107
-0.27117327 -0.1476091 0.54575002 11055277
-0.27035075 -0.14781195 0.54650003 10396834
-0.26927868 -0.14787957 0.54675001 10660519
-0.26808295 -0.14787957 0.54675001 10660259
-0.26688719 -0.14787957 0.54675001 10857385
-0.26544851 -0.14774434 0.54625005 10725031
-0.26413292 -0.14767672 0.546 11119017
-0.26269805 -0.14754149 0.54550004 10330273
-0.26126534 -0.14740625 0.54500002 10396836
-0.25995415 -0.14733863 0.54475003 10463393
-0.25852528 -0.1472034 0.54425001 6449505
-0.25721678 -0.14713578 0.54400003 1513742
-0.25590941 -0.14706817 0.54375005 1645076
-0.25472024 -0.14706817 0.54375005 1842200
-0.25388077 -0.14727102 0.54450005 2038294
-0.25419822 -0.14815006 0.54775006 1179656
-0.25357765 -0.14848813 0.54900002 9010820
-0.25226209 -0.14842051 0.54875004 10329501
-0.25071883 -0.14821766 0.54800004 9540757
-0.24906501 -0.14794719 0.54700005 9738906
-0.24730229 -0.1476091 0.54575002 9804180
-0.24588327 -0.14747386 0.54525 9804950
-0.24469081 -0.14747386 0.54525 8949641
-0.24372166 -0.1476091 0.54575002 9474962
-0.24286141 -0.14781195 0.54650003 9080976
-0.24210842 -0.14808242 0.54750001 9213845
-0.24135107 -0.14835289 0.5485 9345429
-0.24026096 -0.14842051 0.54875004 9739417
-0.23906086 -0.14842051 0.54875004 9673624
-0.23786075 -0.14842051 0.54875004 9147020
-0.23525901 -0.14754149 0.54550004 6581093
-0.22344615 -0.14084736 0.52075005 7435630
-0.21291551 -0.13489701 0.49875003 7567216
-0.20906413 -0.13313895 0.49225003 7435630
0.13176467 -0.13489701 0.49875003 3291443
0.13099079 -0.13300371 0.49175003 3028784
0.14974833 -0.1460539 0.54000002 3488822
0.16672099 -0.16133547 0.59650004 3357236
0.16809593 -0.16140307 0.59675002 3619636
0.16954297 -0.16153832 0.59725004 3553327
0.17099218 -0.16167355 0.59775001 2501155
0.17438923 -0.16363446 0.60500002 2436134
0.17622061 -0.16410778 0.60675001 2435362
0.18135165 -0.16762389 0.61975002 2697764
0.18735024 -0.17188379 0.63550001 2697764
0.18866582 -0.17181619 0.63525003 2830120
0.18998031 -0.17174858 0.63500005 3489335
0.19121836 -0.17161334 0.63450003 3949633
0.19245423 -0.17147809 0.634 4015428
0.19368793 -0.17134286 0.63350004 4081219
0.19053142 -0.16735342 0.61875004 4212545
0.19172955 -0.16721819 0.61825001 4342591
0.19292551 -0.16708297 0.61775005 3026731
0.19411927 -0.16694772 0.61725003 2764329
0.19531083 -0.16681248 0.61675 2698536
0.19657995 -0.16674487 0.61650002 2894635
0.19784796 -0.16667725 0.61625004 2698283
0.19927652 -0.16674487 0.61650002 2633513
0.20062479 -0.16674487 0.61650002 2566950
0.20213689 -0.1668801 0.61700004 2500385
0.2020846 -0.16573061 0.61275005 2040606
0.2027607 -0.16518967 0.61075002 1975330
0.19440538 -0.15734603 0.58175004 2369571
0.19164132 -0.15410039 0.56975001 2237215
0.18264629 -0.14591865 0.5395 2303776
0.18382619 -0.14591865 0.5395 2106399
0.18500607 -0.14591865 0.5395 2237215
0.18627223 -0.14598629 0.53975004 2368799
0.20134446 -0.15680508 0.57975 2237985
0.20820409 -0.16113262 0.59575003 2237985
0.20959489 -0.16120023 0.59600002 2434337
0.21726775 -0.16606869 0.61400002 2236956
0.21878859 -0.16620393 0.61450005 2368799
0.22532684 -0.17012574 0.62900001 2237213
0.23120768 -0.17350663 0.64150006 2106397
0.23904684 -0.17830747 0.65925002 2237985
0.24048862 -0.17830747 0.65925002 1975583
0.24715984 -0.18216167 0.67350006 1909790
0.24863277 -0.18216167 0.67350006 2171420
0.20624496 -0.1418616 0.52450001 1975581
0.26237899 -0.17370947 0.64225 2368801
0.30026799 -0.18493399 0.68375003 2040858
0.30004317 -0.18297307 0.67650002 2237985
-0.36483029 -0.13890451 0.51775002 10985111
-0.36352241 -0.13883744 0.51750004 10657944
-0.36239061 -0.13883744 0.51750004 10658971
-0.36125883 -0.13883744 0.51750004 10329754
-0.36012709 -0.13883744 0.51750004 10657179
-0.35916874 -0.13890451 0.51775002 10985626
-0.35820931 -0.13897157 0.51800001 11050904
-0.35724878 -0.13903865 0.51825005 11050904
-0.3561154 -0.13903865 0.51825005 11512738
-0.35481071 -0.13897157 0.51800001 11315870
-0.35350716 -0.13890451 0.51775002 11776421
-0.35152411 -0.13856915 0.5165 11644839
-0.34971613 -0.13830087 0.51550001 11249827
-0.3484197 -0.1382338 0.51525003 11381154
-0.34729284 -0.1382338 0.51525003 11775910
-0.34616601 -0.1382338 0.51525003 11841703
-0.34503916 -0.1382338 0.51525003 11775658
-0.34391233 -0.1382338 0.51525003 11511718
-0.34295177 -0.13830087 0.51550001 11644074
-0.34812376 -0.14084958 0.52500004 11644334
-0.34730604 -0.1409837 0.5255 11841453
-0.34648615 -0.14111786 0.52600002 11774890
-0.34599233 -0.14138614 0.52700001 11905961
-0.34549412 -0.14165442 0.528 12169646
-0.34499159 -0.14192271 0.52900004 12301232
-0.34415963 -0.14205685 0.52950001 12040115
-0.34332553 -0.14219099 0.53000003 12106935
-0.3423278 -0.14225806 0.53025001 11907759
-0.34132901 -0.14232515 0.53050005 12564153
-0.34032914 -0.14239222 0.53075004 11973299
-0.33948788 -0.14252634 0.53125 11842485
-0.3384853 -0.14259343 0.53150004 11645104
-0.33732289 -0.14259343 0.53150004 11973299
-0.33616054 -0.14259343 0.53150004 11842734
-0.33452541 -0.14239222 0.53075004 11777968
-0.33069524 -0.14125201 0.52650005 11974322
-0.32907435 -0.14105079 0.52575004 12433588
-0.32761267 -0.14091665 0.52525002 12893369
-0.32646397 -0.14091665 0.52525002 12828861
-0.32562491 -0.14105079 0.52575004 12304314
-0.32478368 -0.14118493 0.52625 12304314
-0.32424778 -0.14145322 0.52725005 12041142
-0.32370749 -0.1417215 0.52825004 12499894
-0.32316279 -0.14198978 0.52925003 12301232
-0.32246163 -0.14219099 0.53000003 12564404
-0.32145411 -0.14225806 0.53025001 11973550
-0.32044548 -0.14232515 0.53050005 12172728
-0.3191348 -0.14225806 0.53025001 12237498
-0.31797513 -0.14225806 0.53025001 11842740
-0.31681553 -0.14225806 0.53025001 12238521
-0.31595352 -0.14239222 0.53075004 11908786
-0.31568247 -0.14279464 0.53225005 11775922
-0.31540477 -0.14319706 0.53375 12368829
-0.31673962 -0.14433728 0.53800005 11711926
-0.31717601 -0.14507505 0.54075003 11776947
-0.31628558 -0.14520921 0.54125005 11711154
-0.31539297 -0.14534335 0.54175001 12040889
-0.31391817 -0.14520921 0.54125005 11842740
-0.31244558 -0.14507505 0.54075003 12303034
-0.31039953 -0.14467263 0.53925002 12105655
-0.30807334 -0.14413607 0.53725004 12171705
-0.30604154 -0.14373364 0.53575003 11843510
-0.30444306 -0.14353243 0.53500003 11843510
-0.30298957 -0.14339827 0.5345 11908533
-0.30182064 -0.14339827 0.5345 11776943
-0.30093294 -0.14353243 0.53500003 11579568
-0.30186406 -0.14453849 0.53875005 11843510
-0.301523 -0.14494091 0.54025 11712177
-0.30075839 -0.14514212 0.54100001 11777717
-0.29999053 -0.14534335 0.54175001 11316396
-0.29908153 -0.14547749 0.54225004 11513518
-0.29830766 -0.1456787 0.54300004 11711924
-0.29753053 -0.14587992 0.54375005 11580340
-0.29688635 -0.1461482 0.54475003 11776947
-0.29610211 -0.14634942 0.54550004 11317419
-0.2951794 -0.14648356 0.546 11053226
-0.29425454 -0.1466177 0.54650003 11907508
-0.29305932 -0.1466177 0.54650003 11643823
-0.29173061 -0.14655063 0.54625005 11842483
-0.29027006 -0.14641649 0.54575002 11776947
-0.28828195 -0.14601405 0.54425001 11973552
-0.28550923 -0.14520921 0.54125005 11643821
-0.28380015 -0.14494091 0.54025 11446957
-0.2824879 -0.14487384 0.54000002 10921638
-0.28117669 -0.14480677 0.53975004 11053224
-0.27986652 -0.1447397 0.5395 11053224
-0.27868667 -0.1447397 0.5395 10855845
-0.27750677 -0.1447397 0.5395 10725031
-0.27632692 -0.1447397 0.5395 10922410
-0.27540204 -0.14487384 0.54000002 10660008
-0.27447501 -0.145008 0.54050004 10331556
-0.27379856 -0.14527628 0.54150003 10463140
-0.27311775 -0.14554456 0.54250002 10265761
-0.27255788 -0.14587992 0.54375005 10790824
-0.2719925 -0.14621527 0.54500002 10594217
-0.27117327 -0.14641649 0.54575002 10463142
-0.27035075 -0.1466177 0.54650003 10396834
-0.26927868 -0.14668477 0.54675001 10725031
-0.26808295 -0.14668477 0.54675001 10396066
-0.26676518 -0.1466177 0.54650003 10527654
-0.26532701 -0.14648356 0.546 10396066
-0.26389104 -0.14634942 0.54550004 10790054
-0.26245725 -0.14621527 0.54500002 10921383
-0.2611455 -0.1461482 0.54475003 9936287
-0.25983486 -0.14608113 0.54450005 10332324
-0.25864404 -0.14608113 0.54450005 5331537
-0.2575714 -0.1461482 0.54475003 1184268
-0.25638005 -0.1461482 0.54475003 1644819
-0.25577423 -0.14648356 0.546 1841430
-0.25597894 -0.14728841 0.54900002 2366489
-0.2553584 -0.14762378 0.55025005 1708561
-0.25427049 -0.14769083 0.55050004 7234922
-0.25283667 -0.14755669 0.55000001 10396317
-0.25140509 -0.14742255 0.54950005 9607318
-0.24974799 -0.14715426 0.5485 9672341
-0.24798201 -0.14681891 0.54725003 9540755
-0.24644697 -0.1466177 0.54650003 9673364
-0.24525179 -0.1466177 0.54650003 9147020
-0.24416824 -0.14668477 0.54675001 9080204
-0.24341692 -0.14695306 0.54775006 9079436
-0.24277174 -0.14728841 0.54900002 9672343
-0.2417911 -0.14742255 0.54950005 9344659
-0.24080825 -0.14755669 0.55000001 9081487
-0.2396054 -0.14755669 0.55000001 9081487
-0.23840256 -0.14755669 0.55000001 9410192
-0.23579809 -0.14668477 0.54675001 7699574
-0.22451887 -0.14038008 0.52325004 7107184
-0.21558361 -0.13548386 0.505 7370356
-0.21076298 -0.13313638 0.49625003 7435884
0.12998137 -0.13199617 0.49200001 3554875
0.13105737 -0.13199617 0.49200001 3094324
0.13664535 -0.13219738 0.49275002 3226163
0.16679086 -0.16009901 0.59675002 3422257
0.16816635 -0.16016608 0.597 3487280
0.16954297 -0.16023315 0.59725004 3815988
0.17292309 -0.16217823 0.60450006 2763302
0.17489366 -0.16278186 0.60675001 2697766
0.17643845 -0.16298307 0.60750002 2829350
0.18083955 -0.16580006 0.61800003 2960936
0.18720286 -0.17036092 0.63500005 2829604
0.18851732 -0.17029384 0.63475001 2894886
0.18983072 -0.17022677 0.63450003 3355696
0.19099234 -0.17002556 0.63375002 4080959
0.19230247 -0.16995849 0.63350004 4080959
0.19345862 -0.16975728 0.63275003 4015679
0.19068539 -0.16613543 0.61925006 4343108
0.19188461 -0.16600129 0.61875004 4737349
0.19308165 -0.16586713 0.61825001 3355696
0.19427653 -0.16573299 0.61775005 2698283
0.19539002 -0.16553178 0.61700004 2698283
0.19665965 -0.1654647 0.61675 2631973
0.19784796 -0.16533057 0.61625004 2566950
0.19919571 -0.16533057 0.61625004 2830892
0.20062479 -0.16539764 0.61650002 2895145
0.20213689 -0.16553178 0.61700004 2631716
0.2035687 -0.16559885 0.61725003 2368548
0.20500161 -0.16566592 0.61750001 2303525
0.20409639 -0.163855 0.61075002 2237985
0.19567765 -0.15607475 0.58175004 2237985
0.18247703 -0.14460556 0.53900003 2303778
0.17496711 -0.1377643 0.51350003 2368801
0.17609012 -0.1377643 0.51350003 2368799
0.18618594 -0.1447397 0.5395 1974811
0.20134446 -0.15553816 0.57975 2237983
0.20837884 -0.15996487 0.59625006 2106399
0.21293576 -0.16244651 0.60550004 2040353
0.21726775 -0.16472693 0.61400002 2236962
0.21878859 -0.16486107 0.61450005 2369571
0.22022207 -0.16492814 0.61475003 2368801
0.22652225 -0.16861707 0.62850004 2237213
0.23288257 -0.17230597 0.64225 2237215
0.25294912 -0.16700734 0.6225 2500380
0.25737453 -0.16901949 0.63000005 2500639
0.30226836 -0.18558608 0.69175005 2238237
0.30121166 -0.18310444 0.6825 2368548
-0.36412567 -0.13750696 0.51675004 10722970
-0.36281991 -0.13744043 0.5165 10198166
-0.36151525 -0.13737391 0.51625001 10329752
-0.36056072 -0.13744043 0.5165 10592151
-0.35977912 -0.13757348 0.51700002 10459798
-0.35899532 -0.13770653 0.51750004 10723224
-0.35820931 -0.13783959 0.51800001 10591636
-0.35707644 -0.13783959 0.51800001 10853525
-0.35577181 -0.13777307 0.51775002 10919833
-0.35446826 -0.13770653 0.51750004 10987425
-0.35265365 -0.13744043 0.5165 11249314
-0.35101369 -0.13724087 0.51575005 11380130
-0.34971613 -0.13717434 0.51550001 11445410
-0.34858873 -0.13717434 0.51550001 11576736
-0.34729284 -0.1371078 0.51525003 11710117
-0.34616601 -0.1371078 0.51525003 11448230
-0.34503916 -0.1371078 0.51525003 11579562
-0.34391233 -0.1371078 0.51525003 11447206
-0.34278548 -0.1371078 0.51525003 11775658
-0.3486211 -0.13990186 0.52575004 11775658
-0.34763652 -0.13996838 0.52600002 11578279
-0.34698018 -0.14016795 0.52675003 11644074
-0.34632063 -0.14036754 0.52750003 11576482
-0.34598488 -0.14070015 0.52875 11774377
-0.34531763 -0.14089973 0.52950001 11578281
-0.34464711 -0.1410993 0.53025001 11973552
-0.34381139 -0.14123236 0.53075004 12170929
-0.342812 -0.14129888 0.53100002 12039343
-0.34181154 -0.14136539 0.53125 11776173
-0.34081006 -0.14143193 0.53150004 11579311
-0.33980742 -0.14149845 0.53175002 11446955
-0.33880371 -0.14156498 0.53200001 11118243
-0.33748156 -0.14149845 0.53175002 11776690
-0.33600238 -0.14136539 0.53125 11382185
-0.33373752 -0.14089973 0.52950001 11647152
-0.33085224 -0.14016795 0.52675003 11252396
-0.32923082 -0.13996838 0.52600002 11513518
-0.32776859 -0.13983533 0.5255 11972786
-0.32661933 -0.13983533 0.5255 12105655
-0.32577977 -0.13996838 0.52600002 11711407
-0.324938 -0.14010143 0.52650005 11842993
-0.32440153 -0.14036754 0.52750003 11449005
-0.32370749 -0.14056711 0.52825004 11579564
-0.32316279 -0.1408332 0.52925003 11578541
-0.32246163 -0.14103279 0.53000003 12039862
-0.32145411 -0.1410993 0.53025001 11316649
-0.32044548 -0.14116584 0.53050005 11317419
-0.3192853 -0.14116584 0.53050005 11382189
-0.3181251 -0.14116584 0.53050005 11316141
-0.31726363 -0.14129888 0.53100002 11579568
-0.31669763 -0.14156498 0.53200001 11712177
-0.31627557 -0.1418976 0.53325003 11381932
-0.31614345 -0.14236328 0.53500003 12104887
-0.31688678 -0.1432281 0.53825003 11579564
-0.31702939 -0.14382683 0.54050004 11383212
-0.31613949 -0.14395986 0.54100001 11186603
-0.31524745 -0.14409293 0.54150003 11317166
-0.31391817 -0.14402641 0.54125005 11383212
-0.31244558 -0.14389335 0.54075003 11908786
-0.31083125 -0.14369377 0.54000002 11712177
-0.30879012 -0.14329462 0.53850001 11909556
-0.30675557 -0.14289548 0.537 11317419
-0.30515438 -0.1426959 0.53625005 11382959
-0.30369818 -0.14256285 0.53575003 11449775
-0.30280885 -0.1426959 0.53625005 11185580
-0.30219856 -0.14296201 0.53725004 10922408
-0.3021442 -0.1434942 0.53925002 11053224
-0.301523 -0.14376029 0.54025 11251375
-0.30061942 -0.14389335 0.54075003 11777719
-0.2997137 -0.14402641 0.54125005 11250605
-0.29880574 -0.14415945 0.54175001 11053224
-0.29789564 -0.1442925 0.54225004 10922408
-0.29725695 -0.14455859 0.54325002 11185580
-0.2967501 -0.14489123 0.54450005 11119017
-0.29610211 -0.14515732 0.54550004 11316396
-0.29531455 -0.14535691 0.54625005 10790822
-0.29425454 -0.14542343 0.54650003 10921638
-0.2931934 -0.14548995 0.54675001 11316398
-0.29186413 -0.14542343 0.54650003 11053226
-0.29040301 -0.14529037 0.546 11119017
-0.28867921 -0.14502427 0.54500002 11118760
-0.2865642 -0.14455859 0.54325002 11249578
-0.2847195 -0.14422598 0.54200006 11118764
-0.28301102 -0.14395986 0.54100001 10855847
-0.28156739 -0.14382683 0.54050004 10461857
-0.27999625 -0.14362726 0.53975004 10725031
-0.27868667 -0.14356072 0.5395 10527652
-0.27750677 -0.14356072 0.5395 10461857
-0.27632692 -0.14356072 0.5395 10067871
-0.27540204 -0.14369377 0.54000002 10199972
-0.27460194 -0.14389335 0.54075003 10331558
-0.27392495 -0.14415945 0.54175001 10199970
-0.27336946 -0.14449207 0.54300004 9804699
-0.27268317 -0.14475818 0.54400003 10067101
-0.2719925 -0.14502427 0.54500002 10528422
-0.27117327 -0.14522384 0.54575002 10265761
-0.27022707 -0.14535691 0.54625005 10134175
-0.26915556 -0.14542343 0.54650003 10265248
-0.26796037 -0.14542343 0.54650003 10068382
-0.26664317 -0.14535691 0.54625005 9871005
-0.26520553 -0.14522384 0.54575002 10002593
-0.26364917 -0.14502427 0.54500002 10067871
-0.26221648 -0.14489123 0.54450005 10264478
-0.2609058 -0.1448247 0.54425001 9870492
-0.25971553 -0.1448247 0.54425001 9871003
-0.25876278 -0.14495775 0.54475003 7963259
-0.25780782 -0.14509079 0.54525 264965
-0.25708601 -0.14535691 0.54625005 2170134
-0.25694537 -0.14595562 0.5485 1774093
-0.25656179 -0.1464213 0.55025005 1511701
-0.25559044 -0.14655435 0.55075002 1772824
-0.2545014 -0.14662087 0.551 8946825
-0.25318146 -0.14655435 0.55075002 9804697
-0.25174823 -0.1464213 0.55025005 9541525
-0.25020334 -0.14622173 0.54950005 9147280
-0.24854843 -0.14595562 0.5485 9278355
-0.24701068 -0.14575605 0.54775006 9213073
-0.24581276 -0.14575605 0.54775006 9147282
-0.24472648 -0.14582257 0.54800004 9277585
-0.24397239 -0.14608867 0.54900002 9276558
-0.2431034 -0.14628825 0.54975003 9080206
-0.24223112 -0.14648782 0.55050004 9541525
-0.24113663 -0.14655435 0.55075002 9081227
-0.23993213 -0.14655435 0.55075002 8949388
-0.23872766 -0.14655435 0.55075002 9146767
-0.2369841 -0.14622173 0.54950005 9080974
-0.22795153 -0.14136539 0.53125 7370356
-0.21846519 -0.13617647 0.51175004 7632241
-0.21278036 -0.13331589 0.50100005 7566700
0.13125716 -0.13112056 0.49275002 3094324
0.13233481 -0.13112056 0.49275002 3290420
0.16672099 -0.15872841 0.59650004 3357488
0.16816635 -0.15886144 0.597 3158317
0.16968489 -0.15906101 0.59775001 3947833
0.17220794 -0.16019195 0.60200006 2830122
0.17496574 -0.16152245 0.60700005 2566950
0.17665628 -0.16185507 0.60825002 2370341
0.17849858 -0.16232075 0.61000001 2566950
0.18698174 -0.16877367 0.63425004 2697509
0.18836884 -0.16877367 0.63425004 3025702
0.18960634 -0.16864061 0.63375002 3289126
0.19084166 -0.16850758 0.63325006 3948853
0.19207481 -0.16837451 0.63275003 4015677
0.19330573 -0.16824146 0.63225001 4015426
0.19083935 -0.16491522 0.61975002 4212292
0.19196214 -0.16471563 0.61900002 4278338
0.19323781 -0.16464911 0.61875004 3817017
0.19435513 -0.16444954 0.61800003 2960681
0.19546919 -0.16424997 0.61725003 2829352
0.19657995 -0.16405039 0.61650002 2697766
0.19784796 -0.16398387 0.61625004 2829350
0.19919571 -0.16398387 0.61625004 2896167
0.20070614 -0.16411692 0.61675 2633511
0.20221879 -0.16424997 0.61725003 2697766
0.2035687 -0.16424997 0.61725003 2434337
0.20500161 -0.16431649 0.61750001 2434337
0.20576726 -0.16385081 0.61575001 2368801
0.19550946 -0.15467037 0.58125001 2237215
0.17384407 -0.13664214 0.51350003 2303776
0.17721313 -0.13664214 0.51350003 2106651
0.19335666 -0.14815094 0.55675 2107167
0.20855357 -0.15879492 0.59675002 1909790
0.21275993 -0.16099025 0.60500002 2237732
0.2141715 -0.16105677 0.60525 2106146
0.21852157 -0.16331862 0.61375004 2106146
0.21977429 -0.1632521 0.61350006 2106399
0.22228734 -0.16411692 0.61675 2237985
0.22771546 -0.16711053 0.62800002 2040606
0.22899769 -0.16704401 0.62775004 2237985
0.23986718 -0.15793011 0.59350002 2171420
0.24695557 -0.16172203 0.60775006 2302751
0.24828471 -0.16172203 0.60775006 2302751
0.22692166 -0.14702001 0.55250001 2237213
0.3010816 -0.18427397 0.69250005 2107167
0.30259606 -0.18427397 0.69250005 2237983
0.30400077 -0.18420744 0.69225001 2303778
-0.36324483 -0.1360478 0.51550001 10263702
-0.36194184 -0.13598183 0.51525003 10132116
-0.36099005 -0.1360478 0.51550001 10197139
-0.3602117 -0.13617976 0.51600003 10328725
-0.35960516 -0.13637771 0.51675004 10395542
-0.35899532 -0.13657564 0.51750004 10592151
-0.35803643 -0.13664161 0.51775002 10657944
-0.35690409 -0.13664161 0.51775002 10459798
-0.35542822 -0.13650966 0.51725 10328727
-0.35378325 -0.13631171 0.5165 10854556
-0.35214162 -0.13611379 0.51575005 11380130
-0.35101369 -0.13611379 0.51575005 11248544
-0.34971613 -0.1360478 0.51550001 10920351
-0.34875783 -0.13611379 0.51575005 11183521
-0.34762987 -0.13611379 0.51575005 11249568
-0.34633395 -0.1360478 0.51550001 11183521
-0.34520656 -0.1360478 0.51550001 11447208
-0.34391233 -0.13598183 0.51525003 10724255
-0.34993723 -0.1388189 0.52600002 11512999
-0.34911841 -0.13895087 0.52650005 11184806
-0.34813219 -0.13901684 0.52675003 10987425
-0.34747425 -0.13921478 0.52750003 11183775
-0.34681302 -0.13941272 0.52825004 10853788
-0.34631208 -0.13967663 0.52925003 11314086
-0.34564373 -0.13987456 0.53000003 11315369
-0.3449721 -0.14007249 0.53075004 11380649
-0.34397331 -0.14013848 0.53100002 11511205
-0.34297341 -0.14020444 0.53125 11775658
-0.34197241 -0.14027044 0.53150004 11120040
-0.34097037 -0.14033641 0.53175002 11120040
-0.33996716 -0.14040239 0.53200001 10987174
-0.3386445 -0.14033641 0.53175002 11117990
-0.33732289 -0.14027044 0.53150004 11315369
-0.33568618 -0.14007249 0.53075004 11185580
-0.33342242 -0.13961065 0.52900004 10989484
-0.33100927 -0.13908282 0.52700001 11383212
-0.32938731 -0.13888487 0.52625 11184036
-0.32792455 -0.13875294 0.52575004 11446955
-0.32693014 -0.1388189 0.52600002 11447725
-0.32593459 -0.13888487 0.52625 11381932
-0.32524657 -0.13908282 0.52700001 11316139
-0.32455525 -0.13928075 0.52775002 11447982
-0.32401389 -0.13954467 0.52875 11316139
-0.32331544 -0.1397426 0.52950001 11316139
-0.32261375 -0.13994054 0.53025001 11381934
-0.32160568 -0.14000653 0.53050005 11645106
-0.32059649 -0.14007249 0.53075004 11052969
-0.31943575 -0.14007249 0.53075004 10987435
-0.31842491 -0.14013848 0.53100002 11447982
-0.31771174 -0.14033641 0.53175002 11053220
-0.3171441 -0.14060032 0.53275001 11446955
-0.31686866 -0.1409962 0.53425002 10921381
-0.31673434 -0.14145805 0.53600001 11053224
-0.31703395 -0.14211783 0.53850001 10922408
-0.3167361 -0.14251371 0.54000002 10988454
-0.3159934 -0.14271164 0.54075003 11120040
-0.31510189 -0.1428436 0.54125005 11052967
-0.31391817 -0.1428436 0.54125005 11514028
-0.31259 -0.14277762 0.54100001 11514026
-0.31097513 -0.14257967 0.54025 11448233
-0.30936351 -0.14238174 0.5395 11250603
-0.30746964 -0.14205186 0.53825003 10922661
-0.30586568 -0.14185391 0.53750002 10988201
-0.30454847 -0.14178795 0.53725004 11119017
-0.30351466 -0.14185391 0.53750002 11119021
-0.30290166 -0.14211783 0.53850001 10987178
-0.30228427 -0.14238174 0.5395 10855588
-0.301523 -0.14257967 0.54025 11052967
-0.30061942 -0.14271164 0.54075003 11251373
-0.29957524 -0.14277762 0.54100001 10989486
-0.29839209 -0.14277762 0.54100001 10396836
-0.29720891 -0.14277762 0.54100001 10527652
-0.29643616 -0.14297555 0.54175001 10594215
-0.29620507 -0.1434374 0.54350001 10592675
-0.29596639 -0.14389925 0.54525 10658468
-0.29531455 -0.14416318 0.54625005 10855847
-0.29425454 -0.14422914 0.54650003 10395296
-0.29305932 -0.14422914 0.54650003 10855845
-0.29173061 -0.14416318 0.54625005 10396064
-0.29040301 -0.14409718 0.546 10528422
-0.28881162 -0.14389925 0.54525 10660008
-0.28722361 -0.14370133 0.54450005 10396068
-0.28563878 -0.14350338 0.54375005 10725033
-0.28418806 -0.14337143 0.54325002 10527652
-0.28286973 -0.14330545 0.54300004 10396066
-0.28103372 -0.14297555 0.54175001 10396066
-0.27894497 -0.14251371 0.54000002 10263451
-0.27750677 -0.14238174 0.5395 10066329
-0.27632692 -0.14238174 0.5395 9934743
-0.27540204 -0.14251371 0.54000002 9871005
-0.27460194 -0.14271164 0.54075003 9871775
-0.27417776 -0.14310752 0.54225004 9739417
-0.27362117 -0.1434374 0.54350001 9870490
-0.27280849 -0.14363533 0.54425001 9476245
-0.27186775 -0.1437673 0.54475003 10265501
-0.27104905 -0.14396524 0.54550004 10068122
-0.27010339 -0.14409718 0.546 10067869
-0.26903242 -0.14416318 0.54625005 9871003
-0.26771519 -0.14409718 0.546 9805210
-0.26639909 -0.14403121 0.54575002 9870492
-0.26496255 -0.14389925 0.54525 9739419
-0.26340729 -0.14370133 0.54450005 9608854
-0.2618553 -0.14350338 0.54375005 9607831
-0.26054627 -0.1434374 0.54350001 9804699
-0.25947696 -0.14350338 0.54375005 9607318
-0.25864404 -0.14370133 0.54450005 9607571
-0.25804424 -0.14403121 0.54575002 8028539
-0.25767431 -0.14449306 0.54750001 3618360
-0.25729671 -0.1449549 0.54925001 2957612
-0.25667834 -0.1452848 0.55050004 3616827
-0.25570643 -0.14541675 0.551 8092289
-0.25461692 -0.14548275 0.55125004 9673111
-0.25329638 -0.14541675 0.551 9081487
-0.251977 -0.14535078 0.55075002 9082257
-0.250431 -0.14515285 0.55000001 8490120
-0.24888828 -0.1449549 0.54925001 9146769
-0.24746163 -0.14482296 0.54875004 8817804
-0.2461493 -0.14475697 0.5485 8555917
-0.24517305 -0.14488894 0.54900002 8817804
-0.2441946 -0.1450209 0.54950005 9342859
-0.24332452 -0.14521883 0.55025005 9080206
-0.24234112 -0.14535078 0.55075002 9080976
-0.24135555 -0.14548275 0.55125004 8818317
-0.24014997 -0.14548275 0.55125004 8884110
-0.2389444 -0.14548275 0.55125004 9212560
-0.23773882 -0.14548275 0.55125004 9015694
-0.23213512 -0.14277762 0.54100001 7897213
-0.22337452 -0.13809314 0.52325004 7369839
-0.21447918 -0.1332767 0.505 7435630
-0.20809323 -0.12997778 0.49250004 7567216
0.13132375 -0.13010974 0.49300003 3291443
0.13240194 -0.13010974 0.49300003 3224880
0.16141051 -0.15241049 0.57750005 3160370
0.16802552 -0.15742487 0.59650004 3159857
0.16954297 -0.1576228 0.59725004 3356466
0.17127825 -0.15801868 0.59875005 3488052
0.17374067 -0.15907432 0.60275 2370341
0.17658366 -0.16045988 0.60800004 2370339
0.17842543 -0.16092172 0.60975003 2436132
0.18248592 -0.16336294 0.61900002 2697764
0.18807185 -0.16712372 0.63325006 2960679
0.18938194 -0.16705772 0.63300002 2895397
0.19061564 -0.16692579 0.63250005 3554613
0.19177125 -0.16672784 0.63175005 3883840
0.193 -0.16659588 0.63125002 3949635
0.1940726 -0.16633198 0.63025004 4015428
0.19203968 -0.16342892 0.61925006 3950403
0.19315974 -0.16323099 0.61850005 4213058
0.19427653 -0.16303304 0.61775005 3092267
0.19546919 -0.16290109 0.61725003 3025704
0.19657995 -0.16270314 0.61650002 2697764
0.19768743 -0.16250521 0.61575001 2566948
0.19822599 -0.16184542 0.61325002 2699558
0.20062479 -0.16270314 0.61650002 2633511
0.20230068 -0.16296706 0.61750001 2698536
0.20365115 -0.16296706 0.61750001 2500387
0.20508461 -0.16303304 0.61775005 2500130
0.20643562 -0.16303304 0.61775005 2565923
