# .PCD v0.7 - Point Cloud Data file format
VERSION 0.7
FIELDS x y z
SIZE 4 4 4
TYPE F F F
COUNT 1 1 1
WIDTH 1463
HEIGHT 1
VIEWPOINT 0 0 0 1 0 0 0
POINTS 1463
DATA ascii
0.38400868 0.22828381 0.24785295
0.38539195 0.22648442 0.24712563
0.44670373 0.2241745 0.24693272
0.44900978 0.22483167 0.24629518
0.4534663 0.22687484 0.24834532
0.45750415 0.22703677 0.24729264
0.46303016 0.22673273 0.24728961
0.4672201 0.22717367 0.2479734
0.47213799 0.22732089 0.24772328
0.4773013 0.22721462 0.24745233
0.48248717 0.22757162 0.24751073
0.4875114 0.22793134 0.24725051
0.49205741 0.22787896 0.24711105
0.49678445 0.22789077 0.24687095
0.50410694 0.22673908 0.2452278
0.50708777 0.2285911 0.24690199
0.5121786 0.22901903 0.24605255
0.51631421 0.23013087 0.24548773
0.52020615 0.23116699 0.24447162
0.37962365 0.23647809 0.24830073
0.38082752 0.23380257 0.24793226
0.3819001 0.23168319 0.24755642
0.38359568 0.22962892 0.24492295
0.44546884 0.22357345 0.24664359
0.44751698 0.22486073 0.24815227
0.44976592 0.22605903 0.24864224
0.49168479 0.23069647 0.24935602
0.50933182 0.23021172 0.24847843
0.51280534 0.23096105 0.24849397
0.51759964 0.2327157 0.24822795
0.52161229 0.23362803 0.24680009
0.5256809 0.23498328 0.24540845
0.52922827 0.23667461 0.24412499
0.37895286 0.23883432 0.24790564
0.37886524 0.23880388 0.24937545
0.38015619 0.23580524 0.24802077
0.44783166 0.22494712 0.24824929
0.45068756 0.22682214 0.25073251
0.45119607 0.22750746 0.25119311
0.50025934 0.23378974 0.25217068
0.50387591 0.23353569 0.25229827
0.51952708 0.23466662 0.24943565
0.52316248 0.2360338 0.24857669
0.52708143 0.23809037 0.2476992
0.53032809 0.23919182 0.24574627
0.3783702 0.24375817 0.24773039
0.37847614 0.24211591 0.24823487
0.49401706 0.23993894 0.25481072
0.49843433 0.23824857 0.25471899
0.50237042 0.23645508 0.25437835
0.52925819 0.24052815 0.24826558
0.53186238 0.24270739 0.24729812
0.53502482 0.24376713 0.24502498
0.37814939 0.24815908 0.24759647
0.49249876 0.24331307 0.25617141
0.49715367 0.24326056 0.25719082
0.50179768 0.24178165 0.25738746
0.53378862 0.24699824 0.24855483
0.5367443 0.24795732 0.24612086
0.37816289 0.25270018 0.24753237
0.3779048 0.25326142 0.24873306
0.48926502 0.24899559 0.25809267
0.49153763 0.24874973 0.25846443
0.49555376 0.24743961 0.25896707
0.53504568 0.25146487 0.24966608
0.5376817 0.25239912 0.24763836
0.53994578 0.25296155 0.24526702
0.3784894 0.2574892 0.24774209
0.37809154 0.25716767 0.24738851
0.48906115 0.2532317 0.26028144
0.49047592 0.25243092 0.26017594
0.53554219 0.25520432 0.25081551
0.53872597 0.25648537 0.24771295
0.54035819 0.25843534 0.24658291
0.3789379 0.2611011 0.24740539
0.37914479 0.26345193 0.24753834
0.37877065 0.26278591 0.24724081
0.54106694 0.2628668 0.24668968
0.54274887 0.26413336 0.24513116
0.3796868 0.2671178 0.24754356
0.37971061 0.26664135 0.24544229
0.53012025 0.26598087 0.25819281
0.53197664 0.26786759 0.25695714
0.54088563 0.26822901 0.2487967
0.54186457 0.26792046 0.24692258
0.54339832 0.26767629 0.24492058
0.38064677 0.27121374 0.24772979
0.38109899 0.27319282 0.24787207
0.53117555 0.26954079 0.25761124
0.53188187 0.27201214 0.25753906
0.54016513 0.27176043 0.24979825
0.54220641 0.27254888 0.24687706
0.54327041 0.27201691 0.24539408
0.53406662 0.27660096 0.25635651
0.53705937 0.27915081 0.25357914
0.53981608 0.27803734 0.25011942
0.54218751 0.27713141 0.24668241
0.5427447 0.2775003 0.24559028
0.53779227 0.28247273 0.25248381
0.53976637 0.28278628 0.24994951
0.54200041 0.28045237 0.24665026
0.54216945 0.28155643 0.24549925
0.53792453 0.2864325 0.25162774
0.53904092 0.28747854 0.25012338
0.54009593 0.2886222 0.24691486
0.5411036 0.28516343 0.24617605
0.53920215 0.29140145 0.24749647
0.53823388 0.29491633 0.24782357
0.5305053 0.30310518 0.24852835
0.50740647 0.31053054 0.25040254
0.52894765 0.30477026 0.24811992
0.52964324 0.30437231 0.24792507
0.49983826 0.31132197 0.25018999
0.50325423 0.31170607 0.24835944
0.50637382 0.3118332 0.24728672
0.4085992 0.33605766 0.24762782
0.41235432 0.33884445 0.24763261
0.41523567 0.34031773 0.24689499
0.44279531 0.34154597 0.24854131
0.4460046 0.34121922 0.24784601
0.41775328 0.34132436 0.24739607
0.42268431 0.34231246 0.24721296
0.42765394 0.34248722 0.2474964
0.43259382 0.3424463 0.24740656
0.43737894 0.34227505 0.24765633
0.44153216 0.34210783 0.24681826
0.50340784 0.34343496 0.24381049
0.50617224 0.34396583 0.24329266
0.50404924 0.34466037 0.2431853
0.42323259 0.20700689 0.25365922
0.42709589 0.20802394 0.25267482
0.43101335 0.21031278 0.25217891
0.43380344 0.21282238 0.2518841
0.39844495 0.21484128 0.2523858
0.40241072 0.21244363 0.25226602
0.40510225 0.21114281 0.25133112
0.4359524 0.21555175 0.25212693
0.43853572 0.21788529 0.2525903
0.3939127 0.21809049 0.25249436
0.39581198 0.216728 0.25248924
0.44110939 0.22006235 0.25221032
0.44392455 0.22208665 0.25213462
0.38743454 0.22377707 0.25244635
0.39058852 0.22082189 0.25223815
0.44381693 0.22206149 0.25004402
0.44643611 0.22410049 0.25246578
0.45002154 0.22622319 0.25080702
0.50278294 0.22859821 0.24734505
0.50663304 0.22872768 0.24717239
0.38364518 0.22801054 0.25251696
0.38561592 0.22565526 0.25240684
0.44906422 0.22638009 0.2536841
0.45194432 0.22771801 0.25216979
0.45693099 0.22932824 0.2514694
0.46240208 0.22935633 0.2506755
0.46667877 0.2291079 0.25028494
0.47361556 0.22964169 0.25006643
0.4776127 0.22994247 0.25008804
0.48190379 0.23007272 0.24967244
0.48549896 0.23041002 0.24961272
0.49411201 0.23023306 0.24895175
0.49781767 0.23058596 0.24912541
0.50201148 0.23090582 0.24948736
0.5065459 0.23071472 0.24930817
0.51136816 0.23113917 0.24889129
0.51497608 0.23179433 0.2484054
0.38064724 0.2337894 0.25249246
0.38173357 0.23121764 0.25271645
0.45927647 0.23111819 0.25336793
0.46289554 0.23201449 0.2531507
0.46780431 0.23196796 0.25281191
0.47236383 0.23247804 0.25275093
0.47742921 0.23265633 0.25209919
0.48248354 0.23333068 0.25166214
0.48752469 0.23331191 0.25091672
0.49243659 0.23354506 0.25097013
0.49635404 0.23351026 0.25106427
0.50810713 0.23279209 0.25129998
0.51209939 0.23405395 0.25177339
0.51649129 0.23444492 0.25047964
0.52092957 0.23558764 0.24947391
0.37850305 0.24023207 0.25081095
0.37903506 0.2383361 0.25272483
0.37982151 0.23610973 0.25241518
0.46475133 0.23465292 0.25529912
0.4674941 0.2352311 0.25545233
0.47187802 0.23539586 0.25466779
0.48367643 0.2366108 0.2530435
0.4878709 0.23790146 0.25301617
0.49154514 0.23801059 0.25315961
0.51344454 0.23626444 0.25336933
0.517654 0.23689775 0.25239688
0.52187705 0.23890817 0.2518459
0.52560502 0.23970571 0.25005186
0.37805694 0.24473533 0.25260857
0.3782033 0.24275634 0.25246805
0.37867698 0.2403391 0.2528668
0.52308547 0.24159104 0.25294742
0.52686924 0.24298714 0.25145739
0.52970058 0.24457529 0.25059414
0.37788242 0.24786726 0.25217342
0.37794828 0.24778345 0.25316092
0.37776524 0.24751481 0.25367457
0.4996821 0.24485736 0.25848243
0.50152236 0.24499887 0.25900254
0.52837396 0.24754575 0.25323796
0.53090888 0.24820411 0.25148931
0.37801293 0.25298595 0.25197846
0.37784696 0.2514666 0.25361976
0.3776775 0.25220838 0.25263631
0.49383122 0.25073805 0.25990888
0.49790463 0.24907763 0.25999326
0.53250659 0.25237545 0.25237271
0.53506017 0.25387284 0.25068119
0.37822479 0.25746694 0.25254574
0.37794209 0.25745928 0.25236356
0.37781355 0.25527629 0.2551423
0.4889333 0.25554106 0.26151839
0.49234709 0.25469318 0.26153997
0.49687332 0.25377348 0.26196858
0.53319144 0.25522834 0.25311151
0.53638828 0.2583611 0.25066277
0.53834832 0.2599321 0.24894252
0.37852997 0.26058039 0.25198746
0.37868237 0.26282057 0.25252929
0.37836012 0.26196519 0.25222281
0.48909855 0.25841793 0.26299164
0.49142492 0.25786099 0.26313886
0.52259564 0.26149586 0.26249203
0.52501339 0.26207715 0.2614387
0.53660429 0.26154038 0.25133017
0.5386346 0.26337177 0.2493059
0.37935683 0.26725796 0.25234085
0.5230574 0.26498458 0.26267016
0.52645409 0.26544893 0.26069051
0.53955448 0.26807693 0.24932514
0.3806746 0.27206019 0.25272474
0.38131928 0.27407616 0.25115928
0.52790165 0.27124488 0.26034528
0.53104275 0.27341998 0.25822726
0.53845727 0.27262643 0.25178137
0.53983617 0.27285051 0.24980338
0.54132086 0.27463233 0.24777091
0.49493071 0.27387875 0.26926711
0.49924496 0.27504539 0.27037629
0.5027054 0.27657866 0.27061921
0.52863139 0.27658063 0.26021093
0.53176582 0.27783328 0.2581062
0.53635824 0.27958623 0.2542921
0.5397712 0.27762058 0.24992506
0.54109985 0.27728152 0.24803582
0.52851886 0.28050008 0.26050934
0.5318355 0.28261921 0.2582598
0.53602195 0.28290862 0.25433087
0.53932989 0.28200319 0.25017565
0.54083079 0.2819306 0.24786399
0.53211492 0.28739023 0.25803781
0.53532362 0.28766292 0.25470424
0.53721678 0.28878 0.25221312
0.53892773 0.2867316 0.24963295
0.54025459 0.28554153 0.24737912
0.53232574 0.29041731 0.25758275
0.53652346 0.29308915 0.25131586
0.53773052 0.29145184 0.24993229
0.53274155 0.29819429 0.2528604
0.53482658 0.29740882 0.25278026
0.53759575 0.29440373 0.24903037
0.52822196 0.30272201 0.25193813
0.5312531 0.30123913 0.2513077
0.53348833 0.29981855 0.2501204
0.48243612 0.30935282 0.25542998
0.49809459 0.30872023 0.2534816
0.50289816 0.30924585 0.25296643
0.50585365 0.30947697 0.25305372
0.52799278 0.30446592 0.24994066
0.5291658 0.30410215 0.24902831
0.49857211 0.31044134 0.25144425
0.5017367 0.31083304 0.25082523
0.40932274 0.33686301 0.2516709
0.41227624 0.3390753 0.25266591
0.43922663 0.34146634 0.25267944
0.44229996 0.34124184 0.25260523
0.44510937 0.34058067 0.25215995
0.41452131 0.34030744 0.25322288
0.41748825 0.34148118 0.25264814
0.42259622 0.34233674 0.25220191
0.42786887 0.34221071 0.25217274
0.43277133 0.34185642 0.25239679
0.43698266 0.34159288 0.25258982
0.43995929 0.34159905 0.25058174
0.42737782 0.34250954 0.25466043
0.41982731 0.20740363 0.2578288
0.42239204 0.20748861 0.25758669
0.4276605 0.20791797 0.25760248
0.43153524 0.2100196 0.25708079
0.43336299 0.21225478 0.25489154
0.39852932 0.21515889 0.25627944
0.40138823 0.21323989 0.2556015
0.43349156 0.21185815 0.25711656
0.43624389 0.21463813 0.25728396
0.43891591 0.21742825 0.25631636
0.3943879 0.21839495 0.25710633
0.39646932 0.21701148 0.25776494
0.44149798 0.21977364 0.25714755
0.44388485 0.22165808 0.25783601
0.38769007 0.22381268 0.25726467
0.39094806 0.22076249 0.25761306
0.44412261 0.2217046 0.2586948
0.44637334 0.22416618 0.25716352
0.38377807 0.22870648 0.25721663
0.38566178 0.2263324 0.25798973
0.45108137 0.22837482 0.2567299
0.45488298 0.23063427 0.25583267
0.49984506 0.23329945 0.25123361
0.50340223 0.23334114 0.25160456
0.50717461 0.2332177 0.25160965
0.50982344 0.23350774 0.25155482
0.38104466 0.23407575 0.25722003
0.38211694 0.23181304 0.25759643
0.45775884 0.23271288 0.25658891
0.46071434 0.23384114 0.25591058
0.47355053 0.2352303 0.25427425
0.47673982 0.2351917 0.25367585
0.49821284 0.23586589 0.25270396
0.50234145 0.23579799 0.25320414
0.50711811 0.23589508 0.25381115
0.51144814 0.23581469 0.25338843
0.51451594 0.23650202 0.25328171
0.37969676 0.2382502 0.25745484
0.38017106 0.23669018 0.2575565
0.45911291 0.23577522 0.25890374
0.46272424 0.23714966 0.25785375
0.46779212 0.23793299 0.25675523
0.47217911 0.23815069 0.25587147
0.47697034 0.23816316 0.25488305
0.48202151 0.23880291 0.25391096
0.48662987 0.24001239 0.25373149
0.49372056 0.23884448 0.25376195
0.4972755 0.23955269 0.25466105
0.50181693 0.24008223 0.25557873
0.50799417 0.23839585 0.25563943
0.5122965 0.2386727 0.25563052
0.51671463 0.23938259 0.25479189
0.52060777 0.24103977 0.25405446
0.37876788 0.2429789 0.25735492
0.37888843 0.24174285 0.25774369
0.46418634 0.24219917 0.25952068
0.46756175 0.24244313 0.25866288
0.4722968 0.24248315 0.25731382
0.47724876 0.24352628 0.25621283
0.48241702 0.24435896 0.25534931
0.48736563 0.24376932 0.25520036
0.49256045 0.24330492 0.25569069
0.49631938 0.24316204 0.25615028
0.50195748 0.2425475 0.25697374
0.51285207 0.24275939 0.25797728
0.51707613 0.242964 0.2568022
0.52145129 0.24383165 0.25528648
0.52500212 0.2452015 0.25407368
0.37808943 0.24798933 0.25640625
0.378326 0.24772504 0.25774705
0.37811321 0.24683441 0.25737369
0.4642688 0.24525699 0.26096997
0.467949 0.24640863 0.2597627
0.47231513 0.24716856 0.25836977
0.47788087 0.248079 0.25744933
0.48247033 0.24818613 0.25682342
0.48745543 0.24804282 0.25670201
0.4908866 0.2472425 0.25688061
0.51279402 0.24575929 0.25938958
0.51521033 0.24598755 0.25896293
0.52226907 0.24820009 0.25693426
0.5258624 0.24895112 0.25540775
0.52875865 0.24942963 0.25390041
0.3780078 0.25327563 0.25627375
0.37817103 0.25210112 0.25840804
0.37792245 0.2515845 0.25794637
0.37799621 0.25428078 0.25818643
0.46668619 0.25306755 0.26241812
0.46848664 0.25149211 0.26100177
0.47280991 0.25183794 0.25978217
0.47708014 0.25211298 0.25887781
0.48126477 0.25103524 0.25821781
0.48659572 0.25190765 0.25867569
0.51959419 0.25293401 0.26051942
0.52253884 0.25276935 0.2590858
0.52664751 0.25331822 0.25686544
0.52979428 0.2538245 0.25478381
0.3782618 0.25719884 0.25719434
0.37858275 0.25898781 0.25905517
0.37804028 0.25669575 0.25735518
0.37801471 0.25771195 0.25591508
0.46428791 0.25712073 0.26507437
0.46624285 0.25618705 0.26416007
0.46943954 0.25598666 0.26267785
0.47351947 0.25594756 0.26156607
0.47716919 0.25656876 0.26125309
0.49682152 0.25668198 0.26330501
0.51639158 0.25836939 0.26387832
0.52408892 0.25793612 0.26014382
0.52682334 0.25761923 0.25828096
0.5304597 0.25740451 0.25536612
0.5330987 0.25936878 0.25372446
0.37849987 0.26048905 0.25621209
0.37871027 0.26269877 0.25748107
0.37825611 0.26041034 0.25600195
0.46409363 0.26014012 0.26645705
0.46662617 0.26028088 0.26564515
0.46999019 0.26005951 0.26446784
0.47381049 0.25992805 0.26354909
0.47690141 0.26003385 0.26331809
0.48847976 0.26182973 0.26410505
0.49219599 0.26006302 0.26394805
0.49569204 0.25940612 0.26404148
0.51383042 0.26181599 0.26553893
0.51877064 0.26147455 0.26400352
0.52433681 0.26171231 0.26088238
0.52688539 0.2625685 0.25936452
0.53391844 0.26328903 0.25383928
0.53676432 0.26544428 0.25182092
0.37940335 0.26733816 0.25720885
0.46479914 0.26379943 0.26775438
0.46693769 0.26492852 0.26742047
0.47069466 0.26428461 0.2667897
0.51364571 0.26427406 0.26606506
0.52063274 0.26619139 0.26430935
0.5247854 0.26558322 0.26132324
0.52649933 0.26674044 0.2602596
0.53460515 0.2678172 0.25393391
0.53668064 0.26889887 0.25238523
0.38048872 0.27188671 0.25726002
0.38106254 0.27388203 0.25865927
0.46800873 0.26748943 0.26841676
0.51629591 0.27165318 0.26675549
0.52103782 0.27135983 0.26470202
0.52478749 0.27272719 0.26257125
0.53481048 0.27391997 0.25446507
0.5369792 0.27331564 0.25311354
0.38139996 0.27469501 0.25739843
0.38124591 0.27507004 0.25917956
0.49334523 0.27667385 0.26931244
0.4975701 0.27839783 0.27017051
0.51527184 0.27656403 0.26746991
0.52035356 0.27697539 0.26545638
0.52529764 0.27778184 0.2626175
0.53534198 0.27744761 0.2547172
0.53726745 0.27765143 0.25301582
0.49294239 0.28225884 0.26910442
0.49798158 0.28289512 0.26996282
0.50311911 0.28261113 0.27060834
0.52577364 0.28266591 0.26242149
0.52864248 0.28413987 0.26058662
0.5354588 0.28265202 0.25461003
0.5372473 0.28223643 0.25303861
0.49387145 0.28566897 0.26868796
0.49900079 0.2881 0.26889086
0.5025056 0.28802133 0.26955774
0.52642959 0.28613982 0.26189283
0.52871239 0.28761575 0.2604835
0.53483546 0.28774828 0.25479326
0.53694278 0.28651667 0.25262889
0.53223336 0.2924394 0.25686347
0.53479528 0.29186085 0.25453746
0.53652704 0.28986827 0.25259677
0.52785182 0.29841191 0.25677297
0.53120995 0.29697308 0.25580928
0.53423005 0.29536289 0.25418508
0.46868098 0.30465063 0.26016578
0.47203293 0.30378562 0.26056749
0.4786132 0.30459192 0.25981292
0.49689832 0.30340898 0.25866383
0.52797639 0.29981801 0.25536096
0.52964377 0.29931134 0.25439864
0.49464828 0.30398974 0.25766513
0.49730542 0.30544943 0.25653559
0.5007627 0.30737719 0.25539556
0.41192645 0.33878747 0.25703871
0.43895516 0.34151259 0.25687453
0.44185719 0.34136888 0.25645384
0.44496948 0.341102 0.25661913
0.4141461 0.340161 0.25740626
0.41765556 0.34178466 0.25776362
0.42196092 0.34290308 0.25698915
0.42806837 0.34249797 0.25520721
0.43319705 0.34190741 0.25592101
0.43735185 0.3417663 0.25754151
0.44213596 0.34162545 0.25851968
0.44538215 0.34158981 0.25878662
0.42348754 0.34329796 0.25763369
0.42753744 0.34272683 0.25625995
0.43071243 0.34208807 0.25623628
0.42270723 0.20888913 0.2626853
0.4274992 0.20874768 0.26216754
0.43145618 0.21019047 0.26215774
0.41932699 0.20964608 0.26326153
0.42070177 0.20971777 0.26417422
0.43370184 0.21173413 0.26196626
0.43631822 0.21422964 0.26200777
0.39479128 0.21916591 0.26133591
0.39598304 0.21806461 0.26068386
0.4390099 0.21662132 0.26245522
0.4412145 0.21875429 0.26198632
0.38884169 0.22419859 0.26224986
0.39220309 0.22147916 0.2626501
0.44394597 0.22143295 0.26277447
0.44652885 0.22427036 0.26213872
0.38453609 0.22999649 0.26187113
0.38639048 0.22702202 0.26252946
0.44853154 0.2264806 0.26215523
0.45085844 0.22899306 0.26142552
0.45361352 0.23143062 0.26033649
0.38161531 0.23539847 0.26071623
0.38316685 0.23292735 0.26223016
0.38428953 0.23111489 0.26369369
0.45590621 0.23412892 0.26093405
0.38097116 0.23831256 0.26191962
0.38176292 0.23658629 0.26307952
0.45826384 0.23818757 0.26187855
0.46005771 0.23926945 0.2606335
0.49948832 0.24198399 0.25619864
0.50254017 0.24075761 0.25611433
0.50683439 0.24086159 0.25688362
0.51066953 0.2411093 0.2571311
0.37985158 0.24287283 0.26214355
0.38021544 0.24147169 0.26299694
0.45845953 0.24115771 0.26361218
0.46077752 0.24310285 0.26195365
0.49510571 0.24662641 0.25742006
0.49856237 0.24501358 0.25729403
0.50209349 0.24484754 0.25792241
0.50739479 0.24469848 0.25885099
0.51178199 0.24462055 0.25894126
0.51666826 0.24562922 0.25835314
0.5199393 0.24624591 0.25719714
0.37922764 0.24776821 0.26234552
0.37938461 0.24680042 0.26298106
0.45999518 0.24745025 0.26496387
0.46271795 0.24753438 0.2620402
0.46677476 0.24902485 0.26100749
0.47369853 0.25000989 0.25855166
0.47581255 0.24940601 0.25798771
0.48265219 0.25098914 0.25806925
0.48940387 0.24970175 0.25772804
0.49299094 0.24910182 0.25798652
0.49794862 0.24916741 0.2589241
0.50228667 0.24911647 0.25987157
0.50723135 0.24926876 0.26078823
0.5127601 0.24906726 0.2606999
0.51671839 0.24875754 0.25960696
0.52083296 0.24914815 0.25801653
0.52392972 0.2495773 0.2567746
0.3789126 0.25252315 0.26204273
0.37880442 0.2513811 0.26277506
0.46108082 0.25121719 0.2650995
0.46366763 0.25158894 0.26351127
0.46726286 0.25266519 0.26203522
0.47190502 0.25363943 0.26037231
0.47695792 0.25378823 0.25931165
0.48200905 0.25325251 0.25918964
0.48736686 0.25400957 0.25980604
0.49242482 0.25303337 0.25982964
0.49787602 0.25349966 0.26108369
0.50229609 0.25316525 0.26177788
0.50753576 0.25318494 0.26262119
0.51233965 0.25292212 0.26253667
0.51749307 0.25235912 0.26094633
0.52176815 0.25328147 0.25950235
0.52552354 0.25517586 0.25816777
0.37855431 0.25712383 0.25993919
0.37892285 0.25743127 0.26213956
0.37837741 0.25500953 0.26067555
0.46282864 0.25540107 0.26527202
0.46453124 0.25481218 0.26450604
0.46750304 0.25643796 0.26397833
0.47156373 0.25732473 0.26236078
0.47748592 0.25742307 0.2612372
0.48214766 0.25708055 0.26114929
0.48744002 0.25703582 0.26148659
0.49250716 0.25724304 0.26223096
0.49750856 0.25771821 0.26325223
0.50753939 0.25733089 0.26424217
0.51283789 0.25690055 0.26409119
0.51829952 0.25686929 0.26256117
0.52192152 0.25687164 0.26095003
0.52547395 0.25841284 0.25920081
0.52878249 0.25961331 0.25709444
0.53125566 0.26062685 0.25549373
0.37915275 0.26236096 0.26216438
0.46325189 0.26031575 0.26704177
0.47895253 0.26195133 0.26403442
0.48289126 0.26155156 0.26339972
0.48721507 0.26121017 0.26347357
0.4926286 0.26193148 0.26441202
0.49672011 0.26196566 0.26471227
0.50481611 0.26343176 0.26616186
0.50747627 0.26186982 0.26598102
0.51241863 0.25983942 0.26529902
0.51942831 0.2615571 0.26350936
0.52195758 0.26175857 0.26230907
0.5269987 0.26248398 0.25913864
0.52865273 0.26340461 0.25807893
0.53155673 0.26453421 0.25597504
0.37981322 0.26733485 0.26227885
0.46417812 0.26415434 0.26828581
0.47971985 0.26461715 0.26559618
0.48309532 0.26498446 0.26523438
0.48745218 0.2655625 0.26548153
0.49157983 0.2651453 0.26550132
0.4957816 0.2649737 0.26566797
0.50833672 0.26639423 0.26700324
0.51380914 0.26706931 0.26662752
0.51854807 0.26703554 0.26517934
0.52264726 0.26772752 0.26308236
0.52908957 0.26825061 0.25818387
0.53203237 0.26882499 0.25598422
0.3803809 0.27105469 0.26166588
0.3809168 0.27294824 0.26269948
0.5095011 0.26994285 0.26775637
0.51294005 0.27057412 0.26729718
0.51815832 0.27047905 0.26572743
0.52260399 0.27090859 0.26347259
0.5294174 0.27319065 0.25856575
0.5323357 0.27317968 0.25629616
0.38161877 0.27597499 0.26265568
0.51576364 0.27890834 0.26731512
0.5186218 0.27919015 0.26627401
0.52984858 0.27767003 0.25871071
0.53237802 0.27795002 0.25677988
0.49315003 0.28514466 0.26858935
0.5150618 0.28111985 0.26758417
0.51937205 0.28245008 0.26584977
0.52271956 0.2838769 0.26405618
0.52979428 0.28273523 0.25904655
0.53268176 0.28229266 0.25679922
0.49400446 0.28639928 0.26844493
0.49696103 0.28818968 0.26838508
0.52017379 0.28564012 0.2652517
0.52327257 0.28686714 0.2636171
0.52731919 0.28917512 0.26102301
0.52998018 0.28748932 0.25909087
0.5327239 0.28646329 0.25662369
0.52686656 0.29251766 0.26091638
0.52943182 0.29197493 0.25937411
0.46484861 0.30000204 0.26493379
0.46875367 0.29921955 0.2646786
0.47278565 0.29861677 0.26484966
0.47749349 0.29887119 0.26466367
0.48206484 0.29908392 0.2637704
0.48709765 0.29846177 0.26240566
0.49470291 0.29853937 0.26261938
0.49787232 0.29839996 0.26269892
0.50092494 0.29844809 0.26287082
0.52214712 0.29640397 0.26080206
0.5263595 0.29627997 0.25962558
0.52895832 0.2954846 0.25836626
0.46469805 0.3011446 0.26399252
0.46734864 0.3019678 0.26248479
0.47271588 0.30202091 0.26204896
0.47757611 0.30225816 0.26178536
0.48250484 0.30123988 0.26215065
0.48745731 0.30041838 0.26138827
0.49271035 0.30028901 0.26114139
0.49740043 0.30098227 0.26076475
0.50197077 0.30011368 0.26149639
0.50553709 0.29979783 0.26157108
0.52032202 0.29833558 0.26026627
0.49478033 0.30311763 0.25852212
0.49629164 0.30355451 0.2584694
0.4132314 0.339957 0.26223281
0.41491652 0.34104386 0.26464587
0.41488874 0.34042087 0.26070011
0.41751325 0.34205157 0.26252025
0.42082572 0.34363824 0.26201719
0.43860883 0.34212294 0.26110941
0.44244367 0.34226879 0.26250646
0.44608817 0.34288296 0.26296616
0.42413759 0.21018225 0.26566231
0.42748022 0.21046841 0.26618013
0.43037233 0.210805 0.26564717
0.41858378 0.21269694 0.26780462
0.42233095 0.21167523 0.26772299
0.42754599 0.2117442 0.26848111
0.43234369 0.21213847 0.26748517
0.43618667 0.21391095 0.26674217
0.41765085 0.21497563 0.27009469
0.43849882 0.21616609 0.26760051
0.44106311 0.21825647 0.26728505
0.39000389 0.22545657 0.26651675
0.39179012 0.22385663 0.26694044
0.44365206 0.22126785 0.26764765
0.44632986 0.22425905 0.26752356
0.38828203 0.22798707 0.2669974
0.4479703 0.22645158 0.267313
0.45035762 0.2295623 0.26629549
0.45269665 0.23207894 0.2649816
0.38418087 0.23367606 0.26622754
0.3858653 0.23217028 0.26786059
0.45229986 0.23291461 0.26754662
0.45388606 0.23458973 0.26570335
0.3820124 0.2397089 0.26584104
0.38300717 0.23743086 0.26724955
0.38425416 0.23630218 0.26912144
0.45574674 0.23866636 0.26620916
0.38128376 0.24321638 0.26688391
0.38171455 0.24169523 0.267986
0.3828567 0.24067816 0.27000493
0.45769435 0.24291345 0.26636717
0.38046765 0.24783932 0.26683578
0.38075382 0.24688923 0.26870948
0.45826057 0.24701367 0.26840737
0.49921069 0.25130317 0.26013246
0.50222552 0.2516093 0.26092708
0.50762022 0.25222307 0.26220882
0.5115723 0.25150129 0.26188371
0.38003165 0.25262639 0.26673022
0.38025081 0.25039372 0.26798007
0.45914012 0.25095934 0.26908243
0.46086264 0.25365171 0.26719439
0.48884198 0.2564857 0.26093525
0.49331445 0.25616059 0.2613782
0.49818361 0.25526881 0.26178569
0.50253946 0.25509921 0.26261809
0.50766343 0.25436029 0.26316807
0.5119074 0.25464371 0.26311675
0.51576 0.25524348 0.26248059
0.37981525 0.25738725 0.26674995
0.46271762 0.25748739 0.26735055
0.46713695 0.2588177 0.26566687
0.47169766 0.25962371 0.26387915
0.47665128 0.25975484 0.26265356
0.48251313 0.25964978 0.26203558
0.48734823 0.25922716 0.26214403
0.49293032 0.25928584 0.262797
0.49725661 0.25908068 0.26345181
0.50228268 0.25808612 0.26389661
0.50526589 0.25821847 0.26450187
0.5166443 0.25803337 0.26334324
0.52014011 0.25954551 0.2625446
0.52296054 0.25982687 0.26122084
0.37998089 0.26231608 0.26711914
0.46410981 0.26156524 0.26900259
0.46707025 0.26272863 0.26781067
0.47160208 0.26326713 0.26631913
0.47663465 0.26355532 0.26505172
0.48192418 0.26389611 0.26448527
0.48727953 0.26361036 0.264029
0.49191079 0.26287317 0.26410407
0.49878603 0.26363602 0.26552632
0.50222194 0.26256579 0.26565909
0.5209446 0.26334295 0.26307252
0.5233227 0.26424178 0.26177332
0.52657962 0.26505974 0.25977665
0.38027257 0.26670533 0.26645815
0.38093746 0.26822925 0.26823351
0.46802595 0.26575959 0.2692112
0.47223657 0.26683879 0.26845521
0.47675663 0.26751494 0.26751289
0.48206657 0.26814061 0.26699215
0.48606297 0.26766467 0.26614296
0.49894667 0.26587301 0.26630548
0.50348347 0.26544818 0.26672035
0.52348882 0.26869991 0.26248929
0.52700937 0.26909903 0.25988764
0.38082242 0.27009708 0.26539716
0.38181224 0.27245954 0.26756817
0.47934738 0.27093881 0.26887485
0.48251319 0.2719855 0.2686871
0.51625454 0.27119797 0.2664887
0.52153689 0.27160993 0.26413745
0.52404237 0.27302149 0.26266915
0.52707505 0.27354243 0.26045841
0.38332847 0.27703032 0.26771244
0.47830671 0.27895385 0.27108812
0.48157653 0.27772486 0.27027991
0.52454317 0.2775197 0.26281008
0.52724677 0.27809492 0.26080891
0.38528815 0.28034851 0.26927909
0.47325635 0.28435814 0.27184355
0.47841901 0.28293794 0.27082828
0.48205808 0.28258118 0.26951292
0.48548439 0.2833524 0.26884618
0.51496714 0.28331247 0.26742938
0.51711458 0.2838065 0.26669216
0.52450228 0.28286806 0.26308545
0.52713609 0.28216425 0.26102841
0.4692727 0.28858563 0.27075237
0.47276673 0.28782487 0.27039063
0.47758195 0.28749761 0.26929069
0.48235941 0.28736544 0.26769873
0.48649594 0.28772229 0.2671771
0.49071938 0.28916222 0.2670103
0.51735502 0.28519022 0.26648864
0.52143133 0.2870383 0.26460624
0.52433747 0.28700432 0.26293647
0.52753615 0.28640077 0.26083142
0.46333253 0.29434478 0.27003777
0.46783876 0.29280734 0.26866573
0.47265089 0.29262602 0.2682589
0.47744694 0.29266161 0.26744339
0.48244944 0.29215935 0.2660647
0.48763084 0.29172537 0.26569742
0.49225536 0.291969 0.26609743
0.49684256 0.29283968 0.26600549
0.50243968 0.29323077 0.26601407
0.51355124 0.29242957 0.26563564
0.51661259 0.29224148 0.26525453
0.52048659 0.29109216 0.26433221
0.52445281 0.29160425 0.26252711
0.46391991 0.29709882 0.26754957
0.46717519 0.29701334 0.26639944
0.4722037 0.29616404 0.26646614
0.47789118 0.29638189 0.26600716
0.4824129 0.29648855 0.26455304
0.48717177 0.29628566 0.26366794
0.49252757 0.2961323 0.26395074
0.49740911 0.2959404 0.26431128
0.50242645 0.29603177 0.26452336
0.50708652 0.29604208 0.26457185
0.51187998 0.29566607 0.26461563
0.51626247 0.29534283 0.26403049
0.52053016 0.29516265 0.26240796
0.52410197 0.29448384 0.26146448
0.46415454 0.30043307 0.26480979
0.49217191 0.29857722 0.26230982
0.50426668 0.29857379 0.2625894
0.50721264 0.29837906 0.26267967
0.51208317 0.29811332 0.26275644
0.51614863 0.29836497 0.26195753
0.51887476 0.29785314 0.26120871
0.41676417 0.34243599 0.26602423
0.44356674 0.34337091 0.26697758
0.44599938 0.34414262 0.26742923
0.44826379 0.34540838 0.26804531
0.45157814 0.34747431 0.26960695
0.45447004 0.34987375 0.26945454
0.45650223 0.35154465 0.26994011
0.42292997 0.21412686 0.27132741
0.42746973 0.21372302 0.27176869
0.43218341 0.2143389 0.27208021
0.43561083 0.2148933 0.27079892
0.41808951 0.21677437 0.27215579
0.42190793 0.21657169 0.27381998
0.4274039 0.21548851 0.27436295
0.43422598 0.21585971 0.27362201
0.43778709 0.2170582 0.2724981
0.44066879 0.2190281 0.2719788
0.39199364 0.22569273 0.26976708
0.41400328 0.22185916 0.27417114
0.41686553 0.2206383 0.27502227
0.41999981 0.21975359 0.27602041
0.44320488 0.22196062 0.27272168
0.44550905 0.22412777 0.27116764
0.39000079 0.22915331 0.27114287
0.39160326 0.2264474 0.27058208
0.41334021 0.2247645 0.27566716
0.41593719 0.22359133 0.27655062
0.44470176 0.22478512 0.2746022
0.44716766 0.22688307 0.27216104
0.44957137 0.23013343 0.27096179
0.38711902 0.23508346 0.27273968
0.38753885 0.23295674 0.2714709
0.45121068 0.23352231 0.27169946
0.45318681 0.23572411 0.26949909
0.38404012 0.23875646 0.27124828
0.38524234 0.23709346 0.27141109
0.45282069 0.23722368 0.27220684
0.45418444 0.23927416 0.27088761
0.38194618 0.24377383 0.27053905
0.38318971 0.2423647 0.2721256
0.38422224 0.24314949 0.27332401
0.45447031 0.24290641 0.27523035
0.4553735 0.24295989 0.27210769
0.38130933 0.2481181 0.27130803
0.38156557 0.24721485 0.27320006
0.38378099 0.24600901 0.27411929
0.45595548 0.24587876 0.27456498
0.45710942 0.24712445 0.27175638
0.38098428 0.25254947 0.27165291
0.38148668 0.25002238 0.2738626
0.45753941 0.25102776 0.27586311
0.45839095 0.25202009 0.27312937
0.45997363 0.25497264 0.27057153
0.50411791 0.2567659 0.26366481
0.50760847 0.2565138 0.264157
0.51154619 0.25711817 0.26415735
0.38078362 0.25733557 0.27176398
0.45941159 0.25618404 0.27390119
0.46077397 0.25800654 0.27228072
0.49378902 0.26199377 0.26399347
0.49890462 0.26082611 0.26442179
0.50297123 0.26007932 0.26471582
0.50741696 0.25999105 0.26536262
0.51145095 0.25993744 0.26523995
0.51515669 0.26047018 0.26457703
0.51852328 0.26116425 0.26362938
0.38091889 0.26186612 0.27177227
0.38147613 0.26412153 0.27300712
0.46284553 0.26265761 0.27253649
0.46585536 0.26478824 0.26972052
0.48910129 0.2663137 0.26541513
0.49323648 0.26484212 0.26490864
0.49792799 0.26433933 0.26550084
0.50292331 0.26425111 0.26620856
0.50754452 0.26434523 0.26662788
0.5113616 0.26445934 0.26654539
0.51501387 0.26456487 0.26593891
0.5188632 0.26451442 0.26432964
0.52145439 0.26542222 0.26317874
0.3815262 0.26502565 0.27252322
0.381944 0.26768515 0.27249122
0.46414778 0.26692933 0.27369276
0.46710011 0.26769716 0.27091864
0.47174573 0.26884374 0.26967257
0.47715932 0.26974398 0.26872587
0.48233363 0.27033395 0.26812506
0.48803937 0.26931462 0.2665751
0.49278015 0.26901647 0.26643088
0.49791288 0.26899403 0.26692224
0.50264156 0.26892996 0.26739523
0.50670338 0.26755872 0.26738742
0.51185757 0.26776856 0.26703832
0.51525378 0.2690455 0.26663899
0.51913309 0.26874587 0.26507977
0.52154309 0.26822272 0.26368287
0.38332829 0.2725479 0.27257144
0.46632743 0.27177745 0.27529573
0.46788713 0.27234912 0.27263877
0.47254813 0.27250424 0.27106869
0.47734609 0.27270302 0.27031526
0.48224264 0.27299267 0.26903561
0.48742408 0.27314869 0.26815367
0.49264371 0.27344725 0.26753518
0.4977701 0.27334854 0.26765472
0.50171739 0.2730259 0.26797584
0.51316613 0.2710188 0.26718289
0.5157885 0.27315649 0.26670042
0.51923245 0.27319312 0.26555291
0.52218086 0.27409399 0.26419523
0.38436773 0.27639687 0.27117392
0.38588902 0.27810353 0.2732285
0.46692723 0.27661419 0.2758081
0.46912807 0.27708074 0.2738975
0.47312981 0.27733904 0.27251405
0.47774085 0.27735376 0.27142191
0.48268089 0.27749789 0.26989356
0.48709175 0.27772364 0.26913968
0.49241677 0.2778171 0.2685937
0.49760711 0.27788502 0.26828131
0.50112951 0.27763659 0.26836881
0.51551259 0.27787375 0.26724496
0.51901865 0.27780128 0.26606083
0.52264988 0.27814007 0.26409295
0.38782802 0.28241265 0.27241862
0.46400815 0.28306341 0.27665761
0.46513158 0.28202432 0.27531573
0.46862802 0.2823475 0.27362651
0.47328493 0.28221169 0.27264428
0.47723469 0.2819632 0.2712988
0.48396736 0.28223872 0.26913816
0.48768237 0.28231001 0.26890549
0.49244931 0.28250706 0.26843143
0.49766535 0.28238538 0.26807898
0.50188601 0.28249416 0.26841801
0.5065074 0.28432259 0.26850107
0.51206928 0.28308457 0.26820052
0.51560998 0.28245312 0.26736295
0.51946294 0.28223744 0.26585463
0.5227316 0.28168315 0.2641052
0.38983053 0.28658301 0.27298662
0.39060158 0.28837526 0.2740638
0.46022457 0.28638709 0.27536926
0.46295002 0.28757331 0.2732667
0.46722332 0.28720224 0.27182302
0.4717367 0.28599769 0.27148905
0.48850179 0.28617764 0.26776284
0.4927614 0.28688663 0.26731709
0.49770907 0.2868287 0.26755139
0.50236726 0.28664666 0.26805478
0.50708884 0.28689221 0.26814458
0.51176465 0.28666538 0.26794669
0.51581997 0.28675902 0.26707938
0.51927167 0.28675601 0.2659137
0.52222478 0.28458345 0.26428983
0.39147353 0.29237902 0.27350047
0.46306282 0.29181981 0.27118438
0.46627253 0.29131016 0.26984975
0.49412149 0.29001242 0.26682281
0.49796519 0.29049891 0.26676649
0.50252128 0.2908015 0.26688394
0.50715309 0.29083687 0.26703957
0.51151621 0.29071108 0.26683441
0.51573944 0.29011172 0.26605815
0.51839179 0.28977257 0.26541877
0.39235136 0.2976087 0.2733666
0.50788683 0.29373574 0.26569313
0.51099068 0.29326814 0.26567915
0.39307794 0.30256081 0.27308249
0.39389709 0.30486968 0.27449709
0.39417076 0.30693355 0.27291116
0.39449769 0.30787945 0.27331486
0.39554071 0.3119258 0.27378809
0.39633438 0.31547794 0.27460122
0.44449914 0.34472209 0.27056119
0.44790387 0.346993 0.27206179
0.45156828 0.34876367 0.27225405
0.45377997 0.35092154 0.27310655
0.45701131 0.35336173 0.27259153
0.4589954 0.35590968 0.27434769
0.46048811 0.35696584 0.27393234
0.42909783 0.21572557 0.2746723
0.42386016 0.21825664 0.27660137
0.42758465 0.21770677 0.27696148
0.43230781 0.21757792 0.27643505
0.43699941 0.21937895 0.27646607
0.44021097 0.22049247 0.27530059
0.4190734 0.22205618 0.27723324
0.42142886 0.21990535 0.27692163
0.43856713 0.22168671 0.2781004
0.44146919 0.22303647 0.27729115
0.38995832 0.23139101 0.2742255
0.41264886 0.22755755 0.27712807
0.41707835 0.22618182 0.27875623
0.42018354 0.22553407 0.28025746
0.44356129 0.22609666 0.2779977
0.44649372 0.2286119 0.2766006
0.4487426 0.23083223 0.27442926
0.38807699 0.23565882 0.27474225
0.38898322 0.23363969 0.27478826
0.40977505 0.23321237 0.27893323
0.41215402 0.23196462 0.27911538
0.41636106 0.23052466 0.28060964
0.44810873 0.23203535 0.27692294
0.44963491 0.23427682 0.27585739
0.38670269 0.23806544 0.27424973
0.41211689 0.23487695 0.28050941
0.44723007 0.23440093 0.28110301
0.44938388 0.23629889 0.27895516
0.45154622 0.2386418 0.27638713
0.45287231 0.24081418 0.27549556
0.38583341 0.24109083 0.27477148
0.44801921 0.23763765 0.282408
0.45093271 0.24021478 0.28020859
0.4529489 0.24251574 0.27748352
0.45391548 0.24340202 0.27541542
0.3816666 0.24915174 0.27498931
0.38499922 0.24636605 0.27557164
0.45236894 0.24410132 0.28102127
0.45429674 0.24661049 0.27881935
0.45507845 0.24641575 0.27608782
0.3813374 0.25463918 0.27429542
0.45602331 0.25083554 0.27952573
0.45727026 0.25294131 0.27789661
0.38136676 0.25700301 0.27454749
0.3815966 0.25821236 0.27488253
0.45864001 0.25701296 0.27778968
0.46018955 0.25877273 0.27563632
0.38162059 0.26031944 0.27445653
0.38188356 0.26238045 0.27493402
0.4604868 0.26133499 0.27936336
0.46138352 0.26203978 0.27690023
0.5089249 0.26622617 0.26716417
0.51146454 0.26629645 0.26709667
0.38294917 0.26875818 0.27539113
0.46267036 0.26474625 0.28124857
0.46359682 0.26644072 0.27824345
0.50452816 0.27042726 0.26782519
0.50750917 0.26927161 0.26769602
0.51134866 0.26918554 0.26726845
0.51356947 0.26914927 0.26691118
0.38416025 0.27220178 0.27519402
0.38495731 0.27384841 0.27581584
0.46640378 0.27100566 0.28229967
0.46568945 0.2703276 0.27892891
0.50371075 0.27382612 0.26824901
0.50721198 0.27349526 0.26823714
0.5112657 0.27326274 0.26777166
0.51417369 0.27348 0.26728234
0.38710102 0.27815428 0.27631691
0.38852778 0.27923036 0.27776036
0.46660835 0.27549762 0.28157073
0.46681413 0.27528593 0.27767634
0.50346351 0.27784309 0.26858988
0.50700396 0.27772051 0.268646
0.51134622 0.27768597 0.26824468
0.51475209 0.27740523 0.26750693
0.38922867 0.28216687 0.27616602
0.39046493 0.28291315 0.27868441
0.46438742 0.28036577 0.27897304
0.4666701 0.27891001 0.27766153
0.50348324 0.28140703 0.26864764
0.50713658 0.28215563 0.26863179
0.51093203 0.28163728 0.26836422
0.51409423 0.28110448 0.26785108
0.39026776 0.28633404 0.27529702
0.3912887 0.28758398 0.27771348
0.50756025 0.28475764 0.26839435
0.51059943 0.28469524 0.26823539
0.39215487 0.29252434 0.27747962
0.39284545 0.29739121 0.27763283
0.39367291 0.30215672 0.27756479
0.39414424 0.3045302 0.27801511
0.39471152 0.30770355 0.27751628
0.39578256 0.31261453 0.27742803
0.39679915 0.31722394 0.27771032
0.39865816 0.32084942 0.27887437
0.44876862 0.34922189 0.27595377
0.45043421 0.34998056 0.27640018
0.45257267 0.35166675 0.27742535
0.45604628 0.35450402 0.27702263
0.45822185 0.35664487 0.27778476
0.46094903 0.35875273 0.27732548
0.46362051 0.36108401 0.27838248
0.46657383 0.3632533 0.27884734
0.46896836 0.36475086 0.27881366
0.47237784 0.36631277 0.27886745
0.47628155 0.36770874 0.27917436
0.42853817 0.22012052 0.27929762
0.43247139 0.22062494 0.27941307
0.43554795 0.22121799 0.27927569
0.42767918 0.22306018 0.28147858
0.43197098 0.22356112 0.28199115
0.43694529 0.22391298 0.28112465
0.43976134 0.22530128 0.28073654
0.42319566 0.22790389 0.2832576
0.42720354 0.22687821 0.28399307
0.43080258 0.22642431 0.28399056
0.43879223 0.22720039 0.28303865
0.44173393 0.22814628 0.2817356
0.44515282 0.23001358 0.27962673
0.38967109 0.23455678 0.27633312
0.40976977 0.23462693 0.27939767
0.41274726 0.23453794 0.28067771
0.41821671 0.23227438 0.28280142
0.42205614 0.23146693 0.28481355
0.42534745 0.23010366 0.285422
0.44283715 0.23237184 0.28377941
0.44635659 0.23370631 0.28080717
0.44858754 0.23577428 0.27917883
0.40992105 0.23582596 0.27999714
0.41255885 0.23726714 0.28201365
0.41692266 0.23645304 0.28406879
0.42120817 0.23507367 0.2865544
0.4436999 0.23560441 0.28535983
0.44688162 0.23744997 0.28303096
0.44954571 0.23923676 0.28030029
0.4136748 0.24004179 0.28486609
0.41602427 0.23999402 0.28538159
0.44772655 0.23876913 0.28368109
0.44914204 0.24149978 0.28376791
0.45117569 0.24343531 0.28126702
0.45116082 0.24490222 0.28363439
0.45272151 0.24770539 0.28268784
0.45458061 0.25142935 0.28333443
0.45617568 0.25462216 0.28225723
0.45646691 0.25640512 0.28213909
0.45549533 0.25467658 0.28459871
0.45759588 0.25713277 0.28264362
0.45975301 0.26129124 0.28331155
0.46193239 0.26498422 0.28436846
0.4634622 0.26676852 0.28237644
0.46475479 0.26841611 0.28535107
0.46471113 0.26865116 0.28255707
0.46670702 0.27159065 0.286468
0.39208627 0.28397402 0.28236836
0.39285111 0.28345147 0.2840797
0.39271718 0.28757852 0.28262886
0.39306074 0.29242384 0.28231168
0.39365435 0.29735872 0.28254148
0.39413887 0.30211058 0.28244165
0.39444166 0.30435446 0.28193465
0.39473927 0.30509216 0.28473842
0.39505604 0.30779013 0.28245157
0.39603701 0.31261098 0.28248337
0.39727244 0.31765795 0.28259125
0.39833817 0.32248828 0.28239983
0.4002915 0.32539994 0.28363016
0.45323953 0.35318649 0.28214589
0.45530465 0.35502675 0.28146368
0.45763171 0.35743505 0.28236017
0.46048823 0.35969126 0.28149757
0.46311566 0.36201009 0.28225759
0.46586099 0.36393088 0.28180054
0.46859318 0.36576852 0.28257275
0.47269315 0.36776972 0.28270352
0.4771969 0.36891726 0.28263131
0.48058096 0.36937043 0.28411585
0.4796024 0.36922279 0.28295183
0.4333227 0.22573783 0.28336829
0.43561441 0.22622027 0.28341833
0.42865661 0.22925116 0.28569496
0.43243784 0.22870748 0.2855446
0.43678868 0.22895986 0.28494191
0.43995789 0.23031811 0.28470027
0.42441952 0.2329026 0.28671798
0.42756173 0.23242033 0.28751838
0.43223009 0.23229609 0.28782502
0.43753624 0.23276581 0.2873185
0.44062394 0.23301506 0.2858381
0.41895866 0.23855285 0.28705445
0.42282376 0.23674159 0.28846914
0.42654335 0.23635004 0.28968394
0.43875313 0.23648065 0.289148
0.44253775 0.23759958 0.28748685
0.44643015 0.23979805 0.28518879
0.44898331 0.24143164 0.28337893
0.41381732 0.24112612 0.28610942
0.41737732 0.24165392 0.28786132
0.42191362 0.24114132 0.29045159
0.42529625 0.23975384 0.29119143
0.44284165 0.24070111 0.28920332
0.44691125 0.243136 0.28714228
0.44944215 0.24423288 0.2850017
0.42105234 0.24364589 0.29155889
0.44823962 0.24671052 0.28836554
0.45067811 0.24820833 0.28677383
0.45294127 0.25273877 0.28726941
0.4553071 0.25592771 0.28573561
0.45648837 0.25815004 0.28545639
0.4547134 0.25634098 0.28866649
0.45621774 0.25768104 0.28707302
0.45648211 0.2586365 0.28718528
0.45814988 0.26108107 0.28890839
0.46071488 0.26420376 0.2895973
0.46366745 0.26707092 0.29105014
0.46631995 0.27046776 0.29253286
0.39369944 0.284771 0.28601152
0.3937968 0.2848832 0.28621575
0.39400807 0.28759441 0.28655934
0.39455816 0.28798929 0.2885249
0.39410013 0.29227546 0.28738561
0.39475951 0.29059666 0.28983921
0.39429596 0.29709932 0.28737935
0.3946515 0.30227482 0.28740802
0.39509347 0.30595571 0.28820446
0.39536566 0.30820903 0.28701788
0.39623666 0.31271142 0.28749761
0.39757597 0.31784523 0.28777444
0.39884588 0.3226085 0.2872594
0.3991774 0.3233254 0.28874564
0.40043947 0.32631946 0.28642157
0.40036309 0.32801816 0.28849441
0.40236786 0.33003157 0.28875381
0.45380437 0.35436243 0.28562179
0.45506701 0.35553437 0.28506637
0.45424151 0.35519835 0.28813991
0.45726061 0.35822356 0.28726003
0.45978048 0.36003411 0.28502035
0.46209866 0.36259612 0.28700823
0.46464148 0.36498478 0.28810549
0.46803656 0.36706871 0.28761619
0.47266737 0.36905852 0.28696892
0.47700909 0.37009108 0.28706837
0.47969046 0.37068599 0.28905284
0.47265792 0.36974961 0.28940466
0.47782284 0.3704446 0.28815356
0.48085207 0.37020102 0.28764272
0.42972982 0.23540102 0.28971678
0.43252292 0.23463012 0.28948754
0.43529043 0.23504406 0.28932935
0.42858732 0.2378059 0.29102618
0.43248683 0.23784907 0.29139599
0.43640137 0.23840097 0.29111394
0.44038829 0.24151112 0.29091114
0.42410365 0.24286351 0.2923784
0.42765749 0.24175288 0.29300782
0.43266088 0.24183849 0.29346082
0.43789065 0.24137007 0.29218757
0.4426491 0.24363092 0.29090106
0.44481242 0.24508239 0.29018846
0.42387897 0.24460454 0.29336798
0.42802522 0.24577434 0.29526237
0.43311238 0.24553414 0.29536438
0.43869147 0.2455598 0.29417831
0.44289127 0.24684256 0.29284257
0.4466331 0.24806319 0.29085654
0.44962728 0.24967511 0.28940266
0.43003789 0.25005192 0.29761195
0.43422282 0.24893057 0.29707375
0.43936571 0.24957947 0.29615965
0.44385102 0.25120565 0.29493806
0.44764209 0.25252232 0.29321724
0.45118579 0.25405741 0.29127583
0.45392165 0.25629494 0.28960228
0.45728528 0.26025292 0.2878651
0.4582755 0.26160133 0.28845072
0.43105087 0.25491351 0.29990628
0.43499407 0.25306132 0.29912248
0.44073749 0.25375566 0.29803678
0.44402373 0.25522691 0.29711756
0.44695407 0.25526655 0.29532716
0.45306429 0.25769392 0.29281566
0.45519412 0.25843927 0.29041797
0.45734537 0.26061654 0.28989899
0.46010193 0.26412225 0.29076034
0.42982894 0.25955948 0.30092865
0.43511349 0.25893438 0.30102077
0.4403877 0.25897831 0.30032715
0.4431003 0.2589803 0.29930207
0.45511955 0.26098728 0.29411107
0.45683578 0.26125407 0.29243362
0.46432072 0.26828623 0.29169881
0.46583346 0.27010053 0.29148319
0.43556458 0.26290685 0.3018311
0.43963233 0.2625469 0.30150923
0.45632556 0.26377875 0.29634109
0.45800191 0.26401207 0.29471236
0.46676022 0.27014244 0.29335397
0.46796811 0.27195448 0.29231527
0.46023846 0.2656886 0.29471534
0.47175846 0.27422982 0.29301473
0.47654831 0.27622288 0.29439878
0.39481452 0.29359052 0.29055253
0.39512482 0.29309237 0.2917257
0.39493498 0.29755679 0.29206333
0.39523616 0.29615054 0.2937884
0.39506477 0.30201182 0.2924968
0.39548492 0.30711418 0.2923283
0.39600214 0.31016985 0.29296347
0.396476 0.31263632 0.29236403
0.39778656 0.3175357 0.29271156
0.39891735 0.32151157 0.29246846
0.39967078 0.32383627 0.29248369
0.40082315 0.32759428 0.29260784
0.40171647 0.3310197 0.29232034
0.45428777 0.35569024 0.29126629
0.45687631 0.35864732 0.29167217
0.45959881 0.36112142 0.29010195
0.46123523 0.36310741 0.29172617
0.46434695 0.3659592 0.29268938
0.46724516 0.36787966 0.29196781
0.48082653 0.3706013 0.28984794
0.46928924 0.36932555 0.29320836
0.47297165 0.37058717 0.29280496
0.47743142 0.37128407 0.29257789
0.48051301 0.37094367 0.2915495
0.43256029 0.24093845 0.2929453
0.43560493 0.24056196 0.29252037
0.43907779 0.2421224 0.29181781
0.4322606 0.24436189 0.29476827
0.43620875 0.24469118 0.29402032
0.4405407 0.24524868 0.29262635
0.43318373 0.24731554 0.2960254
0.43657893 0.24793537 0.29553565
0.44169074 0.24960697 0.29415974
0.44394231 0.2507847 0.29386055
0.44306487 0.25322536 0.29539952
0.44617417 0.25455657 0.29488245
0.44925749 0.25661761 0.29451671
0.44494161 0.2579256 0.29775617
0.44757971 0.25828418 0.29637313
0.45073164 0.25928214 0.29545256
0.45524344 0.26101768 0.29448831
0.45855293 0.26310301 0.29423624
0.46103132 0.26499629 0.29387987
0.42950615 0.26248935 0.30144596
0.431449 0.26274908 0.30166587
0.44185519 0.26197994 0.30047676
0.44409451 0.26123467 0.29935023
0.44656405 0.26242718 0.29873085
0.45210111 0.26262432 0.29751855
0.45623419 0.26317498 0.29653394
0.46178254 0.26564658 0.29639399
0.46375233 0.26759562 0.29559463
0.42900467 0.26637176 0.30241853
0.43381006 0.26606131 0.30227882
0.4393017 0.265894 0.30201939
0.44286019 0.26579878 0.30094454
0.45397437 0.26546311 0.29920566
0.45636526 0.26666889 0.29958373
0.46694005 0.26969755 0.29682171
0.46934301 0.27141422 0.29669192
0.42878708 0.27006456 0.30344993
0.43347305 0.26956341 0.30282053
0.43851161 0.26975185 0.30259183
0.44133902 0.26969472 0.30195245
0.45749602 0.26937553 0.30181459
0.47301161 0.27344799 0.2969577
0.4749153 0.27395511 0.2997674
0.47855303 0.27595922 0.29800344
0.48210311 0.27722454 0.29922786
0.48287496 0.27850986 0.300192
0.39549044 0.29817891 0.29548797
0.39566728 0.29797029 0.29624599
0.39547542 0.30266687 0.29598674
0.39567572 0.30183271 0.29751524
0.39585477 0.30750421 0.29628178
0.3960349 0.30781195 0.29790774
0.39633939 0.31078964 0.29592755
0.3968381 0.31230414 0.29785007
0.39695218 0.31220204 0.29980803
0.39809281 0.31748134 0.29736581
0.39920571 0.32121208 0.29722992
0.40007594 0.32374221 0.29727203
0.40146035 0.32772973 0.29760283
0.402466 0.33087435 0.29745069
0.46422988 0.36702451 0.29748333
0.46631241 0.36854988 0.29814672
0.46892872 0.36983147 0.29752111
0.47303721 0.37125641 0.29780132
0.47728014 0.37175909 0.29736063
0.43013278 0.24306236 0.29391348
0.42848381 0.24623886 0.29531196
0.43052405 0.24576995 0.29556137
0.4248448 0.25091338 0.2965979
0.42746368 0.2497296 0.29683405
0.43170151 0.24947974 0.29714859
0.4362537 0.25044698 0.29680857
0.44008446 0.25139481 0.29573154
0.42390808 0.2543568 0.29795465
0.42745411 0.25406936 0.29872414
0.43184733 0.2543354 0.29907256
0.43662429 0.25506794 0.29855257
0.44105166 0.25521466 0.29710969
0.44516519 0.25623199 0.29625562
0.4229376 0.25884452 0.29965234
0.42746529 0.25896144 0.30004981
0.43164366 0.2586354 0.30013722
0.43705571 0.25931495 0.29959354
0.44159755 0.2597397 0.29875961
0.44622725 0.25986212 0.29751027
0.45032999 0.2612665 0.29708663
0.45604011 0.26333621 0.29683343
0.41996995 0.26395795 0.3035278
0.42240569 0.2631292 0.30183646
0.42706203 0.26355866 0.30157244
0.43089932 0.26187071 0.30090794
0.43750012 0.26401159 0.30060786
0.44178304 0.26419133 0.29995626
0.44701347 0.26404548 0.29915062
0.45138791 0.2646834 0.29889432
0.4564791 0.26568872 0.29924399
0.46067712 0.26628757 0.29884174
0.46455199 0.26767054 0.29953277
0.42282781 0.26734453 0.30424678
0.42734036 0.26810119 0.30291232
0.43209162 0.26952171 0.30226767
0.43754748 0.2688868 0.30138108
0.44203201 0.26856887 0.30111757
0.44706914 0.26864597 0.30088747
0.45194417 0.26874435 0.30115268
0.45578113 0.26846817 0.30136585
0.46727079 0.26906124 0.30095047
0.47052139 0.27064699 0.3013685
0.42384455 0.2715337 0.30544198
0.42752266 0.27241376 0.30423376
0.43252024 0.27272287 0.30324805
0.43721813 0.27268654 0.30277938
0.44225115 0.27267945 0.3024089
0.44677296 0.27234876 0.30246556
0.4525834 0.27213088 0.30324614
0.45649898 0.2711401 0.30314931
0.47335166 0.27237201 0.30154341
0.47578567 0.27378574 0.30269596
0.42526323 0.27502698 0.30617219
0.42822886 0.2764937 0.30542019
0.43281141 0.27696806 0.30444738
0.43743032 0.27696916 0.30366442
0.44189623 0.27706447 0.30355546
0.44770944 0.27711698 0.3043645
0.45160803 0.2770918 0.30551034
0.47811764 0.27663937 0.30341226
0.43330875 0.2804884 0.30533987
0.43777439 0.28139278 0.3048948
