# .PCD v0.7 - Point Cloud Data file format
VERSION 0.7
FIELDS x y z
SIZE 4 4 4
TYPE F F F
COUNT 1 1 1
WIDTH 1464
HEIGHT 1
VIEWPOINT 0 0 0 1 0 0 0
POINTS 1464
DATA ascii
0.46688291 0.31694743 0.16067795
0.47107956 0.31736237 0.16243066
0.47539723 0.31851184 0.16429375
0.47918054 0.31991881 0.16576141
0.4829455 0.32139581 0.16696411
0.48731664 0.32311347 0.16746944
0.49205109 0.32430217 0.16754273
0.49749666 0.32518691 0.16746686
0.50252855 0.32452384 0.16764772
0.50746673 0.32348683 0.16740893
0.51259232 0.32270977 0.16749652
0.51612014 0.32072377 0.16697398
0.49459842 0.32447639 0.16821583
0.49731115 0.3251265 0.16972843
0.5016796 0.32482365 0.16876131
0.48671037 0.25150847 0.16975491
0.48980865 0.25093397 0.1693591
0.49321193 0.25038347 0.16725318
0.5126996 0.25130087 0.17280409
0.51331174 0.25195447 0.17186022
0.46815035 0.25754911 0.16337818
0.47171855 0.25633341 0.16586663
0.47565228 0.25518021 0.16887201
0.47978362 0.2533831 0.1713091
0.48400754 0.25203997 0.17093426
0.48913485 0.24993715 0.17136812
0.49199972 0.24895275 0.17269427
0.49755955 0.24795696 0.1727705
0.5023492 0.24835917 0.17274748
0.51542085 0.25250387 0.17251
0.51814592 0.25332829 0.17325221
0.46738702 0.25958014 0.16595058
0.470588 0.258223 0.17047916
0.4743371 0.25588879 0.17249136
0.47739321 0.25450748 0.17289329
0.48245752 0.25120753 0.17273831
0.48646805 0.25014138 0.17278196
0.50794303 0.24903639 0.17263952
0.51184154 0.25009444 0.17218165
0.51863199 0.25216556 0.17334372
0.46613276 0.26156828 0.16946447
0.46848199 0.25954348 0.17267491
0.47176147 0.2564505 0.17223854
0.4759241 0.25407475 0.17321192
0.47963753 0.25194296 0.17234784
0.4862996 0.24927102 0.17087492
0.52017522 0.25373876 0.17099231
0.5328424 0.2624822 0.17323488
0.46384549 0.26379126 0.17152268
0.46603033 0.261127 0.17290415
0.46942133 0.25836933 0.17352211
0.52220732 0.25537422 0.17060618
0.52527016 0.25743237 0.17040989
0.53021413 0.26043004 0.17169161
0.53236526 0.26174578 0.17349392
0.53463948 0.26506114 0.17172629
0.53790987 0.26768529 0.17242135
0.46154451 0.26708305 0.17227966
0.46429172 0.26490507 0.17355147
0.53401572 0.26347333 0.1723938
0.53822607 0.26704782 0.17277561
0.54103023 0.2699571 0.17266469
0.54389036 0.27235898 0.17236196
0.46022126 0.27180997 0.17356117
0.462354 0.26941532 0.17399193
0.54013574 0.26882762 0.1708506
0.54378432 0.27113613 0.17222159
0.5468033 0.27344117 0.17231934
0.54914218 0.27571625 0.17254901
0.45719275 0.27758867 0.17317064
0.45871821 0.27612546 0.17457773
0.55041653 0.27491575 0.17246492
0.55208588 0.27783629 0.17253517
0.55413055 0.28109637 0.17143296
0.55695683 0.28387722 0.17016646
0.56065971 0.28586099 0.1690702
0.56211531 0.28716937 0.16894427
0.45518756 0.28224918 0.17265762
0.4561328 0.28118864 0.17540854
0.5550558 0.28048784 0.17251463
0.55654395 0.28404707 0.17227544
0.55730259 0.28347242 0.17322102
0.56296039 0.2877591 0.17030646
0.45442942 0.28789562 0.17230459
0.45436645 0.28780183 0.17426619
0.55720502 0.28606489 0.17232038
0.55829412 0.2868022 0.17313427
0.4549914 0.29051074 0.1719238
0.45536911 0.29204699 0.17336157
0.45587432 0.29281718 0.17260486
0.4563449 0.29410437 0.17366932
0.45609713 0.29396346 0.16802222
0.4571335 0.29464623 0.17101525
0.45815939 0.2971994 0.17299111
0.4592745 0.29944348 0.17353365
0.46097407 0.30203438 0.17425872
0.45841008 0.297452 0.17068709
0.46027237 0.3003116 0.17147383
0.462174 0.30311933 0.17333932
0.46394777 0.30574998 0.17396045
0.54091913 0.30612105 0.17146866
0.54384887 0.30438235 0.17228352
0.54634565 0.30193147 0.17259963
0.54780579 0.29894951 0.17243822
0.54989821 0.29735708 0.17333345
0.46011686 0.30025676 0.17010857
0.46233621 0.30311325 0.17059082
0.4640401 0.30554053 0.17129131
0.46633959 0.30831182 0.17251174
0.46895918 0.31073207 0.17369394
0.47206479 0.31368414 0.17373921
0.53970349 0.30640593 0.17136131
0.54076517 0.30535322 0.17086285
0.46399683 0.30642706 0.16752364
0.46650764 0.30787998 0.17083478
0.46973652 0.31096134 0.17173409
0.47165653 0.31299445 0.17250095
0.47422591 0.31553838 0.17277324
0.47822163 0.31858054 0.17371021
0.52981472 0.31588632 0.17232402
0.53215843 0.31351042 0.173825
0.46548495 0.31012592 0.16507186
0.46813616 0.31169355 0.16626842
0.47150445 0.31268287 0.16994193
0.47460043 0.31531376 0.17102247
0.47750166 0.31758541 0.17228
0.48075494 0.3198114 0.17275223
0.48366556 0.32164955 0.17300913
0.52858102 0.31709433 0.17293714
0.47671548 0.31705621 0.16978604
0.4801012 0.31889889 0.17117806
0.48375869 0.32109478 0.17163663
0.48710632 0.32266483 0.17057005
0.50269198 0.32560167 0.17040358
0.50805587 0.32505074 0.17122646
0.51293379 0.32516134 0.17193691
0.51701617 0.32365769 0.17200799
0.48613971 0.32232836 0.17320034
0.48881501 0.32369822 0.17267731
0.49344593 0.32483646 0.17206028
0.49778205 0.32605577 0.17242473
0.5026139 0.32602471 0.17258857
0.50735343 0.3260749 0.17353992
0.51221341 0.32580361 0.17407383
0.51665878 0.32482904 0.17468588
0.49039388 0.24978311 0.17625615
0.49283519 0.24868484 0.17781298
0.5035305 0.24719182 0.17858893
0.50667524 0.24788609 0.17785557
0.51183617 0.24922171 0.17796125
0.51439154 0.2492747 0.17896348
0.48016274 0.25318256 0.17685227
0.48409075 0.2515434 0.17688444
0.48769054 0.25016791 0.1775976
0.49304038 0.24778013 0.17715625
0.49779832 0.24681273 0.17755991
0.50180835 0.2468082 0.17746778
0.50530177 0.24830203 0.17512144
0.51626325 0.25069916 0.17750226
0.51997238 0.25248101 0.17768177
0.52396411 0.25440809 0.178326
0.52659231 0.25619128 0.17879111
0.46797112 0.25989997 0.17504372
0.47382823 0.25593647 0.17702611
0.47757512 0.25420052 0.17723963
0.48230329 0.25085798 0.17766443
0.48674425 0.24969149 0.17762716
0.49057108 0.24852651 0.17755015
0.50468147 0.24722385 0.1761957
0.50832474 0.2474288 0.17680404
0.51287287 0.24859874 0.1770393
0.5185886 0.25092584 0.1775354
0.52197766 0.25219592 0.17825082
0.52801114 0.25633839 0.18033421
0.46928573 0.25823346 0.17733762
0.47153544 0.25674289 0.17748705
0.47523132 0.25412545 0.17763925
0.47963533 0.25220245 0.17705916
0.52073735 0.25253057 0.17529571
0.52299058 0.25363868 0.17676386
0.52679521 0.25540593 0.17905067
0.46211782 0.26382473 0.17649376
0.46612427 0.2600733 0.1769606
0.46989745 0.2571812 0.17760222
0.53089297 0.25965118 0.1763685
0.53331155 0.26120827 0.17710491
0.53619564 0.26418617 0.17649023
0.53885901 0.26673239 0.17651962
0.46020851 0.26682961 0.17725322
0.46241197 0.26338106 0.17624718
0.53538823 0.26316029 0.17690167
0.53876084 0.26565608 0.17731312
0.54189372 0.26814416 0.17770757
0.54444641 0.27104571 0.17715113
0.45957074 0.27009729 0.17668332
0.46068633 0.26824823 0.17596625
0.54407007 0.27034876 0.17724007
0.54696 0.27274534 0.17735307
0.54928988 0.27443764 0.17666207
0.45801109 0.27552363 0.17754543
0.55164486 0.27467638 0.17680304
0.55394042 0.2769759 0.17686222
0.55588156 0.27969319 0.17753512
0.55979103 0.28478476 0.17367381
0.45479101 0.28185254 0.1760471
0.55639154 0.27977169 0.17705457
0.55830449 0.28297278 0.17729427
0.55835176 0.28330687 0.17716433
0.56074136 0.28522038 0.17613275
0.56290138 0.28681445 0.17514083
0.45048699 0.29095763 0.17848715
0.45197105 0.2890673 0.17553324
0.45262039 0.28913739 0.17452769
0.55978948 0.28500861 0.17773759
0.5602324 0.28623551 0.17796598
0.5611797 0.28731829 0.18012846
0.45333734 0.29029953 0.17640714
0.4536936 0.29266483 0.17744331
0.45372459 0.29418644 0.17631428
0.45491439 0.29578191 0.17550159
0.45563945 0.29527465 0.17761959
0.45765591 0.29854462 0.177302
0.4585731 0.30022451 0.17666747
0.4603734 0.30284509 0.17741174
0.45752421 0.29770219 0.17798214
0.45951989 0.30071792 0.17854325
0.46137223 0.30283168 0.17692818
0.46381152 0.30620372 0.17743883
0.46651715 0.30886328 0.17822656
0.5454427 0.3049275 0.17592767
0.54785484 0.3035728 0.17740378
0.54962593 0.30073562 0.17800613
0.55215925 0.2987383 0.17863628
0.55393243 0.29730976 0.17892484
0.46197364 0.30269042 0.17664064
0.46435025 0.30593857 0.17784825
0.46631423 0.3083075 0.17581189
0.46854877 0.31051859 0.17724843
0.47265565 0.31426993 0.17695257
0.54386485 0.30729693 0.17793497
0.54650873 0.3056798 0.17876182
0.46678334 0.30808809 0.17657931
0.46958318 0.31062725 0.17706801
0.4721888 0.31360731 0.17668582
0.47467813 0.31588346 0.17693128
0.47839403 0.31853172 0.1773347
0.53348416 0.31470206 0.17708217
0.53531456 0.31314251 0.17807701
0.47220919 0.31277516 0.17520632
0.47471172 0.31507659 0.17716335
0.4773283 0.31709933 0.17740412
0.48128498 0.32064265 0.17792797
0.48344427 0.32177165 0.17681408
0.52974391 0.31817144 0.17675038
0.53146279 0.31688777 0.17801988
0.4798159 0.31877759 0.17664534
0.48314959 0.32119143 0.17706405
0.51200324 0.32610354 0.17538482
0.48585159 0.32280844 0.17754018
0.48945317 0.32475194 0.17726238
0.4934901 0.32627624 0.17623758
0.49793926 0.32767889 0.17740494
0.50248235 0.32791898 0.17736325
0.50728887 0.32732931 0.17749967
0.51220691 0.32610708 0.17749605
0.51712477 0.32526714 0.17766286
0.52049732 0.32438856 0.17821459
0.49107438 0.32662538 0.17948058
0.49362046 0.32702354 0.17845543
0.4963285 0.32803956 0.17903441
0.48996931 0.24861391 0.18277404
0.49246565 0.24746571 0.1835783
0.50316548 0.24556264 0.18301727
0.50717783 0.2462194 0.18337134
0.51101202 0.24695414 0.18324868
0.51419723 0.24799734 0.18248688
0.47991014 0.25277504 0.1813539
0.48336631 0.25123262 0.18242292
0.48751116 0.24947713 0.18244462
0.49248621 0.24706441 0.18262203
0.49745378 0.24583545 0.18200397
0.50079477 0.24551676 0.18241329
0.51555353 0.24895683 0.18081525
0.52206135 0.25110233 0.18318655
0.5254423 0.25294501 0.18320321
0.52802122 0.2541483 0.18442658
0.47410837 0.25555921 0.18265946
0.47762141 0.25364098 0.18274978
0.48146164 0.25130478 0.18297563
0.48639438 0.24911238 0.18262149
0.49060625 0.24750549 0.18296662
0.50747383 0.24629679 0.18004884
0.51581824 0.24798171 0.18280195
0.51880771 0.24970464 0.18137731
0.52308893 0.25152624 0.18208139
0.5292933 0.25619262 0.18232852
0.46872446 0.25756803 0.18165088
0.47190249 0.25597048 0.18262409
0.47621396 0.25379291 0.18252002
0.48078778 0.25152019 0.18161593
0.52501804 0.2533744 0.18077345
0.52890801 0.25531802 0.18219875
0.46685451 0.25773007 0.18213601
0.46962929 0.25636142 0.18193316
0.53144008 0.25793067 0.18088268
0.53389484 0.25954932 0.18128654
0.53638589 0.26213148 0.18033776
0.53995454 0.26462349 0.18137228
0.54314381 0.26742512 0.18192545
0.54502046 0.2693271 0.18197139
0.54788065 0.27177387 0.18242531
0.55212784 0.27449873 0.18153794
0.55438924 0.27648529 0.18174644
0.55660647 0.279405 0.18117087
0.55768877 0.27996799 0.18164586
0.55911887 0.28194848 0.18193313
0.5599699 0.28352806 0.1829498
0.56101006 0.2856594 0.18307151
0.56170863 0.28608188 0.18195423
0.56080097 0.28475943 0.182207
0.5614478 0.28627652 0.18275002
0.56191444 0.28767905 0.18342489
0.56251365 0.28853554 0.18451343
0.5626505 0.28818437 0.18283586
0.45107785 0.29243171 0.17852649
0.45292166 0.29563645 0.17900364
0.45264134 0.29698491 0.18412808
0.45348063 0.29525846 0.18007666
0.45656878 0.29952294 0.1803821
0.45770815 0.30112717 0.17921755
0.5559954 0.30030778 0.18397041
0.55718708 0.29935157 0.18450765
0.55878621 0.29717562 0.18520793
0.5609957 0.29393429 0.18583103
0.45235378 0.29818293 0.18540572
0.45520902 0.29881591 0.18328497
0.45814571 0.30225357 0.18281177
0.45987245 0.30338022 0.18018693
0.46314946 0.30678418 0.18056785
0.46627071 0.30953979 0.18103485
0.5500387 0.3051087 0.18227987
0.5523448 0.30199865 0.18259183
0.5550583 0.29963949 0.18328469
0.55659485 0.29843968 0.18412834
0.46047688 0.30421633 0.18215637
0.46309787 0.30720505 0.18307479
0.46931767 0.31153414 0.1800793
0.47299933 0.31466788 0.17988445
0.54429168 0.30949211 0.18205476
0.54767454 0.3070668 0.18196139
0.46601808 0.30901998 0.18218896
0.46862501 0.31086168 0.18253961
0.47157618 0.31347707 0.18343458
0.47512108 0.31666517 0.18204719
0.47763976 0.31839138 0.18114714
0.53500825 0.31552455 0.18073595
0.53591532 0.31441596 0.18087791
0.47420663 0.31512907 0.18239011
0.47691754 0.31722951 0.18296054
0.48066884 0.32093057 0.18220556
0.5329805 0.31788516 0.18177828
0.5352329 0.31668314 0.18369949
0.47950372 0.31945965 0.18250017
0.48279452 0.32230815 0.18235432
0.48477754 0.32424295 0.18289325
0.52954239 0.32114828 0.18157929
0.53072762 0.32090184 0.1840616
0.48510569 0.32420194 0.18297254
0.48789659 0.32584465 0.18207686
0.4945395 0.32838577 0.1805373
0.49805441 0.32965115 0.18194374
0.50253636 0.32999647 0.18240732
0.50739759 0.32934183 0.18234186
0.51248771 0.32784429 0.18249905
0.51696491 0.32636723 0.18251655
0.52167791 0.32538909 0.18283913
0.52523834 0.32453632 0.18412827
0.48695144 0.32603198 0.18421988
0.48969382 0.32743451 0.18302755
0.49324596 0.32881564 0.18266039
0.49733642 0.33003658 0.18304603
0.50861317 0.33011469 0.18478993
0.51289243 0.32832828 0.18407424
0.49551418 0.2455734 0.18938504
0.49660408 0.24517892 0.18955554
0.51041108 0.24488559 0.18996593
0.48978207 0.24793373 0.18725975
0.49314576 0.24635479 0.18815546
0.49818161 0.24465181 0.18818158
0.50269145 0.24418108 0.18756793
0.50726539 0.24464567 0.1882024
0.51135075 0.24550837 0.18809435
0.51635861 0.2466068 0.18906422
0.5198527 0.24776688 0.18939167
0.48420316 0.25056887 0.18743758
0.48721874 0.24914065 0.18732023
0.49224269 0.24642751 0.1878076
0.49701273 0.24495868 0.18688665
0.50141907 0.24392548 0.18882072
0.5081327 0.24430041 0.18808037
0.5112198 0.24468549 0.18915676
0.51732498 0.24678202 0.18858625
0.52241474 0.24916036 0.1883118
0.52602452 0.25082779 0.18876457
0.52965409 0.25306365 0.18897593
0.53230029 0.25462145 0.19030249
0.46602038 0.25686127 0.19011587
0.46952426 0.25621179 0.19001067
0.47366396 0.2553663 0.1872184
0.47806236 0.25318369 0.18730614
0.48149908 0.25124407 0.18730687
0.48649171 0.24889782 0.18730679
0.49103311 0.24683106 0.18712898
0.49410295 0.24540387 0.1886279
0.51952463 0.24795528 0.18668041
0.52411181 0.25028217 0.18668091
0.52748877 0.25190702 0.18736473
0.53183001 0.25567171 0.18644008
0.53416467 0.25596923 0.19062819
0.53734899 0.25873628 0.18983085
0.44656494 0.26266026 0.19110215
0.4571982 0.25861922 0.18779798
0.47246498 0.25501662 0.18714289
0.47606614 0.25398791 0.1869798
0.52991444 0.25399601 0.18625768
0.53288281 0.25551122 0.18798369
0.53829479 0.2591733 0.19088635
0.44466317 0.2654902 0.19040258
0.44628561 0.26539722 0.18957038
0.45610619 0.26019904 0.18684901
0.47008923 0.25581303 0.18524395
0.53358227 0.25770906 0.1843217
0.53720045 0.2583991 0.18922086
0.54496616 0.26684189 0.1895442
0.44309816 0.26847187 0.1896147
0.5378167 0.26150689 0.18369623
0.54105401 0.26383191 0.18522954
0.54424673 0.26660675 0.1869396
0.54873711 0.27151427 0.18934141
0.44046974 0.27298781 0.19005574
0.44297871 0.27168801 0.18808056
0.44502056 0.27276659 0.18626645
0.54584026 0.26870546 0.1864462
0.54886854 0.2715188 0.18742082
0.55273634 0.27543259 0.18943658
0.44183677 0.27746958 0.1874579
0.44455472 0.2760393 0.18574677
0.55180103 0.27425197 0.1852386
0.55392212 0.2756581 0.18706395
0.55523884 0.27768466 0.19002417
0.4393191 0.28361052 0.19220215
0.43976927 0.28185591 0.19123136
0.44203842 0.28241459 0.18768045
0.44423997 0.28399691 0.18489078
0.55855966 0.28038615 0.18629545
0.55946285 0.28187293 0.18677814
0.56065828 0.28458732 0.18678614
0.56125265 0.28607914 0.18561827
0.5620541 0.28687364 0.18527217
0.44017002 0.28493661 0.19155148
0.44241834 0.28599542 0.18764509
0.44332597 0.28822514 0.18727142
0.5614832 0.28576764 0.18730602
0.56205249 0.28768173 0.18811214
0.5623979 0.28844658 0.18731599
0.56244624 0.28935909 0.18586916
0.44208831 0.29108703 0.19094755
0.4446629 0.29177004 0.18742891
0.56160188 0.29419655 0.18604079
0.56218916 0.292714 0.18592513
0.56253111 0.29211143 0.18750903
0.56242186 0.29190102 0.18870987
0.56236684 0.29126447 0.18632691
0.55746466 0.29989377 0.18557708
0.55863136 0.29838115 0.18671568
0.55981934 0.29719463 0.18731473
0.56089967 0.29484922 0.18801859
0.56136477 0.29415959 0.18631053
0.45398477 0.30094925 0.18646619
0.4564577 0.30354822 0.18603709
0.5521791 0.30564204 0.18543692
0.55482721 0.30306977 0.18582667
0.5574531 0.29888287 0.18591377
0.55800301 0.29854837 0.18650083
0.5587793 0.29865381 0.19033283
0.45776308 0.30673862 0.18779291
0.46152034 0.30878982 0.18747674
0.54523212 0.31044123 0.1852642
0.54868728 0.30796769 0.18490119
0.55783939 0.3001287 0.19092983
0.46395043 0.31037116 0.18844579
0.46775603 0.31228006 0.18765998
0.47117254 0.31406859 0.1869102
0.47591695 0.31796977 0.18508644
0.47732642 0.31965369 0.18626526
0.54332888 0.31133696 0.18592319
0.47340149 0.31607148 0.18787751
0.47642538 0.3184807 0.18735564
0.48011976 0.32227966 0.1864839
0.53468734 0.31952879 0.18756832
0.53590578 0.31816012 0.18725848
0.47818244 0.31960174 0.18637842
0.48316461 0.32507345 0.18687981
0.48497778 0.32519498 0.18496074
0.52835697 0.32411724 0.18741152
0.53189534 0.32212582 0.18820086
0.48187146 0.32429436 0.18971561
0.48407492 0.32582378 0.18792106
0.48581988 0.32761779 0.18840866
0.49873191 0.33164948 0.18592976
0.50232369 0.33159721 0.18579155
0.50600308 0.33098614 0.18595368
0.51205003 0.32971579 0.18610619
0.51785564 0.32804775 0.1870959
0.52198154 0.32688576 0.18776801
0.52589995 0.32546011 0.18778804
0.48531792 0.32734966 0.18900067
0.48857704 0.32939851 0.18792367
0.49268651 0.33128271 0.18767737
0.49728176 0.33223981 0.18740413
0.5023455 0.33239329 0.18762808
0.5077135 0.33152223 0.18749493
0.51233113 0.3305425 0.18797265
0.51663709 0.32904962 0.1881476
0.50397193 0.24344113 0.1948728
0.4956907 0.24518175 0.19209938
0.49817058 0.2442504 0.1932711
0.50194728 0.24354687 0.19398385
0.51211971 0.24470676 0.19286478
0.51501709 0.24535199 0.19441177
0.48989585 0.24768284 0.19279535
0.49308649 0.24603225 0.19242701
0.49838096 0.2440981 0.19267774
0.5025177 0.24339488 0.19252737
0.50732583 0.24376625 0.19296145
0.51183909 0.24446239 0.19306289
0.51689088 0.24589895 0.19338138
0.52092981 0.24732079 0.19321574
0.48365736 0.25104991 0.192577
0.48768654 0.24869066 0.19248407
0.49206853 0.24624749 0.19274291
0.49704137 0.24443403 0.19241688
0.50219131 0.24329419 0.19230615
0.50769001 0.24355651 0.19196729
0.51306832 0.24445587 0.19227989
0.51757962 0.2459058 0.19215319
0.52321351 0.24824275 0.1932282
0.52604645 0.24954239 0.19301119
0.53045446 0.25201479 0.19327886
0.53264248 0.2538915 0.19244206
0.4498595 0.25626045 0.19482073
0.45143703 0.25609869 0.19411966
0.45964557 0.25528905 0.19529314
0.46400645 0.25583541 0.19385228
0.46855631 0.25579834 0.19300964
0.473097 0.25499785 0.1927968
0.47749785 0.25348261 0.19235456
0.48182118 0.25146565 0.19245785
0.48609072 0.24917839 0.19232498
0.49015602 0.24681173 0.19205548
0.49431598 0.24515948 0.19164746
0.52059084 0.2470731 0.19176045
0.52423763 0.24862757 0.1918218
0.52896243 0.25112593 0.19225234
0.53496069 0.25531191 0.19370514
0.53797585 0.25772452 0.1941359
0.44255197 0.26206198 0.1947742
0.44454384 0.26052848 0.19456194
0.44759241 0.25859869 0.19370887
0.46384797 0.25543967 0.19372509
0.46597746 0.25542131 0.19387951
0.47366649 0.25471264 0.19091384
0.47540089 0.25412813 0.1905937
0.53071392 0.25292382 0.19043475
0.53403491 0.25473109 0.19227853
0.53740627 0.2571032 0.19297165
0.54024678 0.25987431 0.19342239
0.54336625 0.26242518 0.19447365
0.44093803 0.2639533 0.1945667
0.44286183 0.26351139 0.19340174
0.53982973 0.25971717 0.19203506
0.54308343 0.26226339 0.19327943
0.5450806 0.26520541 0.1929744
0.54714072 0.26760244 0.19328447
0.43918461 0.26771432 0.19348228
0.4411304 0.2671265 0.19191706
0.54542345 0.26550156 0.19198486
0.54768002 0.26790956 0.19291723
0.54887867 0.27040088 0.19257309
0.43607083 0.27324778 0.19531494
0.43776584 0.27162147 0.19348952
0.44046748 0.2717059 0.19005018
0.54996425 0.27104321 0.1918558
0.55193931 0.27335081 0.19270942
0.55336231 0.275352 0.19144759
0.43558019 0.27814698 0.19625999
0.43782029 0.2774657 0.19263202
0.43906727 0.27709475 0.1905015
0.55403215 0.27545846 0.19177699
0.55530071 0.27718624 0.19284402
0.4367933 0.28202248 0.19548529
0.43789366 0.28216895 0.19355007
0.43983215 0.28193146 0.19069268
0.55816543 0.2797001 0.19122997
0.55998826 0.28273734 0.1924419
0.43780258 0.28649125 0.19524035
0.43847233 0.28753772 0.19404639
0.44104171 0.28835279 0.19061707
0.44294265 0.28956288 0.18876489
0.56127733 0.28553379 0.1921072
0.56200469 0.28834236 0.19173002
0.56210381 0.28925732 0.19020195
0.43820706 0.28959519 0.19556506
0.44009447 0.2917816 0.19381982
0.44144711 0.29266959 0.1925173
0.44408625 0.29258054 0.18885486
0.56135631 0.29499862 0.19470361
0.56194866 0.29258147 0.19233911
0.56191444 0.29341179 0.19090784
0.44037476 0.29502672 0.19483282
0.44240633 0.29671615 0.19376846
0.44612476 0.29823211 0.19034803
0.44831225 0.30091915 0.19039129
0.55799657 0.300468 0.18978705
0.55992246 0.29848364 0.193416
0.56048709 0.29686776 0.19350792
0.56062996 0.29578018 0.19150198
0.44466937 0.30048451 0.19431268
0.44643024 0.30270967 0.19438194
0.44836372 0.30310529 0.19224602
0.55620313 0.30293697 0.18909489
0.5576427 0.30186889 0.19382149
0.55841893 0.30030638 0.19243065
0.55861622 0.29915673 0.19131233
0.44597968 0.30434307 0.19688457
0.44815117 0.30615491 0.19697377
0.45439526 0.30828428 0.19280283
0.45691603 0.30903289 0.19171023
0.46016282 0.31012374 0.19103543
0.55586183 0.30384159 0.19298585
0.45095688 0.30752787 0.19605543
0.45360219 0.30915472 0.19509391
0.45827836 0.31085765 0.19369024
0.46271384 0.31242469 0.1929992
0.46659386 0.31382915 0.19283657
0.47789252 0.32190067 0.19056283
0.54211044 0.31461811 0.19060597
0.46926814 0.31528911 0.19315892
0.47249737 0.31694877 0.19220278
0.47513822 0.31832844 0.19035804
0.47968671 0.32391429 0.19103462
0.53688973 0.31980619 0.1913303
0.48234385 0.32623279 0.19166894
0.52992159 0.32489192 0.19240025
0.53261197 0.3232398 0.19232287
0.5354833 0.32137525 0.19237453
0.48112792 0.32510629 0.19339585
0.48356295 0.32679719 0.19160461
0.48566282 0.32899806 0.19251384
0.51857483 0.32965583 0.19265482
0.52236056 0.32841909 0.19268052
0.52727824 0.32634318 0.19243936
0.53148109 0.32445586 0.1936283
0.48233873 0.32648969 0.19448705
0.48489401 0.32862082 0.1935731
0.48831201 0.33089665 0.19232553
0.49297544 0.33298546 0.19159997
0.497702 0.33383498 0.19225307
0.5025326 0.33369356 0.19229642
0.50766426 0.33288339 0.19255655
0.51264119 0.33169916 0.19239464
0.51666999 0.33032545 0.19241606
0.49015614 0.33271295 0.19481444
0.49319494 0.33367646 0.19394627
0.49731061 0.33407575 0.19335374
0.5008741 0.33424455 0.19435796
0.50385809 0.24306165 0.19794466
0.50526214 0.24332699 0.19623223
0.4960447 0.24486272 0.19776219
0.49859032 0.24383453 0.19741237
0.50182146 0.24323829 0.19780083
0.4898766 0.2477279 0.19710925
0.49318281 0.24605282 0.19727349
0.4978447 0.24392726 0.19773579
0.50231087 0.24301387 0.19751759
0.50748014 0.24310064 0.19739988
0.512218 0.24401253 0.19764154
0.51661134 0.24538201 0.19765483
0.52109843 0.24694683 0.19811928
0.48526666 0.25012255 0.19587775
0.48813757 0.24855155 0.19730622
0.49225503 0.24609883 0.19762114
0.49704516 0.24409544 0.19786155
0.50212651 0.24290067 0.19738339
0.50815707 0.2431398 0.19690023
0.51317048 0.24386479 0.19714153
0.518287 0.24541771 0.19715844
0.52348119 0.24791211 0.19787401
0.52580112 0.24894908 0.19805431
0.5312925 0.25138834 0.19781642
0.53338385 0.25277472 0.19774434
0.44910216 0.25480238 0.19854775
0.45339429 0.25369969 0.19820046
0.45832223 0.25385517 0.19835132
0.4628385 0.25443536 0.19806333
0.46791458 0.2546469 0.19778037
0.47305608 0.25447363 0.19777177
0.47736183 0.25353265 0.19758774
0.48193508 0.25150576 0.19767204
0.48604792 0.24931367 0.19789591
0.49085668 0.24655731 0.19810787
0.52086711 0.24638264 0.19662197
0.52408153 0.24768284 0.19670993
0.52964354 0.25032577 0.19729972
0.5325312 0.25191221 0.19804338
0.53601348 0.25470528 0.19800624
0.53914046 0.25716025 0.19849318
0.44337651 0.258706 0.19796033
0.44684273 0.25656801 0.19731
0.45856783 0.25342792 0.19930093
0.46325743 0.2543484 0.19749254
0.46592632 0.25439581 0.19694132
0.47023883 0.25429654 0.19756679
0.48230344 0.25115052 0.19910167
0.53444284 0.25353131 0.19693586
0.53841692 0.25653061 0.1974393
0.54127383 0.25910661 0.1982349
0.54342681 0.26094428 0.19916828
0.43903688 0.26288208 0.19767483
0.4407804 0.26179382 0.19714344
0.54084486 0.25879177 0.19703622
0.54344553 0.26113605 0.19756716
0.54602408 0.26408678 0.19742163
0.54741907 0.26606706 0.19722785
0.43336138 0.2696141 0.20038642
0.43651879 0.26678318 0.19682565
0.43918943 0.26568726 0.19488375
0.54599875 0.2640444 0.19664884
0.54853034 0.26664749 0.19754013
0.43289712 0.27410311 0.20028496
0.43375871 0.27270216 0.19842488
0.43518764 0.27154949 0.19644329
0.55124193 0.27056187 0.19642043
0.55310076 0.27238432 0.19778967
0.43288875 0.27776152 0.19973673
0.43367875 0.27715734 0.19828884
0.43521452 0.27765748 0.19618621
0.55532926 0.27585864 0.1968744
0.43292671 0.28203234 0.2003985
0.43438679 0.28235063 0.19850196
0.43581057 0.28267422 0.19656572
0.55762362 0.27952549 0.19603154
0.55929619 0.28255734 0.19775775
0.43309045 0.2856794 0.20126137
0.43493003 0.28709045 0.19915956
0.43642694 0.28773883 0.19665618
0.56071663 0.2862075 0.19733675
0.56096548 0.28838527 0.19760387
0.43527687 0.29074466 0.1995973
0.43753412 0.2927388 0.19721337
0.43819386 0.29311568 0.19625406
0.56123847 0.29296425 0.19769913
0.56180102 0.29086939 0.19623716
0.43349105 0.29390889 0.20464118
0.4347012 0.29469001 0.20306355
0.43854389 0.29645199 0.19777201
0.44082192 0.29869816 0.19658932
0.44387603 0.3009032 0.19445616
0.44652143 0.30169979 0.19268106
0.56024158 0.29822081 0.19602527
0.44297624 0.30224121 0.19717281
0.44567245 0.30435225 0.19635233
0.44795904 0.30535084 0.19506513
0.55708593 0.30336702 0.19669294
0.43942943 0.30299348 0.20264286
0.4415122 0.30404425 0.20120531
0.44460073 0.30515516 0.19929865
0.44720206 0.30697462 0.19859487
0.5539844 0.30739397 0.1984207
0.55464578 0.30629289 0.1968932
0.44307923 0.30605623 0.20208456
0.44514382 0.30705753 0.20086312
0.45003963 0.30907816 0.1989098
0.45388016 0.31143564 0.19826382
0.45777112 0.31305742 0.1977343
0.46198609 0.31426576 0.19724043
0.46626014 0.31515941 0.19620875
0.45339504 0.31261134 0.20084937
0.46372959 0.31579021 0.19931212
0.46769056 0.31645289 0.19774677
0.47105923 0.31811762 0.19775392
0.47931007 0.32469752 0.19495064
0.47379789 0.32047197 0.19861931
0.47536394 0.32206327 0.19890387
0.48132679 0.32684311 0.19683333
0.53326434 0.32440421 0.19696641
0.53673249 0.32273829 0.19834517
0.54021031 0.32064369 0.19896108
0.47907028 0.32494342 0.19906302
0.4831866 0.32833716 0.19788703
0.48491865 0.32970345 0.19709048
0.51883632 0.33065414 0.19793685
0.52279454 0.32928327 0.19753319
0.52774423 0.32739973 0.19752501
0.53186333 0.32542449 0.19772568
0.4818618 0.32707876 0.19832847
0.48403323 0.32898277 0.19780238
0.48707834 0.33126569 0.19769125
0.50324446 0.33464888 0.19745733
0.50755036 0.33390555 0.19766527
0.51271099 0.33271196 0.19732185
0.51693892 0.33109152 0.19718832
0.48580649 0.33052105 0.19858837
0.4889389 0.33252767 0.19787242
0.49325228 0.33426887 0.19782265
0.4977259 0.33493322 0.1974986
0.50086242 0.33496273 0.19817691
0.50361937 0.24324833 0.20221476
0.49591738 0.24488242 0.20116805
0.49888745 0.24389553 0.20222004
0.50200468 0.24326275 0.20224197
0.49022174 0.24778944 0.20189823
0.49368238 0.24615955 0.20204972
0.49821433 0.24408978 0.20262878
0.50254321 0.24300706 0.20225926
0.50749868 0.24297924 0.20249946
0.51261091 0.24402495 0.20250508
0.51694477 0.24538448 0.20231977
0.52164465 0.24718758 0.20250465
0.52436137 0.24818975 0.20367493
0.44940311 0.25214916 0.20480904
0.45126873 0.25196216 0.20429392
0.45586976 0.25190094 0.20490961
0.4637472 0.25300336 0.20281914
0.46526739 0.25290912 0.20352361
0.48867002 0.24824928 0.20263742
0.49238244 0.24630368 0.20267786
0.49693045 0.24435998 0.20262657
0.50146681 0.24304397 0.20346327
0.50816852 0.24281669 0.2035048
0.51312071 0.24380456 0.20259959
0.51897132 0.24571061 0.20272891
0.52263921 0.2470613 0.20346454
0.52617103 0.24897559 0.20259656
0.53081816 0.25067517 0.20263033
0.53407407 0.25226387 0.20259179
0.44458812 0.2547242 0.2034447
0.44742188 0.25321752 0.20303205
0.45260641 0.25213119 0.20260525
0.45784599 0.25229135 0.20278656
0.46230856 0.25280029 0.20278698
0.46792591 0.25346634 0.20271181
0.47249448 0.25368235 0.2024225
0.47743741 0.25314635 0.20202848
0.48224628 0.2516247 0.20231341
0.48614767 0.24964148 0.20303687
0.49129605 0.24664007 0.20302898
0.4947696 0.24526723 0.20429808
0.5242992 0.24770491 0.20254056
0.52910405 0.24956134 0.20277385
0.53268033 0.25132275 0.20253889
0.5367204 0.25403163 0.20268917
0.53957295 0.25631607 0.20237692
0.43825006 0.25938594 0.20412509
0.44183135 0.25701371 0.20219883
0.44555905 0.25474277 0.20179646
0.4640249 0.25308293 0.20157778
0.4670738 0.25301892 0.20236306
0.47219971 0.25340071 0.20284775
0.47706705 0.25308797 0.20351057
0.48148853 0.25182337 0.20336865
0.48464337 0.25031415 0.20394769
0.5351997 0.25288501 0.202535
0.53898627 0.25567973 0.2025362
0.54154521 0.25797489 0.2029649
0.54442126 0.2606667 0.20290372
0.43461856 0.26332885 0.20454918
0.43700752 0.26161474 0.20206149
0.43991208 0.25971279 0.2006956
0.54143071 0.2578223 0.20229752
0.54418206 0.26040268 0.20231634
0.54692078 0.26318419 0.20291059
0.54871023 0.26510057 0.20332149
0.4324263 0.2676689 0.20289224
0.43437615 0.26594585 0.2007478
0.54657 0.26328021 0.20093086
0.54949737 0.26597044 0.20235917
0.55080307 0.26758805 0.20339559
0.43155441 0.27339044 0.20320286
0.43191278 0.2720798 0.20224404
0.55148363 0.26926145 0.20040627
0.55337626 0.27101958 0.20245104
0.55606365 0.27606121 0.20277999
0.55641299 0.27741128 0.20154464
0.43111801 0.27757731 0.20347139
0.43137693 0.27689233 0.20202282
0.43296129 0.27902606 0.19941141
0.5561955 0.27562219 0.20217471
0.55770713 0.27812561 0.20341957
0.55778056 0.27941546 0.20305495
0.431306 0.28250289 0.20374301
0.43148455 0.28240094 0.20268387
0.43308082 0.28302503 0.20021962
0.55898833 0.28170529 0.20232581
0.55897814 0.28219008 0.20433299
0.43162087 0.28641251 0.20404907
0.43236759 0.28811595 0.20290443
0.43371645 0.28833953 0.20066185
0.56036305 0.28685257 0.20255561
0.43293327 0.29180381 0.2035768
0.43458483 0.29327643 0.20128784
0.43707728 0.29648125 0.19937089
0.56085217 0.29178098 0.20280252
0.43251368 0.29504564 0.2071971
0.43366361 0.29580501 0.20529079
0.43647265 0.2976543 0.20118974
0.43898058 0.30084321 0.20029992
0.44163188 0.30186489 0.19810744
0.56055552 0.2961092 0.20237496
0.43395737 0.29839092 0.2065783
0.4363074 0.30163568 0.20541073
0.44034156 0.30358335 0.20152962
0.44310328 0.30551961 0.20035514
0.43807861 0.30357674 0.20501086
0.43975154 0.3046667 0.2040924
0.44297624 0.30732429 0.20352399
0.44425327 0.30772263 0.20211361
0.43910772 0.30586272 0.20679794
0.44156483 0.30719733 0.20538035
0.44520831 0.30898985 0.20411555
0.44864973 0.31090555 0.20317842
0.4525789 0.31302059 0.20244177
0.46095404 0.31525594 0.2001913
0.54915226 0.31485897 0.20370269
0.55026251 0.31368843 0.20416683
0.45027921 0.31251848 0.20471936
0.45373514 0.3138946 0.20344181
0.45788211 0.3152636 0.20292905
0.46248144 0.3167108 0.20253582
0.46693999 0.31835961 0.20237754
0.47094309 0.31996542 0.20220314
0.47789654 0.32437965 0.19949241
0.54351795 0.319534 0.20343201
0.54664946 0.31705442 0.20400213
0.47345147 0.32139966 0.20245211
0.47636372 0.32378039 0.20287833
0.47987726 0.32653373 0.20206083
0.53435022 0.32511452 0.20290358
0.53761715 0.32325861 0.20253897
0.54115063 0.32093641 0.20265989
0.4786332 0.32537919 0.20251061
0.48305151 0.32864609 0.20266886
0.48499763 0.32970569 0.2029051
0.51851887 0.33150035 0.20228378
0.52328736 0.32973617 0.202429
0.52822453 0.32783309 0.20250048
0.53219002 0.32612705 0.20261426
0.5347684 0.32504502 0.2045197
0.48183918 0.32771719 0.20270132
0.48368341 0.32894474 0.20274471
0.48700255 0.33112341 0.20275795
0.4997161 0.33521178 0.20369589
0.502707 0.33520359 0.20250931
0.50748456 0.33447039 0.20245577
0.51272643 0.3332606 0.20256972
0.51669288 0.33198923 0.20231581
0.48550627 0.33040187 0.2021824
0.48914146 0.33246109 0.20244525
0.49321231 0.33427975 0.20256364
0.49761075 0.3352491 0.20241432
0.50083637 0.33536562 0.20176744
0.50307792 0.24341747 0.20647085
0.49918166 0.24424513 0.20662008
0.50206017 0.24332274 0.20488641
0.45525983 0.25154975 0.20946503
0.45577919 0.25164059 0.20997395
0.48529413 0.25105038 0.20590538
0.48947942 0.24916662 0.20663065
0.4939236 0.24680252 0.20674503
0.49871141 0.24448836 0.20759419
0.50267035 0.24336299 0.20773509
0.50745803 0.24304712 0.20729108
0.51242888 0.24387605 0.20767047
0.51722693 0.24553257 0.207388
0.52131146 0.24733368 0.20631726
0.52467716 0.24862827 0.20709969
0.44940972 0.25186819 0.2078793
0.45322901 0.25117838 0.20824875
0.45764196 0.25155154 0.20850068
0.4626756 0.25205439 0.20758575
0.4657073 0.25250679 0.2073558
0.48491958 0.2515128 0.20784093
0.48907921 0.24892665 0.20657609
0.4926208 0.24732706 0.20777631
0.49696347 0.24512537 0.20833214
0.50194091 0.2436146 0.20871124
0.50737256 0.24315871 0.20898315
0.5128392 0.24385796 0.208657
0.51860213 0.24574503 0.20824584
0.52216852 0.2475231 0.20749468
0.52663893 0.24930358 0.20750861
0.53054971 0.25081277 0.20724057
0.53384423 0.25240865 0.20723097
0.44394866 0.25446004 0.20816207
0.4470067 0.25267345 0.20774382
0.4522239 0.25137928 0.20729248
0.45777345 0.25159797 0.20763369
0.46190679 0.25196874 0.20750961
0.46739262 0.25273731 0.20757149
0.47248718 0.25315654 0.20785183
0.47743204 0.25319564 0.20755443
0.48244619 0.25201997 0.20742227
0.48661432 0.25030604 0.2078978
0.49150681 0.24794729 0.20901035
0.49560753 0.24591914 0.20950916
0.49934158 0.244875 0.21070276
0.5243479 0.24813312 0.20824577
0.5286094 0.24959169 0.20800517
0.53213775 0.25134057 0.20789583
0.53682423 0.25390807 0.20752458
0.53990912 0.25595799 0.20745815
0.43597746 0.26099685 0.2089539
0.43783024 0.25863692 0.20785396
0.44168302 0.2556704 0.20693208
0.46419555 0.2520096 0.20851803
0.46755898 0.25245115 0.20789041
0.47160023 0.25289583 0.20800008
0.47732019 0.25309342 0.20793225
0.48177576 0.25222507 0.20829727
0.48518828 0.25109813 0.20964409
0.53540754 0.25305811 0.20793803
0.53890777 0.25505957 0.20748971
0.54206896 0.25772181 0.20744921
0.54499042 0.26047108 0.2071317
0.43389004 0.26317576 0.20803575
0.43561059 0.26142603 0.20679049
0.47300369 0.2530618 0.20874768
0.47493926 0.25325316 0.21015029
0.54153174 0.25707924 0.20813072
0.54450309 0.25973862 0.2074452
0.54735845 0.26264358 0.20794496
0.54953992 0.26512083 0.20749763
0.43040735 0.26960805 0.20919715
0.43151581 0.267055 0.20715751
0.55005962 0.26543754 0.20724688
0.55204922 0.26787996 0.20801365
0.55352545 0.27019545 0.20844585
0.43011066 0.27288988 0.20839103
0.43051219 0.27213079 0.20672747
0.55416387 0.27092648 0.20739435
0.55567706 0.27397335 0.20717768
0.55674994 0.27603602 0.20824434
0.42984909 0.27789766 0.2083551
0.42984861 0.27684349 0.20684271
0.55661988 0.27487284 0.20732464
0.55797786 0.27778035 0.20762369
0.55836749 0.28006279 0.20654753
0.43004778 0.28249827 0.20826522
0.43003753 0.28261241 0.2068194
0.55944538 0.28200355 0.20740509
0.5593732 0.2828511 0.20778482
0.55967921 0.28490373 0.20873849
0.43038565 0.28729966 0.20813039
0.43064621 0.28788638 0.20656453
0.56033659 0.28716183 0.20775594
0.56041485 0.28917027 0.20868628
0.43085575 0.28989893 0.20746656
0.431189 0.2924006 0.20742527
0.4324342 0.29433951 0.20557956
0.56044805 0.29240647 0.20757332
0.56040788 0.29319641 0.20889543
0.43192056 0.29553917 0.20955285
0.43195215 0.29671192 0.20867747
0.43421128 0.29924929 0.20576131
0.43654782 0.30225572 0.20494571
0.55959707 0.29724899 0.20853476
0.55991256 0.29562646 0.20790108
0.43225706 0.29743266 0.21022305
0.43324727 0.29991359 0.20942244
0.43485773 0.3021695 0.2087194
0.43638414 0.30380663 0.20729037
0.43887687 0.3056635 0.20569627
0.55815905 0.30200538 0.20879593
0.43393177 0.3022238 0.21087359
0.43640515 0.30457473 0.20904256
0.43842629 0.30626217 0.20798196
0.44170508 0.30877677 0.20699555
0.44448331 0.31045604 0.2065613
0.55429178 0.30941623 0.2082361
0.55650514 0.30556926 0.20969346
0.43903613 0.30638677 0.20758109
0.44055071 0.30841371 0.2090739
0.44456905 0.31079584 0.20837407
0.44760793 0.31224784 0.20731556
0.45110866 0.31429446 0.20703503
0.45460066 0.31629375 0.20841889
0.54980052 0.31491524 0.20769756
0.55192399 0.31261775 0.20833349
0.44934413 0.31342769 0.20827332
0.45326093 0.31532583 0.20791729
0.45799416 0.31686649 0.20757802
0.46232843 0.31828001 0.20748243
0.46682414 0.31965405 0.20726331
0.47070661 0.32078719 0.20690523
0.47640392 0.32392994 0.20464616
0.4791128 0.3257046 0.20836118
0.54392403 0.31964883 0.20766561
0.54713809 0.31735334 0.20790067
0.54938364 0.31518698 0.20906483
0.47302359 0.32171166 0.20724164
0.4764885 0.32407567 0.20735702
0.48075116 0.3268654 0.20711558
0.48432735 0.32850504 0.2096578
0.53382903 0.3256599 0.2074348
0.53792012 0.32346356 0.20766918
0.54177946 0.3211529 0.20794541
0.54422921 0.31948933 0.20901206
0.47930062 0.32570475 0.2081442
0.48278365 0.32777455 0.20810674
0.48598972 0.32961506 0.20836981
0.51846701 0.3313899 0.20767127
0.52329588 0.32984671 0.20756307
0.52814347 0.32791817 0.2075789
0.53206235 0.32643968 0.20656151
0.5361324 0.32442173 0.20721261
0.5393576 0.32257137 0.20916294
0.48094758 0.3270053 0.20657642
0.48440555 0.3287946 0.20749021
0.48775744 0.33053771 0.20828165
0.49120492 0.33228943 0.20792544
0.50347131 0.33475408 0.20680311
0.50749958 0.33414239 0.2074281
0.51257145 0.33305976 0.20776792
0.51715696 0.33184606 0.20785695
0.52106047 0.33042499 0.20869696
0.52643669 0.32828295 0.20970315
0.48626965 0.33020848 0.20559949
0.48926008 0.33165073 0.20710136
0.49303964 0.33331636 0.20701376
0.49747333 0.33437431 0.20738068
0.50188798 0.33456755 0.20807537
0.50433117 0.24362078 0.20939729
0.50681871 0.24399982 0.21046458
0.49661785 0.2462258 0.21019769
0.49932125 0.24511983 0.21036951
0.50327665 0.24395789 0.21094742
0.50707132 0.24404183 0.21176806
0.50977987 0.24457391 0.21262066
0.45549247 0.25171429 0.21184146
0.45635113 0.25173447 0.2128762
0.49003944 0.24999675 0.21090861
0.49423081 0.24773775 0.21096085
0.4986217 0.2456096 0.21135129
0.50282478 0.24434239 0.21175352
0.50752074 0.24390957 0.21191816
0.51282877 0.24463178 0.21215689
0.51604098 0.24546666 0.21139719
0.52201408 0.24822916 0.21211772
0.52462256 0.24924645 0.21177886
0.52704084 0.25035775 0.21286045
0.44538429 0.25407529 0.21472155
0.44895521 0.25213212 0.21307608
0.45325518 0.25126648 0.21309553
0.45767111 0.25138193 0.2126168
0.46292156 0.25216633 0.21231562
0.46705371 0.253088 0.21233755
0.47118542 0.25360945 0.21292453
0.4850471 0.25214672 0.21066304
0.48735434 0.25142041 0.21144062
0.49384567 0.24761789 0.21162482
0.49773622 0.24625556 0.21274374
0.50203961 0.24499647 0.21333057
0.50741601 0.24427848 0.21361516
0.51290929 0.24480686 0.21340396
0.51782537 0.24624188 0.21314009
0.52225798 0.24810462 0.21230164
0.52656817 0.24976119 0.21217681
0.53075778 0.25152531 0.21188124
0.53407431 0.2531589 0.21171618
0.44092935 0.25660446 0.21476948
0.44393569 0.25453907 0.21304652
0.44721454 0.25252536 0.21251427
0.45199853 0.25120774 0.21249263
0.45757216 0.25126079 0.21241406
0.46253428 0.25187698 0.21257178
0.46742952 0.25287613 0.21263173
0.47240025 0.25350213 0.21277687
0.47723264 0.2536352 0.21232022
0.48285744 0.25297093 0.21188225
0.4875066 0.25143915 0.21283188
0.49169877 0.24954672 0.21360873
0.49617997 0.24729702 0.21419381
0.50130385 0.24583407 0.21524593
0.50654727 0.24528161 0.21619719
0.51945448 0.24733366 0.21526805
0.52349085 0.24848992 0.21322303
0.52871996 0.25060561 0.21316999
0.53189743 0.2520504 0.2126867
0.53612494 0.25433737 0.21246164
0.53973693 0.25651607 0.21238557
0.43475711 0.26237363 0.21544969
0.43582696 0.26084119 0.21328849
0.43840376 0.25843188 0.2128523
0.44166735 0.25552452 0.21204944
0.46265551 0.2517404 0.21294954
0.46778917 0.25287881 0.2129782
0.47170725 0.25345862 0.21419701
0.47762841 0.25379571 0.21332698
0.48213786 0.25325224 0.2138795
0.48559594 0.25239098 0.21458402
0.49057272 0.25008562 0.21416126
0.53483659 0.25348151 0.2131193
0.53867561 0.25591734 0.21299328
0.54229707 0.2582511 0.21202056
0.54482841 0.26053786 0.21197248
0.43278387 0.26439995 0.2141297
0.43360835 0.26361862 0.21293177
0.43587622 0.2608577 0.21201591
0.47354859 0.25359252 0.21321997
0.47514859 0.25382954 0.21421434
0.54128587 0.2574659 0.21304001
0.54425025 0.25990945 0.21281223
0.54725254 0.26267189 0.2124068
0.54948229 0.26511347 0.2126523
0.43081969 0.26871586 0.21355695
0.43148831 0.26664621 0.21193433
0.54995435 0.26516753 0.21277519
0.55203003 0.26752409 0.21307744
0.55392545 0.27007905 0.21228874
0.42983043 0.27392432 0.21486785
0.42993551 0.27316862 0.21285245
0.43029556 0.27174619 0.21107057
0.55477822 0.27122331 0.21272314
0.55594397 0.2733219 0.21266229
0.55710685 0.27545211 0.2129014
0.42931524 0.27738723 0.21316577
0.42937529 0.27817339 0.21116054
0.55673391 0.27443317 0.21220304
0.55803496 0.27732009 0.21277951
0.55845147 0.27878371 0.21172547
0.42928222 0.28229588 0.2131813
0.42922503 0.28271985 0.2120149
0.55974025 0.28177348 0.21283901
0.55972338 0.28359839 0.21236467
0.5597344 0.28518248 0.20975056
0.42934275 0.28733402 0.21231855
0.42928794 0.28790998 0.2121723
0.56052673 0.28742474 0.21254785
0.56032038 0.28898379 0.21276954
0.42993194 0.29309633 0.2119773
0.43132222 0.29598242 0.20958966
0.56043178 0.29278845 0.21255393
0.56044042 0.29184875 0.21238439
0.43109345 0.29773125 0.21284562
0.43250102 0.30005336 0.21117949
0.43521413 0.30331397 0.20893671
0.5596323 0.29783508 0.21259011
0.55941409 0.29778048 0.21085075
0.43147057 0.2986314 0.21431573
0.43219125 0.300394 0.21339634
0.43321273 0.30223325 0.21326935
0.43514007 0.3046869 0.21177983
0.43733451 0.30663911 0.21025527
0.55809116 0.30235958 0.21271351
0.55837798 0.30121127 0.21067402
0.43350968 0.30277523 0.21391603
0.4355596 0.30543774 0.21309662
0.43734503 0.30717108 0.21233262
0.44026393 0.30968913 0.21153976
0.44393557 0.31202564 0.2118514
0.5564453 0.30597386 0.212093
0.43700904 0.30722341 0.21451458
0.43960831 0.30920488 0.21303456
0.44365931 0.31182945 0.21279916
0.44670165 0.31335515 0.2121383
0.45120725 0.31582838 0.21211153
0.45580843 0.31709927 0.21014968
0.54997063 0.31496534 0.21261898
0.55221039 0.31236324 0.21232918
0.5545814 0.30881941 0.21412162
0.44587409 0.31316525 0.21482606
0.44850481 0.31427175 0.21287538
0.45337468 0.31652987 0.21289785
0.45778021 0.3178373 0.21261437
0.46258396 0.31934947 0.21239482
0.4669525 0.32036966 0.21236654
0.47015333 0.32104009 0.21045685
0.54040903 0.32164249 0.21384501
0.54354036 0.31996986 0.21269263
0.54751897 0.3169167 0.21246347
0.54972774 0.31487224 0.21119671
0.45881057 0.31829995 0.21450499
0.46080947 0.31891203 0.21435401
0.46917361 0.3210516 0.21342368
0.47237515 0.32182157 0.21262982
0.4771733 0.32391837 0.21273667
0.48089135 0.32557753 0.21388243
0.48609322 0.32873246 0.21244539
0.49021184 0.32938111 0.21520233
0.53020823 0.32613307 0.2144534
0.53334302 0.3251555 0.21270525
0.53816938 0.32295746 0.21255864
0.54142845 0.32127389 0.2118846
0.5453192 0.31869671 0.21162185
0.47953019 0.32545972 0.21071246
0.48283893 0.32680684 0.21231505
0.48699993 0.32891154 0.2125061
0.49085635 0.32996181 0.21409795
0.5138213 0.33098352 0.21442871
0.51782948 0.33036458 0.21293843
0.5225839 0.32895711 0.21309185
0.52745342 0.32737049 0.21255326
0.53123289 0.32611549 0.21140388
0.53837091 0.3229821 0.21037813
0.53924596 0.32252267 0.21042486
0.48508212 0.328381 0.21086703
0.48870894 0.32990664 0.21170628
0.49262986 0.33089265 0.21301731
0.49740034 0.33174109 0.2138222
0.50302994 0.33254269 0.21340987
0.50757992 0.33269659 0.2128363
0.51240385 0.33180124 0.2128628
0.5171994 0.33072978 0.21239717
0.52154541 0.32956558 0.21180029
0.52528656 0.32823229 0.21209553
0.48996031 0.33096778 0.21015732
0.49347767 0.33221906 0.21064052
0.49789935 0.33304137 0.21133837
0.50223404 0.33346361 0.21153854
0.50668722 0.33312127 0.21173859
0.51121145 0.33252239 0.21160062
0.51583725 0.33146876 0.21129641
0.50348884 0.24501629 0.21400435
0.50787705 0.2448855 0.21489699
0.51051039 0.2450632 0.21464339
0.45455578 0.25208643 0.21738002
0.45755491 0.25208023 0.2158429
0.49083462 0.25037879 0.21358243
0.49441114 0.24910928 0.21460967
0.49883944 0.24718972 0.21539369
0.50242609 0.24615701 0.21606691
0.50801158 0.24513976 0.21576975
0.51221007 0.24575058 0.21640642
0.51539403 0.2464629 0.21598683
0.52656847 0.25032777 0.21421596
0.52867293 0.25151742 0.21442182
0.44583914 0.2538847 0.21755497
0.44871143 0.25255951 0.21798575
0.45259219 0.25183561 0.2179099
0.45716399 0.25208694 0.21759149
0.46241426 0.25291365 0.21718702
0.46723315 0.25396708 0.216699
0.47128069 0.25423318 0.21548496
0.48497227 0.2534368 0.21507527
0.4891493 0.25166655 0.21470608
0.49310341 0.25071877 0.21683151
0.49859166 0.24740751 0.21628529
0.50224489 0.24668212 0.21740875
0.50771326 0.24622113 0.21831125
0.5128727 0.24639542 0.21798007
0.51763374 0.24752727 0.21781595
0.52214742 0.24887036 0.21701622
0.52608484 0.25059488 0.21641073
0.52940071 0.25216711 0.21653441
0.44075105 0.25679302 0.21833995
0.4439002 0.25484532 0.21814935
0.44744888 0.25266171 0.21695714
0.45228142 0.25162369 0.21740615
0.4574843 0.25175217 0.21749537
0.46279541 0.25258884 0.21739531
0.46750998 0.25378183 0.21713206
0.47233397 0.25448349 0.21650131
0.47807917 0.25488991 0.21678668
0.48288706 0.25436923 0.21664324
0.48778838 0.25301713 0.2169906
0.49226749 0.25114742 0.21780029
0.49703208 0.24931784 0.21910998
0.50153941 0.2479566 0.2198406
0.50672454 0.24710202 0.22008365
0.51284206 0.24721737 0.21988669
0.51823115 0.24791607 0.21897145
0.52353007 0.24987146 0.21882419
0.52804184 0.25153619 0.2177626
0.53199077 0.25326043 0.21726513
0.53604782 0.25544903 0.21720496
0.53913295 0.25722441 0.21642961
0.43440291 0.26244956 0.21904439
0.43620655 0.26089028 0.21857132
0.4381049 0.25878206 0.21785231
0.44167498 0.2556183 0.21758631
0.44664907 0.25285381 0.21841978
0.45175171 0.25152904 0.21832849
0.45788899 0.25193009 0.21874337
0.46277586 0.25269192 0.21844517
0.46789426 0.25405261 0.21860388
0.47266653 0.2551026 0.21880494
0.47724038 0.25540367 0.21860166
0.48202279 0.2549153 0.21876521
0.48661265 0.25416157 0.21916397
0.49115235 0.25284877 0.21997803
0.49579215 0.25053176 0.22018276
0.50019908 0.24937373 0.22153211
0.52553803 0.2514455 0.22132339
0.52956647 0.2527836 0.21982254
0.53385562 0.25431958 0.21848775
0.53823465 0.25700125 0.21818651
0.54150558 0.25888237 0.21773008
0.54446435 0.26106074 0.21703961
0.43255618 0.26552027 0.21860886
0.43380061 0.26356286 0.21803066
0.43604341 0.26068932 0.21824883
0.54067379 0.25869814 0.21890821
0.54380071 0.26065361 0.21831506
0.54712415 0.2633425 0.21767426
0.54970223 0.26576862 0.21691778
0.55149609 0.26758885 0.21636809
0.43030027 0.27065572 0.2193083
0.43092167 0.26883867 0.21828271
0.43210045 0.26655629 0.21814822
0.54985243 0.26588818 0.21822724
0.55180699 0.2679019 0.21760319
0.55354184 0.26987574 0.21712053
0.42945686 0.27342543 0.21848653
0.42948857 0.2730827 0.21792127
0.55446309 0.27094984 0.21805663
0.55591518 0.27331617 0.21748492
0.42933971 0.27622789 0.21785226
0.42931098 0.27780315 0.21811734
0.5566138 0.27440819 0.21803877
0.55794299 0.27688646 0.21772026
0.55880249 0.27906042 0.2162661
0.42906901 0.28218162 0.21778226
0.42881793 0.28433475 0.21679999
0.55982292 0.28216994 0.21781603
0.55994445 0.28354022 0.21667065
0.42897227 0.28693768 0.21745189
0.42885518 0.28810158 0.21733765
0.5604158 0.28666487 0.21788363
0.56055748 0.28885293 0.21762985
0.42944804 0.29328021 0.2187127
0.42919341 0.29312885 0.21722278
0.56034899 0.29221061 0.21782225
0.5602935 0.29198527 0.21736106
0.43075213 0.2982817 0.21733536
0.43192247 0.30092776 0.21657375
0.55920678 0.29900768 0.21763857
0.55992466 0.29527667 0.21803617
0.43120697 0.29894933 0.21822928
0.43167603 0.30016896 0.21788032
0.4330442 0.30271044 0.21768321
0.43449381 0.30491784 0.21676721
0.43699783 0.3076126 0.21849282
0.55791354 0.30236194 0.21754421
0.43197986 0.30049485 0.21986735
0.43331984 0.3029252 0.21810114
0.43470111 0.30497757 0.21790986
0.43687913 0.30748242 0.21784253
0.43975028 0.31015822 0.21659315
0.44359443 0.31257233 0.21764974
0.55422944 0.30935803 0.2168376
0.55584711 0.3067438 0.21749061
0.43690386 0.30731449 0.21772382
0.4399173 0.30988681 0.21754256
0.44312826 0.31193599 0.21743365
