0.29102169147365992 0.13863411189717942 0.020014422484550504 0.99589089501740624 -0.046850868101420098 -0.077500460512005223
0.50833971426968161 0.14285685923528416 0.0060544527713567615 -0.97755080869635913 -0.19149444556203915 0.08788796126877392
0.3471080065906208 0.10743966071829807 -0.0086249709540384273 0.017935288680362899 -0.058961261256347978 0.99809914091287188
0.50113047027567148 0.14118781179248277 0.012637564819777361 0.81966373361581701 -0.01655486876372628 -0.57260571086498491
0.31518575954519013 0.22881499593945381 0.070400880865997509 0.11320076142610304 -0.99167429586863787 -0.061381418409741741
0.28679396418808967 0.22197640756761047 0.068927431243399395 0.11297661787913478 -0.99353180599584356 -0.011438281655437903
0.2857226505291709 0.14536561517053717 0.029118263617275479 0.67259025425264629 0.039888982642919089 -0.73893925254250326
0.40102356880948953 0.12627404019875138 0.0055675354128065617 0.86284532267193925 0.018999918967730907 -0.50511083162250314
0.37786046085364 0.10757903124196715 -0.008080123005866623 0.010925318151551957 -0.078409026254669431 0.99686140562521619
0.36193566150779682 0.23266327067531881 0.092133805897025634 -0.0053729619896393981 -0.98812027163472316 -0.15358860655653686
0.52129828655933041 0.11546504355616063 0.0060460831892808565 0.2667602475177917 0.96254443026673575 -0.048447808069421588
0.407041940181256 0.22052338764479471 0.09165639090430347 -0.22145835780350301 0.97366782851942058 0.054103192745452916
0.39740518806955277 0.10754530271746389 -0.0076224778351781756 0.012035446007197401 -0.08269847411743643 0.99650193698660494
0.40256895081257743 0.10721471251230882 -0.007563690076702342 0.013135581543729208 -0.081708942231988574 0.99656966904318212
0.40751619407120654 0.10731088167826269 -0.0075231129387529827 0.014127564831314464 -0.080928736880899591 0.99661976272739006
0.49746346916796746 0.12205650406560972 0.0072282899087054483 0.26924171592131713 0.96176431894319436 -0.050182598731816248
0.37875225178572847 0.23101039469853146 0.06778959120916625 0.084906089574609378 0.99578207730831447 0.034770827782589345
0.42162186157125275 0.12531951754470741 0.0065254426541544322 0.43908677904414611 0.89416027243151841 -0.087636794064080412
0.50825114150859818 0.15211282135284165 0.02171459887107343 -0.97802514646527339 -0.18810454617484282 0.08990824539460758
0.54368911437151457 0.2251211190236713 0.090378011198252978 -0.7595371543969236 0.64237737907667902 0.10224780653491124
0.50301479914689939 0.21075289666010558 0.19473975727566092 -0.068944536577446119 -0.98863554453794256 -0.13359045981014897
0.40980701459608498 0.15319708263247847 0.023333308298663223 -0.99359742000904294 0.1007748435724706 0.051074434449317821
0.50838166412069508 0.15411412129493546 0.026706108910323403 -0.97787935685716598 -0.18850272733266513 0.090656964546373078
0.34653275685741219 0.23266271626224719 0.088365110581081763 0.051567774495580219 -0.9879114106874185 -0.14619100268883775
0.31203385147203694 0.22884646690306262 0.092571265188320512 -0.20886740119285666 0.9749192808729451 0.076855738244596405
0.4065000577313207 0.16465151866533384 0.016469809635691859 0.87795103251420836 0.033736675114215145 -0.47756028023640473
0.52609174510244205 0.20874600086577669 0.22260088708205944 -0.071006518074305872 -0.98661117159950495 -0.14682121939970255
0.40910659632057733 0.16130798594214305 0.021151404449779736 0.88206220658080003 0.039425710754993674 -0.46948043308882836
0.51796713330501865 0.20936995870952224 0.22296832910616188 -0.070214175365896248 -0.98857727601933254 -0.1333601848974561
0.34251541155305082 0.2361909574073629 0.065696778385902307 0.067164629679440216 -0.99467758160898034 -0.078137194501299703
0.52042654729068727 0.11578617715304838 0.0081073282170168424 0.26706508584185185 0.96244149858009131 -0.048811901573206626
0.38615044699191753 0.22020567709720051 0.097982650427724097 -0.10316444397523475 0.99159183653350713 0.078119954041123402
0.40643230478816783 0.17054460684073697 0.017480325695815327 0.88368547584564439 0.046582172283416129 -0.46575753456580288
0.27488392149320978 0.21152985992498621 0.099579880574321017 -0.52604058562640965 0.84099745182446639 0.1265092419492676
0.40308274026392099 0.11563309469457023 0.0062369785191162949 -0.99469436886519813 -0.0064762440450594223 0.10267020410486175
0.29432241758996097 0.17234832910964848 0.022888919366680947 0.99903849410052359 -0.041701522974366793 0.013530346890470222
0.55249670226393699 0.23835419721614115 0.0035887881692737949 -0.66700809414758966 0.74422571816784788 -0.035046865182941429
0.50454993320379848 0.21074482298803612 0.19562340006814832 -0.069535209697320161 -0.98847537807178754 -0.13446665593442236
0.39129047707249659 0.22776342875553438 0.092911841375328985 -0.059655423016045678 -0.99491289402248961 -0.081176128341841361
0.28598998039408746 0.11266393045357385 -0.0063566212517143037 0.98795668940663994 -0.03377888415321402 -0.15099856569529341
0.31280955697583529 0.23359532637705602 0.069907010094643673 -0.30901200508301113 0.94920017850587268 0.059418867702073622
0.28594639070218342 0.22024241652911128 0.0015027581760187908 -0.98727779894973111 -0.15893792543489044 -0.0046134108236257449
0.35503981153254782 0.2318747829136357 0.098498517229935023 0.0066808854654411606 -0.98303687520572092 -0.18328629996584445
0.35210968538741111 0.23126356936426226 0.10198456899275565 0.010199851738682188 -0.97986093386998374 -0.19942044353564209
0.30268193203210897 0.11265009879980757 -0.0074655914576989401 -0.061326903539767268 0.018335201482906023 -0.9979493129857876
0.29879850609154796 0.18431597158762419 0.022500770045530225 -0.99795073905639309 -0.062543711566914337 0.013513199481743782
0.31583674780129417 0.20164587100646653 0.024410930688712425 -0.6066556653517301 0.79449867141974728 0.027216994854431194
0.54719980827600379 0.23049841849460698 0.067971628094658454 -0.77835287580198798 0.62051821947523478 0.09551931757534482
0.32255711383374142 0.11274259946450692 -0.0084541266085846715 -0.057687507645589685 0.020632052067956808 -0.99812147050802646
0.33896855027115907 0.23342669066594643 0.076969303220676577 0.075142105213404239 -0.99039805638262723 -0.11604031169215291
0.54856014777301665 0.2292607653832659 0.099152333977079926 -0.74735767525956531 0.65679679401435842 0.10037169223978694
0.47656855733804432 0.22918205002537334 0.097595624891426785 0.17892450004022439 0.97351774173342709 0.14229978852972427
0.5378871198883618 0.22424919615950792 -0.0049806640950715835 -0.62026291834713232 0.78069766781077721 -0.076059605562426885
0.28326939470608631 0.22135535407779547 0.068163767323470945 -0.50246690816859496 0.86022694578273518 0.086813639163439774
0.54558173768116947 0.22323274267894677 -0.00043286221139781592 0.13399685485097546 -0.75603908857783275 0.6406635149846186
0.54536593707100645 0.21242525277662688 0.065212033118224835 0.17540034383021247 0.98447542295932888 -0.0065468292549775101
0.5110783748096176 0.22551664083570819 0.012710104820290828 -0.21028137800026203 -0.90841057559954153 -0.36134743420317877
0.29279092805855306 0.19616699583835717 0.028648501413106521 -0.97636389455919337 -0.2125246930525341 0.039329381435900125
0.37312898320142457 0.11293213870827398 -0.0044833645204979834 -0.035996403378629839 0.047085082864906591 -0.99824208181953933
0.5053983947988584 0.22721515173708906 0.01223927461341723 -0.21364778671873791 -0.90783093094714573 -0.36082907871431796
0.38242647280958642 0.11270431535976927 -0.0075298697057401684 0.010646471326565501 -0.079203159353915226 0.99680164134929627
0.38763054242664813 0.1123575737874716 -0.0032245513667093322 -0.03873930702588433 0.052186647059261501 -0.99788567479439561
0.38783519393247701 0.21028810881930088 0.027385676579374674 0.031192308908367807 -0.90721427167607038 -0.4195107926290122
0.4915898392994778 0.21338131582494665 0.0051627844731116567 -0.42925615743612894 0.82622356658509855 0.36482018765765784
0.40288847496964242 0.11234035389888672 -0.0027537300207692277 -0.043042342163791616 0.055527733965737347 -0.9975289607533635
0.41337621943820785 0.19491165777753761 0.016417126009331501 -0.90212873709506802 -0.4079753766753883 -0.14042732545282266
0.48327294419141953 0.21110775494205244 0.0056451711971955429 -0.4007399176408819 0.82764155562799713 0.39295925209472826
0.4172272837391533 0.11235404536339216 -0.003398819169823868 -0.044605402558012534 0.056414902195521185 -0.9974105056960787
0.35782277830795384 0.23154579721385735 0.09830556017188595 -0.021127133196520254 0.99504749938065129 0.097129389060208488
0.51059413118797559 0.20852143135505616 0.15372582426768147 -0.83160330595010945 -0.54331721561782698 -0.11507538723002519
0.50704680383508682 0.22293633649998945 0.032484193098949767 -0.21512215255485162 -0.91302984302975321 -0.34655297606171487
0.42018383112358526 0.2262257044200616 0.067159743452149603 -0.25166284015875662 0.96650915693571249 0.050257978895360413
0.38884625563943687 0.22054863518729886 0.065393063248371644 -0.16410904665354228 0.98616924914091941 0.023204155991993929
0.50440567618613574 0.17169339498135291 0.016206516693860657 0.73115013563475451 0.14164948353306356 -0.66734916121629806
0.46346812515888991 0.18645913507403572 -0.0054031244296414462 0.20474382684750414 -0.035681643208835392 0.97816500944664575
0.41871984055759276 0.17818466835501656 0.001501753885521043 -0.88747736642756281 -0.45808186375756216 -0.050447300970375995
0.31006537999883194 0.23305803155934102 0.066157417681805775 -0.32703055927460722 0.94342715903078422 0.054737636993580766
0.41771791089442584 0.17982313927321764 0.0020467652901557248 -0.88910678803700716 -0.4549242729237078 -0.050329170183425483
0.42851513666485308 0.21975173081806021 0.0085211385212521328 -0.08073831538675387 0.98256945155129172 0.16744729710181275
0.2967715998339735 0.21352223522348948 0.15935318063795645 0.0168977944073243 -0.99392554472817785 -0.10874960267036834
0.50977186504514804 0.21403749551778817 0.0036863730817587644 -0.012757938745487198 0.075827516640369075 -0.99703932857190791
0.52658488872219189 0.21369317367866331 0.006214813017915384 -0.023229077413215119 0.08055833155226888 -0.99647918451919792
0.32004466483769195 0.21551956070765835 0.023723794430816729 -0.036923855865330285 -0.94172924804159341 -0.33433912761005324
0.44385585372379471 0.22898136358884 0.011368228567330739 -0.254959591035129 0.94234986445132185 -0.21673103125250673
0.42035693210199271 0.21269172273005121 0.15219731550718893 -0.15106636519993641 0.98664439472117149 0.060924475135799176
0.34751045728616264 0.23719986350249234 0.060926562161771725 -0.022010119995351577 0.9991233575280577 0.035609985392457813
0.32144035079293443 0.22919082611898409 0.032518346472752098 0.52927492623055128 -0.40419481249362882 -0.74598566073141426
0.4941661963025582 0.23236606457605422 0.061665565206965478 0.21402729939976867 0.97413033909017877 0.072542384684370381
0.39524337037419072 0.22961438738380041 0.098865172972003992 -0.55575490450673792 -0.82546330331855822 -0.098725989441081949
0.5271612186706307 0.11281905936922007 -0.0071904303739225017 0.010729323059804084 -0.01128437832235988 0.99987876486729943
0.28253357612185942 0.22610579814435572 0.024309743250868598 0.62397773384596655 0.72131931246042369 -0.30058316176405114
0.4631540720261515 0.21480456833409439 0.2247315625318351 -0.032254197652893085 -0.99918590873942759 0.024231931626103591
0.45718854223531763 0.21500408058298723 0.22319334990420292 -0.025625771260110897 -0.99895258678256116 0.037908431882026083
0.46352099677703124 0.23732875909602083 0.064330125761057178 0.068785006349651331 0.98803705809215314 0.13802678992891862
0.47968716139087669 0.23606848498692315 0.062689463349442531 0.16208454945043851 0.98055709374245403 0.11061819353433905
0.28771462483624866 0.11940644850848425 -0.0064799404429429705 -0.063053927810259161 0.018110262511194842 -0.9978457899793306
0.30550478160568545 0.23206512620924316 0.063821243083481291 -0.3759092041238315 0.92487524056783599 0.057428735312341876
0.52673836856681244 0.15836767620325759 -0.0078934686620953584 0.044631735429002221 -0.043360524626566165 0.99806205874018894
0.2969460338600739 0.22443134161421385 0.10552099237646316 0.074445708819502063 -0.98394913276643958 -0.16217873031483909
0.43418414053737636 0.21903888264223859 0.092917267753444624 0.78280814082812433 -0.45684220275491966 0.42250043365095902
0.51429822235937217 0.15409924836645569 0.00037293505470382439 0.99139406701338539 -0.11039574425160883 0.070360383326076095
0.31477210596107269 0.21231102987220887 0.15243768565050575 0.0038346395918157448 0.99797903883979211 0.063428176511749187
0.48849575422073455 0.2119532699662571 0.0859801319130261 -0.4640114342295501 0.57726963042159107 0.6719026437640766
0.46773558047521618 0.24161012809675594 0.022215667193750815 0.043971006543231508 -0.90890630935832051 0.41467562189283802
0.47730899871978849 0.24137913343762224 0.022866960748033009 0.012587478713640155 -0.89122605070857508 0.45338469528429187
0.54241029369959248 0.24301932423574171 0.022084259543921094 0.13021866601665599 -0.73777856776721817 0.66236386070210285
0.54315274029086591 0.22581898535768466 0.064804765400418032 -0.77843240830924043 0.62044904265162926 0.095320360713505276
0.39819041885604223 0.14694725782593698 -0.00047089773504647471 -0.044649370783361154 0.054004158650306451 -0.99754197131605571
0.54071862234206969 0.23753684496432217 0.021287283875335662 0.12594767242342103 -0.79914393949126061 0.5877977099185665
0.39709418694117943 0.14830609112371035 -0.00056018604316047775 0.86475276644986832 0.019652716111692121 -0.50181313620383916
0.28654073359744431 0.21901641960723944 0.1004732600489477 -0.50118117161351461 0.85613741816253053 0.12588150953218363
0.50760136033453696 0.14512100456141877 0.0026475712881015574 -0.9777512854695628 -0.19047272617672686 0.087878122109107476
0.50225990840427504 0.12166914447297061 0.026768717333077629 0.27072326318146794 0.96123202621811599 -0.052363217481289671
0.39768801095624773 0.13503805613103601 -0.0054490681254953776 0.012604094423392475 -0.067899976238247395 0.99761251497292858
0.54173100337899771 0.21318777459170005 0.061584796126014953 0.18205811015678439 0.98326870273049893 -0.0061239494463867783
0.40224910793502233 0.1260875608845165 -0.0030084576173988096 -0.95750793546835911 0.28239916034274315 0.058559950075408526
0.31137881507531862 0.2129371189009012 0.16854076818522928 0.016311175744413233 -0.99612530398375809 -0.086419467188247459
0.31662151263541022 0.2120126129200558 0.16888708702135469 -0.067097315590108828 0.99569812661474411 0.063899850520094559
0.3091193202494959 0.14274800810668165 -0.00057323223544857049 -0.63258828045838456 0.7507087739862609 -0.19044265301331298
0.42900907012315082 0.12676728241387997 0.00047379570677964989 -0.56692764792325423 -0.4288756269878341 -0.70331979823974744
0.53667147653546321 0.21692876552514859 0.10127787946893022 -0.73903318151616526 0.66543405360499031 0.10501179419915541
0.41937341366817654 0.22610003060668382 0.061842608435054028 -0.25836761413975046 0.96475372393108805 0.049964268480894206
0.36303970794459145 0.22946698699837026 0.10195107383994029 -0.0099199324784610722 0.99490742830747037 0.10030355944949536
0.40251225780763866 0.22067460375030237 0.056549777184699092 -0.26898248553390053 0.96285917091431839 0.023465708218513074
0.37430723477332617 0.23499708149358939 0.059725745492854233 -0.024493798366449892 -0.99947089695511082 -0.021400466848413641
0.44725011351393568 0.22735412596927618 0.10278587801164824 0.011731088206133109 -0.97843499444020288 -0.20622158767767293
0.29985167827104153 0.16178241336449617 0.027048926150075987 -0.97263882495477272 0.23117193230438771 -0.023092291035201325
0.3582213111598116 0.23851152498770875 0.057605475057727201 0.010243921716117118 -0.99939554408990317 -0.033220603864478747
0.52696929751603383 0.21018543806530293 0.1705920747277776 -0.055456573871601661 -0.98836146016352777 -0.1416551886725046
0.5133531073407438 0.15793207844838905 0.027854750233667049 0.98984085248658893 -0.12222278829901234 0.072640737668596092
0.3044786844986711 0.21161788450802038 0.21645762321061823 -0.055588575103591172 0.9983193507641559 0.016382435953992924
0.34857953035487893 0.23710797945000836 0.057510501772049763 -0.0075563139971654295 0.99949108228958339 0.030991588251871195
0.49267477185833009 0.22624298923980149 0.097259170480452781 -0.05705956143228872 -0.96324237889248188 -0.26250395416966033
0.49329791179733584 0.23316043164242703 0.057763410895170592 0.21806616287778366 0.97369166665859874 0.066118733255864162
0.48280249442796691 0.11847690415487348 -0.0071732045330611307 0.010577121957806636 -0.025338678569151372 0.99962296685273244
0.32090865614416236 0.10149768096637057 -0.0025774225973365394 0.046716380984770621 0.71466384395910232 0.69790627586036613
0.49354902381835036 0.11737046696126725 -0.0070727008018370754 0.0093532405462683436 -0.018682074211869029 0.99978172467515414
0.5603934151267066 0.2323029164714922 0.0052242139298390618 0.14577320569936014 -0.72171951864290285 0.67666173891390413
0.5028113457972504 0.11807966796198018 -0.0069740715510219244 0.0090078378789418111 -0.01423410031572736 0.99985811455673479
0.28776774100182845 0.20946829742590661 0.19169776816530482 -0.73163432854085253 -0.67142842742590803 -0.11787737757919496
0.27640067990575701 0.21128179673724845 0.10893902296032922 -0.49652248104594537 0.85765804087670194 0.13374644195460414
0.31672742913915297 0.22690660456870473 0.10830819235662713 -0.15934487174888801 0.98289393089307342 0.092351136760153663
0.42821091842787018 0.22560538899100166 0.10485731583397172 0.0046872222050510096 -0.98716565539939649 -0.15963082016916538
0.50685683869964959 0.20335583821575307 0.19323728073210611 -0.79320428921965425 -0.58819467303214634 -0.15765145790683177
0.47902274529945127 0.23727427483343114 0.05729490240897675 0.1634979708963073 0.98156319202370801 0.099005623966619369
0.47030443294427687 0.23833446301509154 0.057243573288662947 0.11774217203516421 0.98590764839742984 0.11883976504475163
0.5403960253604827 0.11776215083018178 -0.0027729099072865996 0.0066385290093840133 0.006071388787136576 -0.99995953326661513
0.28732628691920148 0.12084364956443283 -0.0022544421876176035 0.99101846648703351 -0.037884076386061206 -0.12824662115651808
0.29958201889830849 0.22701279313869924 0.058156470149541721 0.11614120199322887 -0.99319134433513134 -0.0090650282593414712
0.28708056355484141 0.1215592030612033 -0.0064313192053354453 -0.063148591367884629 0.018421299869227688 -0.99783411001998712
0.2928064773628814 0.12226002050979359 -0.0057629604302696213 0.040178272703263865 -0.052043018661227895 0.99783627445147993
0.292542658215934 0.21082216400700451 0.22319754509885079 -0.057580109437714154 0.99821426647273115 0.015899975076968512
0.30289058658336077 0.12258986121505712 -0.006423168407161145 0.037765287840815863 -0.048467800919203378 0.99811054262960108
0.3079351936633779 0.12318171145692612 -0.0066910621595284185 0.036151445975460599 -0.047955347372738294 0.99819504988366048
0.32286435603445152 0.22801396539180127 0.10773763514327306 -0.14754624335731473 0.98469447969664381 0.092773313652688705
0.48233023585333062 0.21293470640407472 0.16674724525612469 -0.05191619793644224 -0.97829773700298983 -0.20059473115376944
0.53484772153017068 0.23186171686700957 0.050731531265942591 0.93569167974890755 -0.19128165111152551 -0.29646654178290749
0.37244907501894003 0.24438591987242164 0.040409834972117031 0.44263700572610154 0.51230182437946725 -0.73594790705545232
0.3579582218485225 0.2360021333991239 0.059815109494065676 -0.19400798076938805 0.19183657728916642 -0.96206009740128107
0.30807741226927349 0.19047666253188825 0.028134700391085937 -0.69090133485590199 0.72290634940959975 0.0078584653475273197
0.28981563877074568 0.22017756414905654 0.10512368360784213 -0.46439794531549411 0.87639334836265548 0.12755095974723449
0.5257770876461666 0.23526468190787073 0.012939840709409754 0.91898889305133491 -0.20427658365699819 -0.33723951698712212
0.31663682809436622 0.22748689081108792 0.10715828241370279 -0.17925457720152219 0.9793019325600073 0.093997454415204018
0.3823694764193003 0.22602907868883562 0.058312044832593855 -0.010424532677310472 0.99982457334807284 0.015561222567773524
0.40565140795074361 0.18900505421949859 0.028906478413662954 -0.98236236389509257 -0.18587354894800084 0.020376697571506602
0.2924993845132064 0.20933281242297755 -0.0050786494441411815 0.9997167104111887 -0.023632445998189613 0.0028295619402981635
0.52315691906731066 0.2102067631107892 0.057895029726650414 0.9831655430543832 -0.16085019620373589 0.086676002052467269
0.28054249232442385 0.20141138132757574 -0.0018018762992358692 -0.051114794513504466 0.065545452614416411 -0.99653954834889191
0.52326536060664552 0.21006128930361273 0.056433290520013953 0.98294185138402101 -0.16434575299011947 0.082557799582254662
0.50981960035721963 0.20498625477599733 0.059265283329086489 -0.71616983410266133 0.68255683016016022 0.14566036634266991
0.28793842103585549 0.20634149715192399 0.054582511540638423 -0.11474280377308255 0.44150281610747183 0.88989288813399547
0.39709737929520689 0.12211920640219216 -0.0063434784641225464 0.011853594403498943 -0.078206878838378596 0.99686667935189643
0.48700593397339725 0.18742817380394694 -0.0059775453219556556 0.045302829162614293 -0.05319304751662219 0.99755609033565495
0.4076192031754704 0.1222087463560512 -0.0016828552863542257 -0.047443156442168309 0.056454410703008967 -0.99727731670733377
0.52081899604264859 0.20703021692022394 0.060018520571337122 -0.75062865192565476 0.65027741522099314 0.11702952688009258
0.4481823825815725 0.22681723274344723 0.10678213128859458 0.0093138327881967797 -0.97581512994781883 -0.21839891181898052
0.42020972683120261 0.22649608659075643 0.056579993384950351 -0.26221430182720007 0.96368417118875394 0.050561626927132744
0.36528573617919236 0.17924045521363371 -0.0073479132347272587 -0.019681555741662287 0.05654823048092996 -0.99820585752291757
0.47615608766608036 0.2278794115862737 0.10771576684200619 0.195505626169965 0.97155711396340827 0.13362007499991485
0.49607575615213551 0.22426413059749059 0.10504741742527161 -0.054701744047836412 -0.96776166826356458 -0.24585579642922262
0.39737445783244629 0.14772491957354603 -0.00011164575722025965 0.86485955748860077 0.019856680664675157 -0.50162103031432281
0.28166913435463481 0.14713599164094041 -0.0069924752563769229 0.94971927025036862 -0.0097449007496997718 -0.31295102592016838
0.45262011281351888 0.12281249054271727 -0.0065728226931522629 -0.035838521934496353 0.052188040821470522 -0.99799399233701158
0.29681152682179557 0.21153789214097779 0.18822971550164067 0.024375064892657443 -0.99946831437780115 -0.021655132561948384
0.44228895020465453 0.22649073642423906 0.10603695101463229 0.011486857972506441 -0.97912049112192068 -0.20295594585793286
0.52567374689683133 0.21163687840730755 0.053156898203154376 -0.075248868341581052 -0.97317335321036746 0.21741948490096449
0.38479225088396074 0.2226532639955387 0.057496074020828104 -0.096511637091270683 0.99521635119618657 0.015163054366172457
0.50681499369583238 0.209558405516587 0.02572424631086629 0.002293095026421495 0.32252410475837134 0.94655847339982702
0.52512187731689253 0.21058671863648853 0.029054341895947043 0.98226074747023018 -0.1856601091526098 -0.026346685724501565
0.55702869910742536 0.23220018894011846 0.0015279895336191536 0.13901543358417437 -0.55112180442330161 0.82276331099205435
0.29131592649122623 0.21298273948271898 0.026883365771959326 0.67584396965549853 0.6688885932092713 -0.30955286875559651
0.49745148418892082 0.12246088680758878 -0.00013251250939449031 0.024701739293879005 0.0084421796477540112 -0.99965921877340391
0.3075218381105414 0.19573771124415701 0.038951970014737991 0.6748156583216236 0.61100633394402715 -0.4138781066500542
0.29142000328633993 0.19897987744299273 0.051880153014615855 0.99419836307346632 -0.099037468082537689 -0.041966591210632592
0.52321033748556622 0.19122228965486412 0.039413346482783607 0.60699455933350788 0.13285442780219373 -0.78352237106088574
0.51833057980090247 0.12254381051893498 -0.0070506200036597562 0.011960363413423256 -0.012735221184320269 0.99984737027628634
0.45988836120055698 0.23927323974605216 0.047934160223850407 0.0273345218137277 -0.99740978275066694 -0.066532316887978588
0.37048422136516207 0.23653364914460198 0.053905075694091233 -0.020539736759859286 -0.99963523657533782 0.017536048893753826
0.42738610059950632 0.22380333907768105 0.11043854819007323 -0.2954448832721705 0.95102025867973083 0.090954870837308466
0.34735725650329047 0.23917783435465123 0.051337927260331533 0.042639691781101496 -0.99897522631901758 0.015177413669017844
0.35206078845588445 0.22688297675216529 -0.010576878353658413 -0.039165776026309787 -0.95073453427278476 -0.30752217371982754
0.327020335959326 0.23083055072903336 0.035560004353831484 0.52911462373253926 -0.40538379839928074 -0.74545401665545064
0.31647411469613207 0.22573124115522011 0.11325453097087196 -0.15121789884081679 0.9835863799369674 0.098442776640340512
0.2862779778562401 0.21202984607391523 0.00087357813421651991 0.1893332199832265 -0.9124932245788433 0.36264176112037561
0.56583023759840156 0.228621301863493 -0.004312241151976778 -0.15317659491121621 0.11961230209590511 -0.98093314143152643
0.54463323477697378 0.22314326014925862 -0.0036271753178772001 0.10411500647904952 -0.21780136499814318 0.97042394386722197
0.4284865665241967 0.23717982323706718 0.020155522742379497 0.73902740420752544 -0.27202483480928957 0.61631240866728088
0.45858354006301294 0.23834815758183889 0.056888835031670672 0.025693375916028008 0.99061088664284525 0.13427554393378435
0.35463477326372012 0.24211524241180538 0.060850874183526936 0.72091807715237011 -0.30264971947488889 -0.62344227746977532
0.55071941795349932 0.22885012825749715 0.11592183976339117 -0.71783603547034081 0.68923415161797408 0.098324515883248836
0.45256391306861854 0.22403075349984952 -0.0069559675516743871 0.062240800871782215 -0.84736547970770415 0.52734981417136351
0.29567793250257024 0.23073025511108641 0.031492932236988846 -0.84418235271398423 0.53605561997163087 -0.00072640423495331889
0.3036722998442426 0.23162435475759743 0.05163875446018714 -0.37497293651997016 0.92625636066866124 0.038005936357852925
0.44679184662822319 0.22446949747837799 -0.0049712291542719621 0.016067496707966294 -0.056476994895948179 0.99827460380251209
0.29132515750347676 0.21262078781437227 0.16463608543935357 0.018055886379038176 -0.99624774913808956 -0.084642821930495105
0.34241344994241446 0.12736603861619708 -0.0076078835651901553 0.021026947988530453 -0.055112750371219224 0.9982587100570709
0.34747089935295927 0.12732696206112787 -0.0075050746770479173 0.017891673003335318 -0.058566634123461511 0.99812315743328506
0.35251906255396998 0.12714694581960218 -0.0073841496784863214 0.015658716217169407 -0.061730686596029698 0.99797000302554828
0.40736836783105485 0.22172512703534572 -0.008999734688843913 -0.080539636805845208 0.97832969450956708 0.19074688921185465
0.47236075896013807 0.22575072393620718 0.11133571778427102 -0.022148136389985772 -0.96595136466049458 -0.25777397301701932
0.53479992946666977 0.24327779977761518 0.035624790265331635 0.91889031025508694 -0.20404095302396816 -0.33765054006824974
0.30062592170520802 0.21098301004695441 0.16586538378485258 -0.0673127632269864 0.99583633705408825 0.061473422789398005
0.53676186794051972 0.21653748914999602 0.10884215784928529 -0.72267207307462422 0.68327188422170648 0.10432932008857299
0.53671901390604371 0.21197795387370247 0.056079531223309019 -0.087390246981336267 -0.9839493679661665 0.1555846586637715
0.44748151795293295 0.23987393977588378 0.028257271499304563 0.091654630227498479 -0.94928472056693092 0.30076227831299662
0.4142743262525338 0.23352018733644803 0.069782209236833564 0.7513920625763767 0.043446065321948946 -0.65842418523719137
0.46200733731200821 0.24250786250265041 0.027102366814071133 0.061831501537844696 -0.93874513875230814 0.3390198075134922
0.40342785940756148 0.12717257527894621 -0.00082472721052891562 -0.049374306296867849 0.056276540020302745 -0.99719362659467814
0.46794219273057086 0.2433668213901034 0.027586427527790804 0.041384028524501119 -0.9308736611620898 0.36298979205725623
0.31168229672014663 0.22823855893618372 0.048701973209130313 0.077460263590972495 -0.9920136727590404 -0.09954285822466992
0.322675245495673 0.22886373562617859 -0.0018834300258311709 -0.039697554918763214 0.046349747885093447 -0.99813616556282536
0.31731218044082732 0.22979630618666583 -0.0011711349316426527 -0.037980520587151852 0.049116531144271156 -0.99807066203965877
0.31295224299745739 0.22518270698885021 -0.0073869952617186246 -0.034723216816293971 -0.92286042183480455 -0.38356608299589695
0.30717327025425373 0.22529630997333971 -0.0077851631010266752 -0.03433955132857084 -0.91716049126899724 -0.39703580250370907
0.4450333461760374 0.23526367244424753 0.057454587328776209 -0.12198067961411573 0.98642377034171369 0.10994934790946442
0.38296785535380534 0.22654101002858845 0.052806980579319741 0.0082024566098860916 0.99989232233815539 0.012168131934413505
0.32921837256874809 0.23584453539213387 0.050469078470433554 0.093059851739297691 -0.99553349995212237 0.015903284797095168
0.29748750459192402 0.22634510850898912 -0.0083458091796872504 -0.035442073196382373 -0.87478334059834639 -0.48321627296598746
0.32317224991887 0.23676936924652531 0.05003940311867814 -0.18744370420133222 0.98196624978786218 0.024640252288589092
0.32041178959777117 0.2361993460704786 0.052393017269708429 -0.22481981523213362 0.97394425649010608 0.029809997130556213
0.54566967418172807 0.23009087157942348 0.054398308268261759 -0.77408986363200938 0.62681526313825831 0.088811648555205361
0.43335319353743912 0.21571799232924366 0.2247666794366123 -0.0065421763559730048 -0.99737173187151096 0.072158356357045289
0.50302961330542872 0.12170800113535937 0.031682320549350738 0.27112636627286069 0.9610918662765916 -0.052848066082428737
0.53780508173291841 0.22131468465315726 -0.003237648734204041 0.099989981026257432 -0.20399644518363202 0.97385186452910277
0.4433918297316638 0.23465241952597229 0.056939363732994706 -0.14367504290767008 0.98406910951740412 0.10471613886647363
0.28032371522869726 0.21522275112929898 0.056356123998344894 0.46826556034823946 0.095529234025406667 -0.87840852138300007
0.5023475232024347 0.22152872141650443 -0.00088948080180562071 0.039541438914776711 -0.047545321918184599 0.99808612703125232
0.29486963736888155 0.13480247641744703 0.031676833947026667 -0.98220435354965463 0.18631331613149682 -0.023705613263318107
0.47301975575439409 0.22588485002797726 0.11059535169584936 -0.022864503891230077 -0.96578935399446897 -0.25831790137881316
0.51270815408554582 0.13136368704542561 0.027723763238256767 -0.97662343204769153 -0.19547069778517412 0.089430857553560866
0.44235358771225253 0.22599879123267536 0.109141621478428 0.010562129229100499 -0.97807377682253893 -0.20799069334526044
0.31955345024873605 0.22656116004745913 0.11283180144426393 -0.15572834477148198 0.98266952049005474 0.10054499557203433
0.43794674123321253 0.22809023324628144 -0.0027452775714266256 -0.051355110513694721 -0.82679898292095355 -0.56014827899851927
0.30413889922798432 0.21353460031746913 0.22332742769737057 0.027372568628824985 -0.99878952434236445 0.040868429754684098
0.52865325113781947 0.21188707173629071 0.053105222241939629 -0.75630530318070921 0.64763996135566237 0.092546036306109136
0.43337540353333542 0.22136405212436408 -0.00327581021529699 0.099965563462278931 -0.82006475219647157 0.56347199426999817
0.51142655964282158 0.14522616943773647 0.032140190862488004 0.99234261200437512 -0.107119978771141 0.061493500050043323
0.28272753852994043 0.13261737794698752 -0.0050134922717092918 0.95414751416750843 -0.01136606281882438 -0.29912093511481719
0.29252129829579399 0.15197319285768912 0.035156538695288814 0.99857190194997192 -0.05232440869780966 -0.010784845406413564
0.2835816113748863 0.13181223551028332 -0.0021563365966415973 0.95466187568774874 -0.011914274430696425 -0.29745378325571747
0.29324955478104153 0.13397040070093244 -0.0048947289737276845 0.042988451555834674 -0.058401128256705945 0.99736718476756359
0.28605069990174159 0.20950126510927461 0.056017778837362531 -0.35277636382222349 -0.59034176211504319 -0.72597895357322595
0.51129373331092032 0.14789751535092735 0.039754662215434521 0.99140689623757794 -0.11258682791365934 0.066607599212946525
0.42775391307848459 0.22098454127841133 -0.0018662297134906399 0.099552260336636084 -0.81846106696224052 0.56587174282596719
0.52761135593295083 0.20664422528847992 0.22649506272315334 -0.015269317009464215 -0.063754206852284181 -0.99784881072570342
0.31780448763674118 0.13236900726314535 -0.0081386238308300794 -0.060339265821187524 0.020952212253928411 -0.99795800402713664
0.3226381397524376 0.13291003113801306 -0.0070489525043961618 0.031525035444614581 -0.048197642357730573 0.99834020224138642
0.53655083023727768 0.21552428964479167 0.11501959741211261 -0.71473092160011431 0.69173405280061717 0.10326524054435897
0.45141643258063441 0.22862837563659744 0.11659560569431419 -0.12133887420766445 0.98359949571866856 0.13345002670661982
0.33705289946562261 0.13190590993434148 -0.0073760196041175383 0.024258614969399024 -0.052711134213886186 0.998315108535202
0.34171777963450611 0.13002520593126177 -0.0074768434077513487 0.021437630628147891 -0.054690093136865937 0.99827321996822693
0.34723004817407344 0.12923757344319664 -0.007408824975488869 0.017997855137208911 -0.058440357699685273 0.99812864992564609
0.30884829594623142 0.23309434426440073 0.052332740600373351 -0.33442919440875718 0.94183475712863662 0.033232577263157224
0.41620750157562997 0.21571051499117275 0.22464553387302311 0.00072956708756112673 -0.997079142997358 0.076371790155258315
0.30055948006486233 0.16668034704461185 0.030291601768091508 -0.9624605800150976 0.27047445158124811 -0.022653983288264939
0.51629584853959753 0.17454630809912591 0.031761357037239361 0.98500158580059038 -0.14886771038036564 0.087236923240275238
0.29490779762565195 0.17972092174749021 0.030744482011025809 0.99931534242469144 -0.031023574083625476 0.020158974321612178
0.29216936067491711 0.20631633519595288 0.049610210706836272 -0.96903662108948241 -0.23399061068945104 0.078844283855309491
0.52595897570795247 0.20622071729513711 0.18438284342275879 0.090730966161098422 0.99377115306794217 0.064705387020604799
0.50884475648168515 0.2113699696915263 0.14804009763315448 0.17013510339519963 0.98128465823922184 0.090191275060497372
0.50099353570686 0.21089284686906143 0.22608990540149243 -0.064950104199198583 -0.99345290927057528 -0.093982982642302385
0.51780872578823345 0.20696949861622332 0.22515283338159228 0.11908942405890684 0.044948574025284453 0.99186558301536576
0.29665820622615297 0.18672670216756676 0.032917120007893562 -0.97899068874560191 -0.19833197982875764 0.047346141623337834
0.50358665029684058 0.23001521336948924 0.050852113182377555 0.24788866151646596 0.96833698376734234 0.029575282922411298
0.41263952934453768 0.13241697427484619 -0.0056515478941301439 0.017098547147000018 -0.065055519185858487 0.99773514476985337
0.30950461870587526 0.19265254418126174 0.031920695472191285 -0.67414748407848013 0.73852715470622765 0.010139599211946359
0.42253842254262486 0.13172983034911545 -0.0059157915490408676 0.019328904279587486 -0.061966586443049178 0.99789104396419281
0.27960661444302543 0.1626638499117557 -0.0052841080637224596 -0.060183885558065711 0.03966737271528939 -0.99739881665309793
0.41646044732569792 0.2115837328792774 0.18535335937708436 -0.028358178189573983 0.99958283947310211 0.0054736423576033045
0.29571200027766825 0.21316062255687951 0.047595814139972742 0.74764120888633112 0.57706136690696719 -0.32868343675708389
0.30139355011234198 0.21387490363691544 0.22849692890942361 0.027768517352967658 -0.99857174521328596 0.045644047867276834
0.54922939492251255 0.14798146872373097 -0.0041888422070326349 -0.010613028436030594 0.013590233910592029 -0.99985132353248962
0.31331281535453043 0.19653692404197917 0.03414563572779003 -0.66179529215675603 0.74959390413134619 0.011660624695113501
0.31432416517168232 0.19770622594816575 0.032780502455223237 -0.65317874903214235 0.75706962641236308 0.014251406128886264
0.30113058757199124 0.21057772216053691 0.18508493389053823 -0.032500022672265684 0.99893724628158953 0.032682204908135407
0.30902993260280048 0.22506486180824609 0.11670269398363481 0.045620967863750236 -0.97389563140801172 -0.22236462491944367
0.51864694765248376 0.18461354011869585 0.035951126441597314 0.98243198651520525 -0.16487730048813051 0.087423496015282445
0.5197157528196934 0.18831623155908805 0.032813162645707619 0.98180580027645215 -0.16882732350737459 0.086917808191713936
0.29504153663525023 0.19112181138134957 0.033011378820260943 0.99964948328988923 -0.022168204475884537 0.01447346774525545
0.39290674281684212 0.21565027996894354 0.22470971577155624 0.0076033278135358689 -0.99736568914245016 0.072137864728345907
0.28877607939381056 0.21794704288479541 0.1219218539662545 0.046504031282051127 0.997729213041334 0.048721581649597411
0.4970224569450008 0.13281670141801069 9.1133636920301951e-05 0.025621561056837723 0.0089200208286755595 -0.99963191667604667
0.31787920609748938 0.22156655256221749 0.039862475306678913 0.016104150099081734 -0.97768996804512676 -0.20943491288107943
0.49128740007593652 0.23501477494044698 0.048787336681615182 0.23263257122995271 0.97162941638665978 0.042642279665372436
0.50538329000752391 0.21090552904587687 0.17173922850544474 -0.062620201091110828 -0.98385513426818072 -0.16765376580753846
0.45724761795050356 0.23951777813158759 0.047467129368425454 0.042484967032896927 -0.99882814605821946 -0.023181074567710083
0.52992554775317102 0.20885261020856349 0.12278129720312422 -0.68306830329321566 0.72307023429694661 0.10289377682778643
0.28973392011259036 0.20867977650613415 0.034472298189279015 -0.97167716870109244 -0.2297735685467118 0.055204954690120482
0.39054753431868827 0.23013179955033686 0.023262168360395439 0.0024532038816165187 -0.95073093725752156 0.31000752689596073
0.36225862173946938 0.13717726472943403 -0.0064931493756752228 0.011439481993325288 -0.065692537616000177 0.99777433759006584
0.30875857599388834 0.22261651502911692 0.12414958779599954 -0.21831151616110228 0.96861720589541445 0.11883093180986599
0.35518684390616911 0.13440248044247416 -0.0068640383515313997 0.014130818418018269 -0.062944125250460073 0.99791700910811787
0.31362035047502657 0.21579782641616019 0.15190565541069276 0.010126280941429599 -0.98754313160021334 -0.15702236039347681
0.43205223748871213 0.22143972721328858 0.12545839151130966 -0.26861368320801848 0.95870804008634769 0.093410829496458125
0.28150774965709191 0.13745656956034602 0.00036932048351775472 0.91975041210357167 0.0020008488326946393 -0.39249863189476053
0.29285079549368703 0.14344874687744263 0.00069510006753060712 0.045590534348926071 -0.85221621548053084 -0.52119960211978378
0.32672522133920584 0.23716038867994765 0.046370575542622729 -0.14960240899855526 0.98857788638948352 0.018245047643967845
0.3032888287417691 0.13755533241664705 -0.0055556629501266018 0.041179371251319485 -0.056272402576416504 0.99756587556492915
0.29244097242465933 0.2106456763775017 0.034864965418339333 0.99794800903669401 -0.046815042992739558 -0.043682067365067995
0.30543017707077114 0.21070691766390395 0.18269257438684763 -0.050246162014803052 0.99796382140205342 0.039287840044887092
0.31111264410940359 0.21648186945904527 0.13842671516308852 -0.08635284416074826 0.9915654552749591 0.096649543251443482
0.30890686728762601 0.23201766603420754 0.047709070919077459 0.11583026652600718 -0.99253978904569762 0.038054126157833879
0.32264554419438923 0.21141077066454886 0.030035311032200186 0.86467805401504672 0.0089200800407468056 0.50224724496687756
0.4226365964554416 0.21247090103090774 0.036666875695626738 -0.23317421678153286 0.0044590262019571936 -0.97242475375406245
0.54994033744092186 0.22656444539152859 0.12306643850005897 -0.69778035584789933 0.70972379490486082 0.09692631190044447
0.55063712681079724 0.22731912802038856 0.12351292157947347 -0.70140901507364495 0.70613482465221056 0.096948455309051759
0.53673781231355033 0.21519090672854951 0.11894153172030944 -0.70654248503990225 0.70026278400113406 0.10212614834909173
0.55155597367433151 0.22832190223251952 0.12308465557588241 -0.70312664824527071 0.70442921401613856 0.096914389891164507
0.36764307338254432 0.13627637497491135 -0.0039812942193513928 -0.032111843545013508 0.046351488051012121 -0.99840891876004267
0.3310623405754336 0.22476122627695466 0.03232381231901333 0.92220803586574596 -0.080189918218864134 0.37828813832936226
0.49680089021820889 0.11040287161079304 -0.0071472187948426929 0.0084234609129745959 -0.016807917324086055 0.99982325399116134
0.38369776504258246 0.23250402387136745 0.032286863718588396 -0.01404894402476263 -0.98291653584972982 0.18351487875634462
0.45654278276964194 0.22399063423469362 0.12126396825140481 -0.0043201213631497773 -0.97023421014883959 -0.24212995272841603
0.54542373532372357 0.23066676937350161 0.046826907104046148 -0.76805866533299305 0.63494085984479898 0.083282597860829199
0.4629913596718212 0.22765499685674975 0.12254649942015598 0.086964392553836617 0.98766544653782817 0.13020814161554853
0.40292693223900877 0.13814080711961624 -0.0054005812511274745 0.014209807795226674 -0.060933184826606965 0.99804069473609613
0.408759785564349 0.13673516375698835 -0.00053148660396976077 -0.050807432212013511 0.056483175260751688 -0.99710995168260397
0.41718284930486105 0.22313162452348209 0.02230288841902962 -0.77497590650809289 -0.46389009669329767 -0.42920661984857889
0.42217166315194893 0.22940971381677383 0.019170255038938232 0.79373504622821944 0.08127361261680198 0.60280948589193617
0.40900655780481576 0.23154967437712101 0.050735156112235384 0.95499215539597848 -0.0468140476108155 -0.2929136870793777
0.42768732254846176 0.13775234415572155 -0.0058457707875906794 0.020971791253442926 -0.054895451881333081 0.99827184340457398
0.28878419683774537 0.23250657877398978 0.052956774055643377 -0.99808578985095486 0.021792247235668277 0.057877923753491531
0.2849020931180149 0.23681934240510324 0.031863356775692749 -0.99733859878124909 -0.07073274162443792 0.017680459364653754
0.29313747521468875 0.22986740260217542 0.050496539242687453 0.97296146900438485 -0.20702618192227284 -0.10240185462927746
0.29389062286545914 0.2292271817606272 0.046212609624354625 -0.8249325115604158 0.56495208186722568 0.017762222960878274
0.32821414564087109 0.23746263563980771 0.047306889700978294 -0.1451315896185747 0.98920023081700514 0.020487192251976587
0.3120730300790252 0.21754139963149222 0.1393683233795284 -0.13716043912325704 0.98430978780144895 0.11100115124530037
0.4585090470842999 0.23777189684595423 0.031205248928523568 -0.088383211696687905 0.99332166696879631 0.074165179299387277
0.51801428065380284 0.22495633278776997 0.031186662083048863 0.31036998762999235 0.94863099708804743 -0.061397900145650566
0.53126961939930473 0.21430468317524656 0.050252445562826223 -0.75991560957315774 0.64381986058773311 0.089578197346497246
0.40982041234973698 0.22829124144583332 0.032139308982387656 0.060369583080675616 -0.98906540354311723 0.1345553453146924
0.49758021266110991 0.13630051328142101 0.00021317065485662492 0.022206017732526263 0.0095089950057231001 -0.99970819331965255
0.45270025393621588 0.24092234941950766 0.033230401939426453 0.081682184167007746 -0.97443417997446125 0.20929894812732852
0.46708369108916925 0.24347384768660041 0.032409011478173183 0.041490048830778559 -0.97195820200582994 0.23146453162766387
0.51213260000463601 0.1380392014872536 -0.0068988209118812675 0.0165449195023314 -0.016143965718037542 0.99973278330239634
0.5175638696150644 0.13805811648403032 -0.007047950114790355 0.018463862774139875 -0.017028549449362305 0.99968450736975423
0.46759230865716622 0.22703489623694484 0.12213604611210591 0.14851022094208416 0.98059485904106358 0.12797826650634847
0.52770708091992868 0.1377371470975543 -0.0022826891106822698 0.0062894370310231625 0.0074214567935863007 -0.99995268136091997
0.29350328137826864 0.20075989350069151 0.047049454212518868 -0.96673707420378474 -0.24428269957913309 0.075798364403442522
0.33581194778616685 0.23753502301188503 0.032985640359058578 -0.036441307606809518 0.9992873923148955 -0.0098355813454090411
0.36217413715492264 0.22695503362032693 -0.01129916595045458 -0.032494481186820703 -0.94665605604138769 -0.32060321310393086
0.54450198032704566 0.13790372782108262 -0.0032951381120180133 0.00034738643307701466 0.0091789980523706103 -0.99995781176878695
0.4141494904601446 0.19524538977466871 0.037077465525585079 -0.26885139380379058 0.016797389033959366 -0.9630351892695308
0.31339832817347446 0.23060904524016224 0.057276865846204797 0.11259020158917403 -0.99345996542341464 -0.018993251617798353
0.29292323825739752 0.14255790671191462 -0.0042284002550619544 0.045236163762902647 -0.066099830440309301 0.99678708955512574
0.30668697868292782 0.23127926585678585 0.049322629855366965 -0.33351238317348331 0.94231710920570633 0.028424566278915812
0.29441682932384927 0.21046870227511974 0.044617903693329332 0.86209457720713167 0.43269498881975721 -0.26375743894784714
0.52928991992665697 0.20747116000228555 0.12729402464517453 -0.68281696639972245 0.72356923277600926 0.10103739791096068
0.3823860182869811 0.21720513280478673 0.12880393312876265 -0.022509407764672189 0.99455022450663544 0.1017996930048656
0.41264518875683454 0.14821676630478178 0.032473614094930936 0.88486369425866174 0.058977065586486861 0.46210166448274209
0.3228019732534958 0.14288656388543761 -0.0083572348832136652 -0.059950091417518489 0.025400855106612788 -0.99787814040537237
0.53978472214861883 0.21238875688743658 0.1316944279770948 -0.26169444631021771 0.96113178092663409 0.087987024402381181
0.5160083345300257 0.19295581005564752 0.032566617425162855 0.64537181756525974 0.13271793790044051 -0.75225073350045202
0.36605441934229532 0.13839418192218803 -0.0043651601643681691 -0.03042915520266536 0.046126366813707777 -0.99847204507598475
0.29974695355005049 0.19957519525347253 0.036118562199393425 0.71159168554309515 0.57239458364933293 -0.40743307876857965
0.31440433456370559 0.18296617155971118 0.041976567497876552 0.58740327946294801 0.19135374192330512 0.78634670008090124
0.29995408338441265 0.16286579143811966 0.032106790260384412 -0.97746017164987242 0.21017641716665181 -0.019937063605037126
0.42006957551711305 0.16836945525071356 0.028891703144982864 -0.24069408904888809 0.038646719182884343 -0.96983131862882488
0.4843864509379725 0.21279499974842792 0.22627559089065502 -0.053847115799056273 -0.99760423813697019 -0.0434312349729815
0.48610460852388188 0.23636551341861192 0.044296904747736066 -0.082938463105510826 -0.98187573160539676 -0.17041496126239244
0.42219206472934984 0.17307050030498897 0.031448025667575034 -0.25291706981445966 0.034178811726732788 -0.96688404921449411
0.29852538924788025 0.18159318412729891 0.03608575165816727 -0.9826486651279337 -0.17946369329292608 0.046844249507836201
0.41084745452250199 0.18045067939945458 0.03028596814201126 0.91552280540624997 0.078844711481362489 -0.39446356517743242
0.33581978737815321 0.23768158166177888 0.042440681019743305 -0.06486202329700827 0.99784513695693222 0.0098995244946258418
0.55464760276265701 0.22984406386269354 0.12828083516800279 -0.68648647535280238 0.72092768123612105 0.094866208869101673
0.32975109936472613 0.2365513393397348 0.045459386202783114 0.088705273059384609 -0.99503122318549087 0.045213265945361625
0.55567880820868421 0.23095571622601122 0.12879347682989051 -0.69065818458683148 0.71693007754896776 0.094881694593073468
0.55681446573267723 0.18736853481596466 -0.0069143849918311033 -0.090164340340161034 0.065076223384048684 -0.99379850919645329
0.31036238566719798 0.22248714585068796 0.12611251349008987 -0.20893887486845047 0.97056888156033949 0.11975221382261632
