0.521433 0.203986 0.0828065
0.526525 0.205833 0.0825623
0.531364 0.206221 0.0833804
0.536469 0.205672 0.0836027
0.452694 0.217748 0.157438
0.447025 0.218238 0.157636
0.442579 0.218414 0.158169
0.280453 0.209604 0.0839717
0.287702 0.207537 0.0817769
0.292751 0.207993 0.0824591
0.299755 0.207158 0.0824742
0.302021 0.208269 0.0823931
0.306339 0.207281 0.0826846
0.308515 0.207455 0.0820577
0.437267 0.21735 0.158044
0.43276 0.218069 0.157043
0.427696 0.218295 0.15749
0.42199 0.21858 0.157777
0.417646 0.217795 0.157274
0.412663 0.217596 0.157226
0.407566 0.217559 0.156721
0.394838 0.206893 0.0818952
0.398272 0.205836 0.0822015
0.402729 0.206299 0.0828285
0.408043 0.207583 0.0824691
0.412295 0.207349 0.0823101
0.41664 0.207996 0.0824436
0.402639 0.217736 0.157552
0.397962 0.218115 0.158111
0.393394 0.21809 0.158955
0.386854 0.218159 0.159107
0.382192 0.218249 0.157891
0.377666 0.218466 0.157635
0.373262 0.218125 0.157747
0.3677 0.217584 0.15684
0.362288 0.217807 0.157762
0.357532 0.218544 0.157623
0.352982 0.217689 0.157655
0.504004 0.207627 0.0822401
0.50839 0.207589 0.0826282
0.511903 0.206357 0.0826947
0.51721 0.207053 0.0830021
0.521982 0.207363 0.0823797
0.527132 0.207046 0.0833879
0.531722 0.205576 0.0814284
0.34744 0.216412 0.157544
0.342882 0.21611 0.157793
0.338509 0.216 0.158935
0.332277 0.21586 0.15914
0.326483 0.215651 0.157639
0.281091 0.210227 0.0803521
0.283197 0.211842 0.0829545
0.323202 0.215503 0.157713
0.31136 0.218324 0.156717
0.30253 0.212836 0.0821988
0.30639 0.213927 0.0822884
0.306444 0.218669 0.157682
0.305199 0.217259 0.158021
0.296329 0.219081 0.156722
0.346898 0.217081 0.0835622
0.353825 0.216265 0.0843294
0.356787 0.214622 0.0845099
0.360819 0.215869 0.0869566
0.399325 0.210994 0.0809384
0.40268 0.213166 0.0831762
0.407871 0.212278 0.0827822
0.412946 0.211755 0.0824584
0.416319 0.210928 0.0826912
0.294237 0.217083 0.157342
0.449869 0.216067 0.0837247
0.284301 0.217574 0.157523
0.560528 0.213333 0.157861
0.557546 0.213073 0.157698
0.5526 0.212516 0.157038
0.47164 0.21389 0.0825425
0.476555 0.214029 0.0835918
0.48163 0.213261 0.0847489
0.488922 0.214784 0.0836417
0.492326 0.214054 0.0830758
0.497522 0.213985 0.0838536
0.502491 0.21375 0.0833047
0.507375 0.213801 0.0822825
0.512892 0.21348 0.0824114
0.517072 0.212052 0.082595
0.522478 0.212806 0.0828631
0.527237 0.214038 0.0823287
0.529987 0.210797 0.0812128
0.543174 0.21516 0.083955
0.548184 0.214547 0.0822607
0.553595 0.215822 0.0824031
0.55714 0.214119 0.0824861
0.557609 0.215102 0.0830815
0.284039 0.218403 0.0823159
0.286533 0.218558 0.0814635
0.294019 0.221202 0.0819468
0.297972 0.218989 0.0815338
0.303588 0.216687 0.0828595
0.307023 0.217478 0.0830836
0.310669 0.219935 0.0815535
0.317849 0.220762 0.0833125
0.323796 0.22143 0.0823769
0.32659 0.221642 0.0824947
0.332631 0.221894 0.0817609
0.338403 0.219471 0.0840474
0.342934 0.218846 0.082772
0.346986 0.217991 0.0839122
0.351783 0.217493 0.082674
0.356956 0.218317 0.0842863
0.361566 0.21928 0.0840146
0.365393 0.220332 0.0851899
0.379729 0.22328 0.0840686
0.382885 0.223351 0.0829812
0.387747 0.223245 0.0813401
0.395224 0.221422 0.0820919
0.399564 0.219347 0.0821015
0.40287 0.218305 0.0833981
0.40756 0.218072 0.082231
0.411755 0.21843 0.082322
0.416418 0.218076 0.0827804
0.420903 0.219253 0.0828669
0.425829 0.221696 0.0829951
0.431356 0.222389 0.0829098
0.438439 0.223248 0.0826295
0.444093 0.220898 0.0841582
0.448807 0.220317 0.0831988
0.453056 0.220348 0.084431
0.458132 0.219021 0.0828101
0.462923 0.218291 0.0830026
0.467577 0.217456 0.0824738
0.471859 0.218037 0.0823648
0.476872 0.218239 0.0829194
0.482274 0.219198 0.0833467
0.487775 0.219265 0.0821223
0.492513 0.219252 0.0823802
0.497388 0.218693 0.0824918
0.502434 0.217747 0.0823291
0.507082 0.217951 0.0818887
0.512352 0.217311 0.0827088
0.51729 0.2164 0.0823788
0.523616 0.216656 0.0828366
0.526851 0.216883 0.0828458
0.532034 0.217853 0.0829464
0.536687 0.218029 0.0837894
0.543162 0.218424 0.0820794
0.547629 0.216417 0.0825844
0.552391 0.217629 0.0820007
0.558357 0.217109 0.0821616
0.558119 0.217306 0.0826868
0.284368 0.221384 0.082727
0.284257 0.220115 0.0821975
0.287301 0.222786 0.0827098
0.292225 0.221861 0.0824212
0.297663 0.221556 0.0826214
0.302341 0.221253 0.0823453
0.307473 0.220686 0.0828547
0.312734 0.222489 0.0828916
0.31733 0.222042 0.0823104
0.322303 0.222392 0.0825559
0.326845 0.223225 0.0827589
0.333952 0.222631 0.0824955
0.33778 0.222672 0.0819899
0.342193 0.223378 0.0835663
0.347183 0.222637 0.0836323
0.352743 0.222283 0.0836541
0.358732 0.222196 0.0826578
0.362111 0.222785 0.0829533
0.36642 0.223704 0.0844305
0.372253 0.225511 0.0848184
0.377882 0.224425 0.0838413
0.382978 0.223606 0.0833188
0.387619 0.224086 0.0828373
0.392835 0.222908 0.0824544
0.397644 0.222687 0.0827115
0.402942 0.222584 0.0829642
0.407231 0.221945 0.0829521
0.412466 0.222072 0.0827284
0.417065 0.220407 0.0827594
0.422606 0.220891 0.0820133
0.427462 0.221699 0.0826
0.432498 0.222415 0.0824093
0.437712 0.222877 0.0821136
0.442475 0.22356 0.082811
0.447243 0.222682 0.0831769
0.452159 0.222296 0.083164
0.457493 0.222283 0.0829098
0.462544 0.222506 0.082409
0.467326 0.222188 0.083218
0.473184 0.222713 0.0827839
0.477154 0.222718 0.0824541
0.482394 0.222542 0.082119
0.486791 0.221319 0.0820684
0.492895 0.222009 0.0825744
0.498107 0.222886 0.0824443
0.50245 0.222238 0.0827181
0.507342 0.221889 0.0820809
0.511612 0.221946 0.0833896
0.517887 0.223447 0.0826519
0.52158 0.222464 0.0821635
0.527883 0.22278 0.0840493
0.547418 0.214022 0.156884
0.537571 0.219311 0.0812636
0.540579 0.219086 0.0810442
0.54766 0.216734 0.0816156
0.554361 0.217502 0.0834603
0.55924 0.219827 0.0804631
0.558651 0.222778 0.0829817
0.285174 0.227145 0.084081
0.287808 0.226411 0.0824495
0.290448 0.226563 0.0829945
0.296547 0.223017 0.0855194
0.303111 0.222511 0.0835292
0.308083 0.224355 0.0811437
0.313622 0.226145 0.0818904
0.317488 0.227145 0.0825723
0.322189 0.227239 0.0836717
0.327746 0.226813 0.0822493
0.333038 0.227583 0.0817996
0.337283 0.227477 0.0828162
0.342585 0.22699 0.0825699
0.347609 0.227327 0.0827117
0.352432 0.227555 0.0825792
0.357259 0.226806 0.0828882
0.361944 0.226284 0.0815823
0.367671 0.226501 0.0819134
0.372531 0.226067 0.0825525
0.377436 0.226519 0.0823752
0.382771 0.226892 0.0823502
0.387595 0.225359 0.0810245
0.391849 0.227137 0.0829841
0.39716 0.22631 0.081936
0.402585 0.226782 0.0822877
0.407479 0.227502 0.0824931
0.543162 0.214404 0.15702
0.424516 0.222465 0.084053
0.426641 0.22545 0.0814405
0.431907 0.226554 0.0822764
0.438665 0.225046 0.0814553
0.4423 0.22599 0.0826015
0.446442 0.224859 0.0837216
0.452917 0.222754 0.0828551
0.459016 0.224051 0.0814574
0.462798 0.224507 0.0838121
0.466866 0.226176 0.0820407
0.471853 0.224032 0.0820082
0.475836 0.226793 0.0832893
0.481202 0.223265 0.0813606
0.488631 0.223082 0.0843949
0.495082 0.225902 0.0838652
0.498634 0.225651 0.0838093
0.502429 0.227894 0.0819576
0.507627 0.227373 0.0832602
0.512396 0.226368 0.0830778
0.517949 0.225535 0.0827074
0.522888 0.226327 0.0841386
0.527083 0.226954 0.0847364
0.530749 0.229052 0.0817427
0.538198 0.214807 0.156922
0.531793 0.217309 0.156517
0.525498 0.214992 0.157984
0.288516 0.230913 0.0810028
0.521572 0.213408 0.157603
0.518759 0.213321 0.157604
0.313416 0.232269 0.0822586
0.31673 0.232324 0.0831551
0.322477 0.231734 0.0819197
0.327073 0.229877 0.0817919
0.333311 0.23097 0.0817203
0.336806 0.231477 0.0832506
0.341884 0.230517 0.0812933
0.514536 0.214134 0.157811
0.352654 0.232076 0.0830987
0.508416 0.21406 0.157809
0.361414 0.229649 0.0833751
0.36855 0.228682 0.0824172
0.373547 0.227166 0.0836743
0.377298 0.227201 0.083817
0.382316 0.228188 0.0841846
0.390929 0.22928 0.0810206
0.39321 0.232391 0.0821577
0.396297 0.232193 0.0832813
0.502282 0.216159 0.156495
0.410625 0.232121 0.0806748
0.413439 0.231186 0.0838691
0.41603 0.235134 0.0821418
0.498219 0.215121 0.159435
0.42598 0.235895 0.0836218
0.492423 0.217357 0.156913
0.488749 0.217729 0.156759
0.481363 0.217261 0.15825
0.476331 0.21677 0.159189
0.472162 0.217466 0.159451
0.495716 0.230527 0.0843965
0.498727 0.232616 0.0818608
0.50274 0.233741 0.083221
0.505947 0.231637 0.0822054
0.509559 0.228872 0.0831119
0.524119 0.230596 0.0831527
0.527546 0.233066 0.0822553
0.531242 0.230798 0.0833418
0.5321 0.232807 0.0804392
0.467524 0.217203 0.15785
0.463211 0.21723 0.158111
0.457419 0.216857 0.158396
0.303749 0.240114 0.0830335
0.309467 0.239415 0.0810376
0.312445 0.237537 0.081919
0.317537 0.237318 0.0828556
0.322428 0.236817 0.0820851
0.326975 0.237582 0.0818089
0.332189 0.237707 0.0829707
0.33722 0.237415 0.0820595
0.341605 0.238118 0.081336
0.451479 0.216349 0.15965
0.446768 0.216038 0.15765
0.442997 0.213482 0.156987
0.439611 0.215968 0.157231
0.39117 0.234728 0.0855712
0.391398 0.236963 0.0818219
0.395763 0.234352 0.0833067
0.4114 0.232153 0.0830923
0.414241 0.237617 0.0838547
0.418434 0.236676 0.0809838
0.421458 0.238878 0.0825154
0.426278 0.238403 0.0836213
0.433217 0.240566 0.0825686
0.437657 0.238431 0.0819398
0.433269 0.21549 0.160704
0.427981 0.214746 0.156242
0.421715 0.214917 0.158786
0.463239 0.238784 0.0824325
0.467653 0.236516 0.0809788
0.416439 0.213576 0.157435
0.412696 0.212376 0.157728
0.406834 0.212445 0.157657
0.402477 0.213669 0.15739
0.497758 0.236307 0.0831809
0.500291 0.235292 0.0836983
0.504699 0.23407 0.081676
0.524238 0.233493 0.0845216
0.529599 0.233237 0.0825707
0.530991 0.234001 0.0812005
0.299625 0.239859 0.0817609
0.30284 0.240878 0.0825854
0.308058 0.242435 0.0827152
0.310949 0.241969 0.0822392
0.315717 0.239041 0.0825924
0.321943 0.239248 0.0806842
0.32783 0.239287 0.0821951
0.332506 0.239709 0.0828231
0.337655 0.239704 0.0815596
0.341835 0.240709 0.0817674
0.39919 0.212775 0.157011
0.394335 0.214368 0.157514
0.388319 0.214592 0.156332
0.381776 0.21614 0.156289
0.37654 0.216589 0.156388
0.371432 0.215909 0.15652
0.366519 0.215246 0.158371
0.36325 0.215541 0.158532
0.390691 0.238359 0.0832803
0.41442 0.237271 0.0796054
0.41966 0.23889 0.0816809
0.424773 0.241997 0.0831721
0.426878 0.242911 0.0838327
0.431291 0.240606 0.0815596
0.434884 0.240025 0.081236
0.438183 0.238705 0.0807539
0.458276 0.239621 0.0807695
0.461029 0.239173 0.0817262
0.46587 0.23839 0.080634
0.356692 0.21546 0.158203
0.352079 0.214828 0.157465
0.495644 0.237856 0.0801004
0.501687 0.237996 0.0801246
0.30604 0.24249 0.0823267
0.306897 0.242689 0.0807801
0.310743 0.243193 0.0850608
0.347143 0.214653 0.157482
0.422921 0.243166 0.0806431
0.427852 0.244147 0.0832594
0.430414 0.241721 0.081876
0.299255 0.202163 0.0857509
0.300444 0.202415 0.0868871
0.409756 0.200675 0.0878848
0.4129 0.201062 0.0879497
0.414263 0.200473 0.0882801
0.515578 0.202828 0.0872224
0.517978 0.201222 0.0872099
0.519843 0.202171 0.0881877
0.34274 0.213698 0.157134
0.337129 0.212856 0.157857
0.294047 0.204895 0.0865491
0.298965 0.203234 0.0868374
0.302212 0.203908 0.0867674
0.306052 0.204474 0.0871495
0.333719 0.212147 0.158438
0.326804 0.212318 0.157195
0.323572 0.212675 0.157617
0.318297 0.211416 0.157045
0.312061 0.210074 0.159217
0.308456 0.211638 0.157395
0.304029 0.211828 0.158947
0.398337 0.205933 0.0883449
0.40236 0.206555 0.0870871
0.407956 0.204674 0.0871552
0.412101 0.203026 0.0872112
0.416484 0.204929 0.0883796
0.296696 0.211639 0.157584
0.294439 0.21238 0.157906
0.28733 0.213473 0.157332
0.283968 0.213071 0.1575
0.509897 0.207134 0.0881688
0.51339 0.204096 0.0873643
0.517472 0.202949 0.0873347
0.521393 0.203751 0.0873644
0.525133 0.205125 0.0877222
0.532698 0.205796 0.0869821
0.560901 0.211143 0.158308
0.556939 0.212084 0.157318
0.552725 0.212045 0.157273
0.54857 0.212453 0.158503
0.522029 0.207438 0.15753
0.517793 0.206819 0.15726
0.293196 0.204452 0.0874759
0.2986 0.207797 0.0868674
0.301874 0.207618 0.087504
0.306128 0.205576 0.0869382
0.513913 0.205945 0.157647
0.509316 0.206072 0.160169
0.444602 0.213064 0.159116
0.442493 0.21147 0.157708
0.440767 0.212915 0.156904
0.42023 0.207498 0.155867
0.418145 0.206827 0.159195
0.411427 0.207917 0.157688
0.409462 0.208228 0.157861
0.402721 0.209691 0.158192
0.341061 0.212778 0.15872
0.398263 0.207151 0.0877914
0.40289 0.206377 0.0867328
0.408239 0.207532 0.0874205
0.411965 0.207534 0.0875195
0.416134 0.207279 0.0878327
0.339101 0.212912 0.159347
0.331041 0.211937 0.156105
0.329111 0.212013 0.156599
0.321585 0.211195 0.159165
0.317192 0.2101 0.158242
0.311901 0.210846 0.156599
0.487325 0.210236 0.086728
0.3074 0.207745 0.157757
0.302298 0.207291 0.157314
0.298963 0.20873 0.157783
0.50826 0.20741 0.0867964
0.511769 0.206816 0.0879689
0.517159 0.206955 0.0866721
0.52248 0.208099 0.0873788
0.526116 0.205206 0.0872713
0.29212 0.211937 0.15961
0.536885 0.205513 0.0870918
0.286639 0.209823 0.157793
0.546413 0.208891 0.0872904
0.284536 0.209551 0.155676
0.55474 0.210261 0.086439
0.28158 0.210526 0.0854894
0.284097 0.211591 0.0874448
0.299442 0.213331 0.0881708
0.302744 0.212209 0.086719
0.305169 0.213089 0.0870179
0.521933 0.202473 0.158203
0.336873 0.216552 0.0875979
0.343405 0.216734 0.0874579
0.347156 0.21715 0.0872297
0.352382 0.217545 0.085422
0.357838 0.215663 0.084256
0.361647 0.21567 0.0886573
0.365772 0.215898 0.0900665
0.369158 0.218059 0.0898611
0.518204 0.202968 0.157428
0.402802 0.212761 0.0882779
0.407555 0.212766 0.0869193
0.412082 0.212473 0.0879748
0.417386 0.210804 0.085736
0.512327 0.202574 0.158753
0.443861 0.215764 0.0902467
0.448286 0.216431 0.0882433
0.4526 0.217036 0.0873246
0.457405 0.21811 0.0871538
0.463219 0.217123 0.0872492
0.469307 0.21633 0.0856778
0.474065 0.215262 0.0868596
0.47821 0.215525 0.088014
0.48248 0.213825 0.0890412
0.48668 0.214593 0.0871753
0.493755 0.214457 0.0858365
0.497147 0.214467 0.0872259
0.502721 0.21321 0.0857655
0.508241 0.213765 0.0865873
0.512693 0.213124 0.0873082
0.517104 0.212353 0.0876225
0.523105 0.212613 0.0872748
0.526273 0.213958 0.0874159
0.53908 0.217008 0.0893786
0.543301 0.214803 0.0872819
0.547511 0.214513 0.0889683
0.553068 0.214707 0.0888666
0.55686 0.213948 0.0872847
0.557561 0.215068 0.0874483
0.284581 0.217007 0.0875302
0.286885 0.219453 0.0886973
0.293551 0.2198 0.0893499
0.297322 0.217881 0.0880402
0.303438 0.218291 0.0874936
0.307406 0.218051 0.0877466
0.309313 0.221371 0.0867575
0.31888 0.221243 0.088205
0.322408 0.220522 0.0885872
0.329296 0.218147 0.0894583
0.337532 0.219261 0.0892962
0.342984 0.218968 0.0870203
0.348133 0.218394 0.0870973
0.352052 0.218424 0.0869369
0.35748 0.218345 0.0860506
0.362616 0.217945 0.087069
0.366594 0.218553 0.0895621
0.371753 0.221802 0.0899173
0.376741 0.222524 0.0900173
0.381308 0.222189 0.0887454
0.386835 0.223688 0.0875112
0.394821 0.221768 0.0883221
0.399572 0.219335 0.0874388
0.402713 0.218038 0.0882159
0.407646 0.218139 0.087434
0.411956 0.217956 0.0876983
0.417193 0.21835 0.087151
0.421218 0.219959 0.0873706
0.425628 0.221113 0.0879507
0.432277 0.221716 0.0881924
0.439295 0.220977 0.088059
0.444718 0.219885 0.0887175
0.447284 0.219389 0.0877343
0.452399 0.21802 0.0873764
0.45654 0.217838 0.0865379
0.462854 0.2186 0.0861936
0.468114 0.217192 0.0871025
0.472579 0.21863 0.0869425
0.477035 0.217319 0.0883264
0.482037 0.218273 0.0881015
0.487487 0.217906 0.0878648
0.492205 0.218448 0.0872556
0.497179 0.21842 0.0872064
0.502963 0.217954 0.0869077
0.507717 0.218171 0.0870076
0.512595 0.217214 0.0873768
0.517498 0.216707 0.0869104
0.522855 0.216842 0.0873744
0.527174 0.216406 0.0871685
0.532303 0.218256 0.0878285
0.537011 0.21796 0.0873634
0.542692 0.21706 0.0878785
0.547523 0.216886 0.0870693
0.552797 0.217361 0.0879704
0.557587 0.217324 0.0876273
0.558869 0.217783 0.0868068
0.284519 0.223739 0.0882963
0.284715 0.220632 0.0868292
0.287447 0.223256 0.0876789
0.292085 0.222049 0.0872439
0.297002 0.220984 0.0872608
0.302019 0.222539 0.0877794
0.307286 0.222282 0.0876016
0.312538 0.222523 0.0874193
0.317351 0.223339 0.0870222
0.322934 0.223037 0.087756
0.328126 0.22247 0.0880524
0.332437 0.221811 0.0877246
0.337141 0.222668 0.0871784
0.342962 0.22276 0.0872698
0.347259 0.222795 0.0875235
0.352843 0.222184 0.0881983
0.35768 0.22216 0.0873131
0.362301 0.222058 0.0865008
0.36719 0.222113 0.0881076
0.371821 0.222923 0.0884588
0.377097 0.223657 0.0878588
0.383 0.222545 0.0878576
0.387632 0.223928 0.0872683
0.392641 0.223113 0.0871418
0.397388 0.22248 0.0876689
0.402626 0.222355 0.087507
0.406736 0.221936 0.0878263
0.411881 0.222437 0.0880159
0.417552 0.220382 0.0880346
0.422727 0.219926 0.0873824
0.427914 0.220844 0.0873069
0.432503 0.221132 0.086578
0.437583 0.221809 0.0872133
0.443615 0.222731 0.087536
0.447323 0.222808 0.0880764
0.452264 0.222821 0.0871204
0.456373 0.221874 0.0856251
0.463092 0.220997 0.0846066
0.468071 0.221906 0.0861967
0.472614 0.221712 0.0870932
0.477147 0.2216 0.0876574
0.482494 0.221189 0.0872228
0.487697 0.222459 0.0877437
0.493147 0.222685 0.0875617
0.497825 0.222551 0.0871827
0.502282 0.222171 0.0864239
0.506884 0.222324 0.0876486
0.513334 0.222809 0.0874632
0.518077 0.223407 0.0872314
0.522091 0.222236 0.0869147
0.526 0.22253 0.0871151
0.530138 0.219106 0.0854354
0.538194 0.217952 0.0859496
0.540745 0.217341 0.0863443
0.546815 0.216617 0.0873461
0.554291 0.217478 0.0875696
0.559684 0.220752 0.0879975
0.558947 0.223248 0.087379
0.284927 0.225917 0.0858727
0.287766 0.226454 0.0877631
0.290208 0.226935 0.0883648
0.297353 0.224525 0.0880965
0.30332 0.22259 0.087901
0.308841 0.224295 0.0859482
0.313364 0.226743 0.0884718
0.317404 0.228409 0.087623
0.32234 0.227847 0.0871777
0.32676 0.2256 0.0866631
0.332506 0.224867 0.0863664
0.337592 0.227056 0.0862731
0.342108 0.224975 0.0866264
0.347189 0.226019 0.086002
0.352461 0.22532 0.0861735
0.35703 0.22474 0.0865598
0.363089 0.225293 0.0851981
0.367695 0.22516 0.0862775
0.373308 0.225681 0.086881
0.377188 0.227313 0.0874757
0.381407 0.226014 0.0877056
0.387128 0.227499 0.0874944
0.392715 0.227444 0.087375
0.397773 0.22548 0.0865687
0.401433 0.226742 0.0870814
0.406231 0.226067 0.085738
0.509683 0.204622 0.159008
0.430387 0.223733 0.084454
0.439798 0.223535 0.0846597
0.44394 0.227469 0.0879699
0.446226 0.224232 0.0866092
0.451499 0.224852 0.0852443
0.416806 0.202872 0.157488
0.412309 0.20389 0.157496
0.468109 0.226163 0.0858329
0.47237 0.225815 0.0875923
0.478127 0.22554 0.0870507
0.482235 0.226554 0.0885293
0.487238 0.224446 0.0893597
0.493745 0.225555 0.0879966
0.49663 0.227902 0.087007
0.503409 0.22677 0.0869641
0.508096 0.228118 0.0875173
0.512576 0.227709 0.0867367
0.51696 0.226762 0.0871338
0.522332 0.227021 0.0874645
0.526406 0.226915 0.0873134
0.528414 0.229241 0.0862278
0.408884 0.202534 0.158064
0.310758 0.204906 0.156531
0.308118 0.202005 0.157306
0.302683 0.202628 0.157273
0.290048 0.230074 0.0858352
0.299716 0.204141 0.157124
0.288321 0.207881 0.156677
0.31348 0.233825 0.0879422
0.317234 0.232519 0.0875479
0.321972 0.232716 0.0871497
0.520255 0.198985 0.157113
0.518677 0.198321 0.157695
0.336815 0.230496 0.0870566
0.341965 0.23006 0.0842329
0.349214 0.228368 0.084208
0.351413 0.23065 0.0851961
0.515229 0.199205 0.158361
0.512415 0.202118 0.158536
0.368828 0.229914 0.0853229
0.41487 0.199984 0.156886
0.380778 0.2293 0.0884625
0.383984 0.231468 0.0885123
0.387107 0.232352 0.0883824
0.393062 0.233793 0.0866451
0.39768 0.231599 0.0878106
0.402548 0.230274 0.0869132
0.412189 0.19853 0.157614
0.41608 0.234785 0.0868104
0.422251 0.235119 0.0879523
0.427819 0.235137 0.0885475
0.429893 0.236074 0.0860733
0.408595 0.199945 0.158185
0.307326 0.202266 0.159036
0.461143 0.233934 0.0892894
0.467739 0.233278 0.0881514
0.30354 0.201078 0.157207
0.519607 0.197122 0.157629
0.516488 0.195428 0.157181
0.411455 0.195648 0.159402
0.497387 0.232129 0.0866719
0.502934 0.233474 0.0876375
0.506667 0.230361 0.0868152
0.510224 0.229021 0.0888205
0.518097 0.228617 0.087241
0.523582 0.231111 0.0866255
0.528067 0.230999 0.0877214
0.531735 0.232044 0.0848207
0.532978 0.231706 0.0860707
0.409371 0.197088 0.157608
0.345635 0.226808 0.149903
0.302531 0.23962 0.0881402
0.309665 0.23902 0.0868218
0.313371 0.236337 0.0879214
0.317457 0.236442 0.0874856
0.323795 0.235627 0.0868447
0.32752 0.237014 0.0880085
0.332631 0.236679 0.087695
0.338267 0.236591 0.0867679
0.34481 0.238776 0.0853847
0.342117 0.227576 0.150888
0.338857 0.226945 0.150858
0.326909 0.226851 0.151154
0.321789 0.226587 0.152751
0.317522 0.226635 0.153013
0.312519 0.228211 0.151801
0.38536 0.237173 0.0893678
0.387547 0.235736 0.0884829
0.391957 0.2361 0.0874278
0.395934 0.235087 0.0872384
0.308205 0.229119 0.150941
0.451656 0.222023 0.151914
0.36523 0.222964 0.14953
0.416517 0.237119 0.0891613
0.422799 0.236552 0.0875405
0.427484 0.237411 0.0875891
0.431236 0.238924 0.0888335
0.361511 0.223406 0.150279
0.356575 0.224213 0.150715
0.351758 0.224717 0.151714
0.3473 0.225597 0.151518
0.34251 0.226408 0.152375
0.337737 0.226809 0.152144
0.332389 0.226535 0.152819
0.327064 0.226312 0.152864
0.323468 0.226775 0.15308
0.497167 0.23533 0.0872647
0.498274 0.236966 0.087374
0.501466 0.23579 0.0882349
0.505098 0.234296 0.0868644
0.318362 0.227029 0.151723
0.523045 0.233578 0.0869645
0.528791 0.23409 0.0877521
0.529985 0.235647 0.0872436
0.313243 0.22631 0.153145
0.30303 0.239158 0.08722
0.307367 0.24048 0.0894359
0.31059 0.240939 0.0885385
0.31473 0.238232 0.0857034
0.321032 0.237197 0.0856511
0.327067 0.23856 0.0865149
0.306658 0.226849 0.152447
0.338021 0.23823 0.0856541
0.303921 0.225711 0.151904
0.300825 0.224725 0.150164
0.562057 0.218637 0.151889
0.558479 0.218658 0.151967
0.551656 0.219174 0.152007
0.549275 0.219674 0.153459
0.532487 0.219101 0.151841
0.531195 0.217806 0.152275
0.510728 0.217156 0.151748
0.386001 0.240012 0.0877515
0.389587 0.238884 0.0870884
0.419522 0.239454 0.0864177
0.423704 0.241393 0.0862749
0.428296 0.242241 0.0871208
0.430236 0.240301 0.0880747
0.434949 0.239264 0.0874779
0.507139 0.217495 0.152106
0.496049 0.237834 0.086383
0.309311 0.242565 0.0850055
0.501851 0.217845 0.153134
0.49731 0.218038 0.152012
0.493229 0.218639 0.151002
0.487238 0.217607 0.151911
0.298594 0.202737 0.0911748
0.300165 0.202854 0.0910468
0.410379 0.201353 0.0927772
0.412106 0.2025 0.0917446
0.414344 0.200573 0.0937904
0.51554 0.202223 0.0934939
0.517392 0.201503 0.0923443
0.52032 0.201977 0.0929244
0.281155 0.207433 0.0951777
0.481624 0.217503 0.152091
0.293528 0.204629 0.0929634
0.298092 0.204606 0.0925191
0.303113 0.204419 0.0929201
0.307072 0.205999 0.0927114
0.478036 0.2177 0.151387
0.472681 0.216538 0.153046
0.467367 0.216507 0.151644
0.461631 0.218439 0.151736
0.398994 0.205659 0.0923159
0.402642 0.206122 0.0923961
0.40807 0.205228 0.0927043
0.412662 0.204118 0.092536
0.415547 0.204918 0.0923315
0.45701 0.218524 0.152883
0.451667 0.22078 0.15196
0.448898 0.218501 0.152338
0.442817 0.217186 0.152518
0.510224 0.205824 0.0930899
0.5132 0.203744 0.0927021
0.51733 0.201787 0.0925677
0.521531 0.203593 0.0924566
0.526555 0.205948 0.0921386
0.436487 0.217582 0.153182
0.432108 0.217671 0.153216
0.427957 0.218139 0.152626
0.4226 0.217974 0.152457
0.417521 0.217713 0.151925
0.282668 0.209136 0.0935552
0.287512 0.20608 0.092346
0.4122 0.219524 0.151961
0.299273 0.205574 0.0931265
0.302281 0.207413 0.0923668
0.306531 0.206477 0.0926355
0.407194 0.220035 0.152507
0.40211 0.220104 0.15272
0.39709 0.220768 0.152846
0.392816 0.219364 0.152148
0.387147 0.219946 0.15231
0.382203 0.220183 0.151602
0.377656 0.219607 0.151618
0.398183 0.206826 0.0922793
0.402997 0.207149 0.0919399
0.408241 0.207345 0.0925308
0.411871 0.206673 0.0925011
0.416665 0.205864 0.0915141
0.372269 0.219212 0.150986
0.367441 0.220771 0.151885
0.362332 0.221229 0.152068
0.357143 0.220792 0.151981
0.471172 0.213955 0.0929824
0.484761 0.210013 0.0903284
0.351932 0.221966 0.152498
0.347673 0.223074 0.1526
0.343147 0.223887 0.15376
0.336825 0.22307 0.152709
0.507858 0.207539 0.0918862
0.511602 0.207381 0.0922904
0.517123 0.206916 0.0925863
0.522426 0.207209 0.0926962
0.527361 0.207154 0.0923539
0.332229 0.223768 0.152584
0.3276 0.223609 0.152738
0.322735 0.223718 0.152021
0.316354 0.226001 0.152411
0.551534 0.210868 0.0906683
0.555997 0.211465 0.0923929
0.284963 0.211267 0.0922014
0.283396 0.210288 0.0928212
0.312284 0.224189 0.152364
0.302512 0.211782 0.0924758
0.304726 0.21345 0.0917814
0.329689 0.215868 0.0914251
0.307952 0.222976 0.15372
0.338074 0.216952 0.093377
0.342295 0.21667 0.0914201
0.346059 0.216947 0.0900938
0.357855 0.217854 0.0894287
0.36196 0.217478 0.0894447
0.366462 0.216814 0.0899777
0.303502 0.223616 0.152365
0.398596 0.213067 0.0945011
0.402375 0.212726 0.0915753
0.408301 0.212709 0.09269
0.411119 0.211882 0.0923671
0.292118 0.220381 0.152995
0.441479 0.21577 0.0928862
0.447613 0.217655 0.0922857
0.450385 0.216831 0.0901248
0.286772 0.220704 0.152781
0.468896 0.215128 0.0924775
0.472042 0.215882 0.0905157
0.478804 0.215141 0.0906537
0.483132 0.2139 0.0909062
0.486378 0.213155 0.0940743
0.491389 0.214771 0.0937239
0.49479 0.215561 0.0907488
0.509936 0.212689 0.0924802
0.512438 0.212774 0.0925965
0.517321 0.21258 0.0927513
0.522969 0.212725 0.092642
0.52646 0.213823 0.0928367
0.532517 0.215893 0.0953697
0.537244 0.215416 0.0945471
0.542638 0.214261 0.0922448
0.547615 0.213844 0.0928976
0.55269 0.214266 0.093497
0.556472 0.214826 0.0929429
0.557339 0.214377 0.093058
0.28646 0.217096 0.0910238
0.285566 0.219674 0.0936557
0.292483 0.220397 0.0933483
0.297682 0.218683 0.0929007
0.303601 0.21855 0.0924664
0.306484 0.218425 0.0932008
0.312301 0.223182 0.090397
0.318857 0.221379 0.0912458
0.324008 0.219298 0.0918929
0.327768 0.218009 0.0919751
0.333119 0.218757 0.0933022
0.337994 0.218149 0.0936612
0.342776 0.218008 0.0926403
0.346617 0.217462 0.0910275
0.352861 0.217928 0.0909298
0.356243 0.217322 0.0916815
0.363102 0.219923 0.0913312
0.368407 0.218862 0.0911148
0.37255 0.220331 0.0911919
0.375956 0.221166 0.0922863
0.38102 0.222324 0.0936689
0.387489 0.22256 0.0940565
0.395302 0.221231 0.0930242
0.398229 0.219034 0.0928408
0.402621 0.218468 0.0928576
0.408364 0.218124 0.0925142
0.41204 0.2189 0.0922998
0.417479 0.219081 0.091896
0.4223 0.220799 0.0919145
0.561454 0.219377 0.154685
0.560456 0.218401 0.152561
0.439539 0.219869 0.0938374
0.443932 0.219204 0.0935394
0.446598 0.218265 0.0911784
0.450981 0.218351 0.0903432
0.456099 0.21721 0.0893906
0.557866 0.217493 0.152194
0.469273 0.216876 0.090119
0.473872 0.217208 0.0914339
0.477612 0.217401 0.0915714
0.482608 0.217657 0.0921958
0.487632 0.217276 0.0936002
0.492219 0.217791 0.0925993
0.495989 0.218019 0.092492
0.552264 0.218429 0.152586
0.508851 0.218074 0.0922972
0.512566 0.217302 0.0926851
0.51752 0.21816 0.0927709
0.522672 0.217036 0.0924798
0.527585 0.216951 0.0923416
0.532552 0.217146 0.0923615
0.537059 0.217272 0.0922229
0.542634 0.217482 0.0920797
0.547735 0.217527 0.0927704
0.552746 0.216751 0.0919883
0.557673 0.21663 0.0910271
0.558538 0.217302 0.0931037
0.284342 0.222748 0.0922578
0.284833 0.221192 0.0931698
0.287323 0.222262 0.0925836
0.291858 0.221201 0.0919113
0.297289 0.220375 0.091739
0.302849 0.221107 0.0923059
0.307256 0.220925 0.0922054
0.313045 0.223024 0.0921265
0.317374 0.223108 0.0931704
0.322278 0.222031 0.0927018
0.327685 0.22229 0.0923548
0.333247 0.222069 0.0927392
0.33709 0.221898 0.0928244
0.342072 0.22181 0.0916326
0.347263 0.222717 0.0918822
0.351604 0.222127 0.0910532
0.356477 0.222027 0.0898834
0.363464 0.22118 0.0895322
0.368449 0.220734 0.0898687
0.373439 0.221543 0.0914603
0.377633 0.221387 0.0926742
0.382354 0.22311 0.0928914
0.387428 0.222847 0.0930031
0.392621 0.222623 0.0922831
0.397508 0.222211 0.0923441
0.402589 0.223119 0.0924655
0.406843 0.221507 0.0925934
0.412474 0.222103 0.0932129
0.416668 0.220514 0.0931135
0.420748 0.22087 0.092209
0.548664 0.217495 0.153492
0.544304 0.213985 0.152595
0.437538 0.221129 0.0923706
0.442457 0.222102 0.0925369
0.446362 0.222114 0.0909036
0.45112 0.221486 0.0898436
0.454773 0.22077 0.0874782
0.469377 0.219702 0.0898223
0.474013 0.221412 0.0907233
0.478209 0.221948 0.0911202
0.482353 0.222603 0.092627
0.487328 0.222301 0.0928856
0.492911 0.221651 0.0921864
0.497356 0.222842 0.092339
0.502984 0.221513 0.0928579
0.50735 0.222541 0.0926422
0.51331 0.222243 0.0924877
0.51756 0.222845 0.0930022
0.521648 0.223232 0.093219
0.526927 0.221815 0.0923616
0.530122 0.220232 0.091696
0.536575 0.217579 0.0918704
0.543093 0.217372 0.0927203
0.547749 0.217364 0.0935312
0.550417 0.217271 0.0910806
0.536068 0.21479 0.153773
0.285386 0.224583 0.0917957
0.288392 0.224968 0.0925282
0.292905 0.226935 0.092958
0.304894 0.222994 0.0919458
0.309511 0.22445 0.0912179
0.312872 0.22658 0.0920329
0.318019 0.226667 0.0916824
0.322547 0.226983 0.0919957
0.532351 0.217264 0.153062
0.332063 0.225719 0.0934832
0.338293 0.22613 0.0923887
0.340871 0.225072 0.091294
0.346591 0.223819 0.0905408
0.351293 0.225149 0.0903777
0.356583 0.223477 0.0888179
0.360334 0.222874 0.089686
0.368613 0.223129 0.0878433
0.374272 0.224932 0.0892494
0.37789 0.225515 0.0905299
0.381497 0.225396 0.090287
0.387985 0.226535 0.0912839
0.393111 0.225929 0.0910953
0.398263 0.226219 0.0918264
0.401392 0.226267 0.0926802
0.405629 0.222408 0.0909869
0.528671 0.216394 0.151959
0.523946 0.214949 0.152257
0.442862 0.227354 0.0959192
0.443782 0.226281 0.0918954
0.447775 0.22655 0.0907955
0.515999 0.214871 0.152336
0.51235 0.216399 0.152311
0.474352 0.2258 0.0888955
0.478856 0.226309 0.0915726
0.482371 0.225253 0.0920606
0.488015 0.226519 0.0924461
0.492521 0.226816 0.0916621
0.496922 0.22612 0.0929653
0.503758 0.226326 0.0904978
0.507983 0.227589 0.0922715
0.511593 0.22699 0.0921529
0.516482 0.225115 0.0924629
0.523558 0.225819 0.0916225
0.525908 0.227292 0.0925235
0.528787 0.22868 0.0910142
0.507803 0.217607 0.152659
0.502399 0.217747 0.152972
0.496455 0.217036 0.152634
0.492393 0.217495 0.152824
0.308837 0.235385 0.0928882
0.313197 0.233854 0.0937856
0.317278 0.232157 0.0923794
0.322933 0.234221 0.0932246
0.325576 0.234563 0.0935451
0.333512 0.233704 0.0936928
0.487305 0.21776 0.152176
0.482524 0.218013 0.152418
0.380357 0.229505 0.0911714
0.382833 0.229854 0.0911199
0.389155 0.233904 0.0928652
0.393154 0.234225 0.0926186
0.396684 0.232331 0.0922892
0.399561 0.230639 0.0923776
0.417012 0.23254 0.0920111
0.419815 0.234734 0.0934261
0.426095 0.236944 0.0922532
0.47748 0.21798 0.152219
0.472632 0.217177 0.15238
0.462228 0.234162 0.0931325
0.466705 0.235145 0.0929189
0.47339 0.233411 0.0930875
0.477716 0.23277 0.0935058
0.481108 0.231402 0.0920674
0.486359 0.230532 0.0956977
0.494479 0.230209 0.0927066
0.499489 0.232574 0.0932754
0.501973 0.23381 0.092005
0.506525 0.23136 0.0918492
0.509651 0.228808 0.0934088
0.51984 0.227635 0.0898928
0.523934 0.230079 0.0901816
0.529419 0.23064 0.092398
0.467004 0.216837 0.152591
0.46283 0.218238 0.15262
0.301274 0.240055 0.0930762
0.308075 0.236762 0.0924735
0.31319 0.236317 0.0914969
0.31592 0.235499 0.0906091
0.323091 0.235754 0.0930036
0.327321 0.237031 0.0925019
0.457163 0.217968 0.152508
0.452797 0.218829 0.15296
0.448007 0.218282 0.153236
0.442995 0.218585 0.153159
0.438185 0.217618 0.152738
0.43239 0.218036 0.152556
0.42702 0.218238 0.152493
0.422578 0.218505 0.152875
0.417016 0.217939 0.152702
0.385487 0.238381 0.0948765
0.387575 0.238456 0.0915205
0.392421 0.235517 0.0932274
0.396501 0.233412 0.0923543
0.412312 0.217825 0.152245
0.407536 0.217421 0.152484
0.402738 0.217545 0.152644
0.417904 0.235991 0.0928003
0.421368 0.236818 0.0922737
0.426926 0.238145 0.0924191
0.432166 0.239658 0.0927702
0.39778 0.217727 0.152585
0.391144 0.218671 0.151657
0.38739 0.218846 0.151912
0.382426 0.217903 0.152808
0.463305 0.235214 0.0919594
0.467197 0.235261 0.0922456
0.377717 0.21823 0.152907
0.479349 0.233684 0.0908203
0.494786 0.235584 0.094127
0.496774 0.23689 0.0919517
0.502135 0.235995 0.0932025
0.504495 0.233247 0.0926786
0.529552 0.232598 0.0911998
0.372176 0.21818 0.152275
0.300057 0.238729 0.0929685
0.303777 0.238892 0.0925317
0.308656 0.241089 0.0914539
0.31164 0.242428 0.0908921
0.368436 0.218299 0.152279
0.362926 0.216735 0.153323
0.357994 0.218146 0.15261
0.371008 0.241289 0.0938969
0.372624 0.243161 0.0932939
0.377903 0.244303 0.0940296
0.382403 0.242701 0.0920329
0.385823 0.240454 0.0920875
0.3887 0.237918 0.0916638
0.42117 0.236465 0.0936102
0.425133 0.238894 0.092789
0.42676 0.240613 0.0924184
0.431313 0.240224 0.0919393
0.435382 0.239324 0.0933842
0.497743 0.237666 0.0915082
0.499826 0.237182 0.0919924
0.352035 0.217096 0.153133
0.346972 0.217099 0.153305
0.343616 0.217941 0.152826
0.33838 0.217062 0.153092
0.381 0.243582 0.094558
0.332436 0.217038 0.152225
0.299735 0.203929 0.0965313
0.302961 0.203753 0.0991806
0.306252 0.203537 0.0995286
0.310668 0.202996 0.0997099
0.410042 0.201493 0.0975534
0.412288 0.202846 0.0960484
0.51514 0.201438 0.0977158
0.518043 0.200707 0.0982706
0.520073 0.201912 0.0969341
0.326662 0.216888 0.152588
0.289637 0.205627 0.0971913
0.293764 0.204829 0.0976888
0.298103 0.204806 0.0975316
0.302668 0.204005 0.0978251
0.307304 0.204135 0.0992113
0.313179 0.202989 0.09764
0.325611 0.215474 0.152329
0.294358 0.218841 0.15254
0.292856 0.218045 0.151869
0.404655 0.205063 0.0965498
0.40811 0.204756 0.0969578
0.41279 0.20373 0.0974927
0.416149 0.204824 0.0988942
0.286663 0.215189 0.151505
0.510688 0.204786 0.0971307
0.513333 0.203561 0.09803
0.517313 0.201533 0.0971884
0.52103 0.203789 0.0972353
0.525535 0.206093 0.0965931
0.285354 0.216625 0.153625
0.28313 0.206533 0.0976942
0.285683 0.205547 0.0987158
0.292354 0.205147 0.0974869
0.29954 0.205923 0.096347
0.303051 0.207164 0.0972171
0.304504 0.204891 0.0977911
0.31182 0.203662 0.0958
0.560657 0.213128 0.152214
0.55771 0.212702 0.151861
0.553046 0.213802 0.15342
0.548055 0.214778 0.15339
0.542815 0.214533 0.153598
0.39863 0.208139 0.0963767
0.402663 0.20779 0.0978387
0.408044 0.207341 0.097268
0.411544 0.206697 0.0971088
0.415184 0.205169 0.0979907
0.537107 0.214395 0.152089
0.532715 0.215339 0.151292
0.526438 0.215465 0.152466
0.521384 0.213862 0.152403
0.486918 0.211073 0.0939912
0.489174 0.210876 0.0962562
0.492397 0.2121 0.0978388
0.496782 0.212662 0.0985271
0.518589 0.213587 0.152558
0.509381 0.208163 0.0973397
0.51201 0.206994 0.0976151
0.516986 0.20718 0.0982514
0.522715 0.208202 0.0976948
0.527333 0.207984 0.0965181
0.53065 0.208551 0.096521
0.537603 0.210256 0.0955378
0.541355 0.211179 0.0959952
0.546841 0.212833 0.0952432
0.552126 0.212742 0.0980004
0.555307 0.212268 0.0970964
0.558685 0.213132 0.0979403
0.285485 0.211251 0.0967546
0.286547 0.211472 0.0984066
0.51487 0.214478 0.152761
0.3044 0.211913 0.0970135
0.305046 0.212001 0.0986348
0.329691 0.217539 0.0942911
0.333543 0.217235 0.0960489
0.335473 0.217884 0.0955853
0.504462 0.215878 0.151564
0.347998 0.216708 0.095168
0.502273 0.213886 0.152403
0.497137 0.21661 0.150244
0.493066 0.217404 0.153279
0.487866 0.217597 0.152485
0.398285 0.211754 0.0976757
0.403195 0.213148 0.096764
0.407575 0.212487 0.0975888
0.410705 0.21233 0.0973888
0.48287 0.218268 0.152811
0.47661 0.217999 0.154424
0.442311 0.21397 0.0957865
0.446497 0.217429 0.0968904
0.47421 0.21517 0.0947528
0.478292 0.215892 0.0951339
0.484165 0.215148 0.0941831
0.488749 0.213959 0.0965875
0.492268 0.213958 0.0981114
0.496895 0.212997 0.0997643
0.507843 0.211985 0.0978412
0.512712 0.212926 0.0974335
0.51757 0.212646 0.0972207
0.522868 0.212848 0.0976314
0.526631 0.21394 0.097608
0.532925 0.214601 0.0972502
0.537254 0.215243 0.0978428
0.542249 0.215581 0.0980518
0.547445 0.213786 0.0978098
0.553089 0.214035 0.097644
0.55699 0.213849 0.0970119
0.559499 0.214691 0.0979284
0.286554 0.215221 0.0959635
0.285783 0.217732 0.0979537
0.292938 0.219862 0.0982381
0.470737 0.216868 0.153286
0.304117 0.215431 0.0954436
0.306411 0.217738 0.0978998
0.3085 0.221214 0.0959567
0.319848 0.222446 0.0958833
0.324104 0.220174 0.0958261
0.328807 0.220325 0.0966731
0.333334 0.218936 0.0974069
0.336411 0.218074 0.0956928
0.340828 0.218249 0.0959375
0.345444 0.216975 0.0938812
0.468135 0.217361 0.152754
0.356981 0.217132 0.093125
0.464099 0.21818 0.152427
0.373958 0.220985 0.0960681
0.37721 0.221229 0.098402
0.380434 0.221264 0.0985902
0.387447 0.221805 0.098854
0.394111 0.220031 0.098151
0.398307 0.218343 0.0974042
0.40223 0.218828 0.0975193
0.407784 0.2182 0.0976023
0.411097 0.218405 0.0974515
0.417472 0.219232 0.0980377
0.457019 0.21806 0.155361
0.450753 0.217987 0.154464
0.433218 0.221907 0.0975209
0.438705 0.220963 0.0975145
0.441783 0.218481 0.0965341
0.445087 0.217702 0.094323
0.445575 0.216622 0.153894
0.470086 0.214452 0.092333
0.471898 0.217106 0.0943001
0.477042 0.218993 0.0957741
0.48377 0.218475 0.096902
0.487933 0.217635 0.0969534
0.492132 0.216879 0.0979251
0.496869 0.21823 0.0986281
0.502259 0.217814 0.0984936
0.508704 0.217898 0.0980354
0.512472 0.217571 0.097472
0.517323 0.21749 0.0980823
0.522657 0.21745 0.096855
0.527386 0.216669 0.0966215
0.532089 0.215073 0.0968651
0.537413 0.21645 0.0972964
0.542745 0.21624 0.0977319
0.547172 0.216686 0.0977015
0.551706 0.215898 0.0968583
0.557621 0.215948 0.0951952
0.560015 0.218081 0.0981993
0.283874 0.222841 0.0966247
0.284747 0.22292 0.0977852
0.287447 0.222585 0.0969708
0.292787 0.222061 0.0975153
0.296857 0.222458 0.0962608
0.302533 0.222409 0.0977317
0.308366 0.221547 0.0970746
0.312734 0.222856 0.0977111
0.317607 0.221846 0.0972625
0.322413 0.220506 0.0972234
0.327632 0.221236 0.0980673
0.332324 0.22267 0.0974338
0.336746 0.222356 0.097085
0.340707 0.221056 0.096271
0.345186 0.220562 0.0923522
0.352765 0.222768 0.0928794
0.369738 0.218354 0.0947896
0.374497 0.220847 0.0956226
0.377567 0.222 0.0975161
0.382215 0.222439 0.097204
0.387589 0.221823 0.0974299
0.392667 0.220855 0.0974264
0.397716 0.221238 0.0972175
0.402472 0.221819 0.0968886
0.407239 0.221826 0.0970149
0.412661 0.22223 0.0972989
0.417919 0.223674 0.0968359
0.442932 0.214816 0.153837
0.439225 0.21786 0.153527
0.432761 0.220642 0.0980131
0.437942 0.222069 0.0975642
0.441195 0.222008 0.0962449
0.443815 0.221385 0.0940746
0.475051 0.219446 0.0939991
0.479856 0.220809 0.0949616
0.484216 0.221283 0.0965916
0.486637 0.22165 0.0976594
0.492472 0.2209 0.0962182
0.498366 0.221339 0.096896
0.502645 0.222627 0.0966495
0.507291 0.222313 0.0973552
0.512842 0.222265 0.0975098
0.517678 0.222556 0.0975536
0.522208 0.222978 0.0969673
0.524782 0.222868 0.0957096
0.54017 0.217082 0.0952175
0.543125 0.217224 0.0963877
0.547697 0.217286 0.096218
0.551444 0.217078 0.0966708
0.433504 0.218615 0.153581
0.285278 0.224944 0.0971275
0.28795 0.225973 0.0978979
0.292586 0.227933 0.0967024
0.427422 0.214169 0.151476
0.421641 0.214323 0.151374
0.309146 0.222711 0.0954026
0.312909 0.225029 0.0946814
0.31769 0.225557 0.09688
0.322111 0.225437 0.0951567
0.329715 0.224326 0.0965959
0.334118 0.226784 0.098903
0.336471 0.227474 0.0975861
0.33884 0.226183 0.095697
0.416161 0.213595 0.152566
0.381375 0.224268 0.096219
0.380899 0.225953 0.0975755
0.38659 0.222605 0.0947905
0.392811 0.225364 0.0950808
0.399506 0.2275 0.0959694
0.401917 0.226983 0.0977626
0.412712 0.212712 0.152446
0.407235 0.212711 0.151601
0.402985 0.213063 0.152367
0.434128 0.224535 0.0999053
0.440358 0.225492 0.0989546
0.442427 0.227278 0.096328
0.397906 0.212826 0.152145
0.39372 0.214441 0.152455
0.484839 0.226128 0.0963643
0.48598 0.225093 0.0974225
0.388562 0.215911 0.153631
0.499634 0.226861 0.0960023
0.502969 0.228031 0.0983285
0.508348 0.227592 0.0977071
0.511523 0.22595 0.0973598
0.516831 0.224392 0.0963649
0.524253 0.224117 0.0978348
0.382485 0.216187 0.152077
0.527022 0.228207 0.0955414
0.3773 0.216678 0.15149
0.371619 0.217002 0.151597
0.291006 0.228105 0.097047
0.366414 0.215537 0.151795
0.361459 0.215208 0.152794
0.302685 0.234183 0.0995499
0.309304 0.233055 0.0988955
0.311236 0.23439 0.0979546
0.317524 0.234474 0.0962762
0.35754 0.215014 0.152518
0.32714 0.232822 0.0976848
0.331727 0.232801 0.0973401
0.336982 0.233145 0.0991963
0.340377 0.233976 0.0993675
0.352772 0.214576 0.152343
0.370955 0.236891 0.099758
0.379055 0.234859 0.101282
0.382017 0.234772 0.0993065
0.387442 0.23521 0.09538
0.393621 0.234618 0.0973245
0.397462 0.232696 0.0977163
0.400542 0.231691 0.0976626
0.347522 0.214601 0.151898
0.411869 0.234127 0.0987081
0.418873 0.231739 0.0977399
0.421684 0.233573 0.0981007
0.426025 0.236556 0.0982003
0.43314 0.23584 0.0969612
0.437909 0.234335 0.0985853
0.441962 0.233634 0.0979917
0.341645 0.214257 0.151272
0.336556 0.213405 0.153115
0.332957 0.212861 0.152369
0.326837 0.213078 0.151836
0.322017 0.212624 0.152907
0.313154 0.210691 0.152748
0.307457 0.212504 0.152416
0.304605 0.2097 0.152633
0.486527 0.231229 0.0979018
0.493908 0.234717 0.0981143
0.498215 0.233417 0.0974819
0.502205 0.232941 0.0975161
0.506259 0.231055 0.0977019
0.509925 0.228788 0.096325
0.292195 0.212776 0.152596
0.287765 0.212196 0.152616
0.298928 0.23625 0.09641
0.304593 0.237476 0.0972347
0.307191 0.236617 0.0986093
0.314061 0.234365 0.0963429
0.315608 0.234413 0.0969884
0.285959 0.210527 0.152161
0.284293 0.210669 0.153179
0.560863 0.211605 0.152532
0.338698 0.23384 0.097011
0.557337 0.212393 0.152639
0.553535 0.211795 0.152044
0.550417 0.212764 0.152663
0.543422 0.213364 0.154577
0.539485 0.21382 0.154567
0.522023 0.207498 0.152658
0.372753 0.236826 0.099345
0.376828 0.23772 0.0996358
0.381586 0.235644 0.0986638
0.388298 0.238512 0.0978921
0.391198 0.235863 0.0974027
0.394782 0.234153 0.0971958
0.403771 0.233117 0.0971226
0.517841 0.207281 0.152596
0.414117 0.234171 0.0987958
0.419888 0.236229 0.0974
0.423991 0.236477 0.0973597
0.427035 0.237903 0.0969993
0.43177 0.238456 0.0970787
0.437597 0.23722 0.0972272
0.514181 0.204412 0.15298
0.500515 0.213284 0.1532
0.443299 0.212528 0.151266
0.417864 0.206265 0.151625
0.466948 0.234358 0.0954198
0.410981 0.207135 0.152695
0.40861 0.2078 0.151523
0.40264 0.209533 0.150077
0.399373 0.209793 0.153318
0.493706 0.235889 0.0973343
0.497297 0.236275 0.0970503
0.501999 0.235566 0.0967571
0.503656 0.234312 0.096041
0.301096 0.238537 0.0956598
0.304375 0.239428 0.096641
0.307719 0.242851 0.0978933
0.332178 0.212405 0.154294
0.372197 0.237956 0.0987828
0.328327 0.21255 0.154449
0.376477 0.242392 0.0978192
0.383229 0.241442 0.0957891
0.386242 0.240465 0.096618
0.388737 0.239192 0.0989905
0.419846 0.237396 0.0973721
0.422892 0.238092 0.0970201
0.42697 0.238441 0.0973737
0.431358 0.238709 0.0978645
0.435433 0.237865 0.0989198
0.437855 0.238803 0.0983483
0.500289 0.236619 0.0953181
0.312502 0.210108 0.152729
0.306885 0.207873 0.152667
0.378961 0.244153 0.0958984
0.381042 0.243128 0.0958897
0.299786 0.203638 0.102879
0.303916 0.203324 0.101556
0.310732 0.202892 0.100422
0.408998 0.200684 0.10188
0.413667 0.201043 0.101506
0.415306 0.201448 0.104456
0.515461 0.202475 0.101901
0.517592 0.201489 0.102665
0.520681 0.201383 0.102373
0.282834 0.206309 0.101911
0.288064 0.206655 0.102162
0.29325 0.20521 0.103357
0.298196 0.204401 0.102477
0.302754 0.203985 0.102398
0.307605 0.203698 0.102373
0.312628 0.203287 0.102052
0.30291 0.207344 0.153028
0.405489 0.205549 0.102944
0.408737 0.204404 0.102242
0.412727 0.203662 0.102983
0.415661 0.203669 0.101518
0.299189 0.208949 0.152687
0.510485 0.205294 0.10224
0.514089 0.202642 0.102453
0.517517 0.202536 0.102479
0.521423 0.204458 0.102684
0.524706 0.205717 0.102151
0.292125 0.209988 0.153757
0.284187 0.206719 0.101528
0.284952 0.206383 0.102114
0.292375 0.207051 0.101927
0.299754 0.206862 0.102407
0.303111 0.206833 0.102472
0.305514 0.206651 0.102099
0.309978 0.202461 0.101659
0.285714 0.210326 0.152326
0.284766 0.20749 0.153277
0.522388 0.20304 0.153389
0.518153 0.203098 0.152725
0.512439 0.202071 0.152901
0.416039 0.204229 0.152002
0.403769 0.208674 0.101573
0.408389 0.207252 0.102866
0.412365 0.206744 0.102571
0.41735 0.205522 0.103401
0.412343 0.203028 0.152157
0.408334 0.202489 0.151915
0.310065 0.203895 0.152036
0.308542 0.20187 0.153148
0.303534 0.202883 0.151747
0.492588 0.213102 0.101382
0.498789 0.212678 0.10339
0.300397 0.203615 0.151533
0.508259 0.208893 0.103312
0.511836 0.207839 0.101657
0.516647 0.207561 0.102559
0.522997 0.207745 0.102428
0.526492 0.208747 0.102472
0.529909 0.209476 0.102379
0.535271 0.210863 0.103056
0.542966 0.212315 0.101552
0.548163 0.211749 0.103458
0.551398 0.211984 0.102938
0.555964 0.212233 0.101801
0.285204 0.209669 0.101264
0.286521 0.212696 0.101785
0.284226 0.20864 0.15173
0.303782 0.212028 0.10311
0.524016 0.202908 0.152403
0.520661 0.198573 0.152792
0.51759 0.198328 0.152316
0.340518 0.216589 0.100363
0.514863 0.200119 0.152901
0.379519 0.212409 0.104566
0.381912 0.21229 0.101909
0.385548 0.212434 0.10449
0.394206 0.214029 0.104192
0.398413 0.214244 0.103026
0.401762 0.214015 0.103191
0.407314 0.212373 0.102495
0.412586 0.212083 0.101958
0.511871 0.201301 0.153293
0.41331 0.199265 0.151257
0.411924 0.198616 0.152476
0.440926 0.215163 0.100089
0.408754 0.200551 0.15306
0.489942 0.21414 0.100727
0.493028 0.213862 0.102657
0.496444 0.212768 0.102998
0.505242 0.214711 0.103985
0.507237 0.212785 0.103039
0.513268 0.212933 0.102413
0.517211 0.211922 0.102331
0.523148 0.212273 0.102509
0.527316 0.212571 0.102724
0.533108 0.213467 0.102663
0.537479 0.214173 0.102712
0.542475 0.214526 0.10324
0.547452 0.214043 0.102786
0.552574 0.21278 0.102789
0.556453 0.214271 0.101897
0.287723 0.219867 0.101474
0.286863 0.217331 0.102473
0.292981 0.218278 0.102638
0.404631 0.201194 0.1533
0.305638 0.217973 0.102501
0.3087 0.221709 0.101838
0.307172 0.201662 0.151305
0.330046 0.220136 0.102222
0.333952 0.219349 0.102796
0.335759 0.218974 0.101728
0.338675 0.218201 0.100765
0.303094 0.202053 0.152257
0.378881 0.21955 0.10392
0.382481 0.218199 0.10251
0.387766 0.220148 0.102024
0.394397 0.220555 0.102323
0.398376 0.219046 0.102447
0.402585 0.218146 0.103011
0.407838 0.217956 0.102569
0.411777 0.218839 0.103074
0.417499 0.218625 0.102904
0.42216 0.220019 0.102977
0.300465 0.200888 0.153552
0.432914 0.220319 0.103544
0.43871 0.218388 0.103062
0.43963 0.2186 0.10071
0.519834 0.196501 0.152361
0.484669 0.218777 0.100998
0.489469 0.218035 0.101851
0.49266 0.217853 0.102529
0.497273 0.216723 0.10209
0.502782 0.217216 0.103407
0.50817 0.217457 0.102566
0.512773 0.217846 0.102351
0.51717 0.217744 0.102729
0.522338 0.216647 0.10208
0.527602 0.215447 0.101391
0.532804 0.214764 0.10218
0.537479 0.215397 0.102549
0.542411 0.215989 0.101813
0.546689 0.216627 0.101724
0.551122 0.214197 0.103011
0.55816 0.216375 0.103076
0.517132 0.195551 0.152302
0.415468 0.196947 0.154891
0.412189 0.196632 0.153057
0.284594 0.223276 0.102201
0.287221 0.222904 0.102686
0.293226 0.221986 0.102521
0.296704 0.221935 0.103766
0.302184 0.223103 0.10268
0.307148 0.220953 0.102308
0.409859 0.197999 0.153195
0.354018 0.226436 0.146346
0.351598 0.226691 0.145624
0.328633 0.220855 0.102598
0.332241 0.222583 0.10244
0.335968 0.222792 0.101515
0.33851 0.221574 0.100409
0.346966 0.226752 0.147288
0.375058 0.219416 0.101226
0.378665 0.222222 0.101674
0.382043 0.222151 0.102402
0.387685 0.221913 0.102698
0.392237 0.220557 0.102838
0.397914 0.221779 0.102033
0.402241 0.2222 0.102908
0.406621 0.22194 0.103151
0.412054 0.221996 0.102718
0.416309 0.221676 0.103657
0.423097 0.222568 0.103149
0.342589 0.226987 0.146995
0.432894 0.221331 0.102716
0.439301 0.220858 0.102223
0.438958 0.222436 0.10068
0.338869 0.226453 0.146766
0.484731 0.220104 0.100868
0.486868 0.220793 0.102261
0.492204 0.21949 0.100826
0.331369 0.227192 0.145433
0.503962 0.222335 0.102141
0.508805 0.221571 0.102085
0.512721 0.222134 0.102759
0.517312 0.222147 0.102526
0.521728 0.222246 0.102358
0.523053 0.222332 0.0993967
0.544598 0.217143 0.100957
0.547295 0.217036 0.101488
0.32597 0.226991 0.147018
0.32213 0.227375 0.146198
0.285281 0.224152 0.101835
0.288393 0.224806 0.102111
0.293994 0.225715 0.102187
0.295797 0.227157 0.102572
0.317129 0.228819 0.144955
0.309182 0.225006 0.102135
0.311776 0.227985 0.146708
0.533594 0.222213 0.144011
0.331132 0.226788 0.104711
0.333795 0.228079 0.102297
0.336416 0.227483 0.101403
0.336521 0.225497 0.101931
0.380488 0.226249 0.100889
0.382024 0.226053 0.102907
0.387291 0.225117 0.104413
0.396043 0.223744 0.106113
0.398988 0.224845 0.104351
0.401909 0.228512 0.102264
0.462009 0.221138 0.146223
0.41774 0.228056 0.102094
0.421466 0.230298 0.10111
0.439515 0.224892 0.100807
0.440385 0.2285 0.10133
0.485033 0.228026 0.101327
0.487124 0.226577 0.101922
0.503307 0.229124 0.100613
0.508228 0.226488 0.101762
0.511964 0.226456 0.102159
0.516419 0.224237 0.102111
