0.39092500000000002 0.134435 -0.0043488199999999998 0.90673788219267804 0.19315775397138638 -0.37485529885205915
0.35709000000000002 0.21402399999999999 0.14052799999999999 -0.29987490562804531 -0.81979540526352523 -0.48786323337937976
0.38949800000000001 0.21578900000000001 0.13714100000000001 0.044753507520953417 -0.97926251987254476 0.19759058868641977
0.29746400000000001 0.22417599999999999 0.13758100000000001 -0.33737898664442789 0.93856523003149817 -0.072599782001735585
0.30245899999999998 0.22412199999999999 0.138822 -0.65414678562866146 0.74373521406527643 -0.1376586873792108
0.55157500000000004 0.223244 0.13841600000000001 0.2196580432398296 -0.9735690469768179 0.062559210422604691
0.38856200000000002 0.214175 0.14355200000000001 -0.21057992496621764 -0.97335182179522894 -0.090787257966805812
0.41297499999999998 0.22220200000000001 0.13562099999999999 0.14525049795941183 -0.82558062718727243 -0.54526958548557647
0.35201300000000002 0.10495400000000001 -0.0123851 0.11978878309870745 0.24863249797058889 0.96116207186750569
0.31253199999999998 0.232431 0.137817 0.10068115888610547 0.93683654864380927 0.33496355827239815
0.42418899999999998 0.21015600000000001 0.14349000000000001 -0.64792140873957715 0.75428843597210482 -0.10605094745299266
0.31284099999999998 0.211585 0.142042 0.12611670004529832 0.86265305847373419 -0.48982065970679134
0.31709599999999999 0.20948 0.14285999999999999 -0.78752697091838253 0.17569920352464791 -0.59070386824272725
0.56073600000000001 0.21199899999999999 0.144258 -0.36245646627420913 0.8807652520717365 0.30475872555026862
0.521787 0.207237 0.14213799999999999 -0.54320773259462329 0.55768712799483178 0.62762283779216033
0.51778100000000005 0.20751500000000001 0.14291200000000001 0.88638131423507904 -0.17733062167430474 0.42764706989701035
0.51209099999999996 0.205124 0.14152999999999999 -0.81851953415492706 -0.56588454130395383 -0.098997263194571056
0.50961500000000004 0.20805299999999999 0.141543 -0.86618053232385717 -0.43518565918988883 -0.24565163842039003
0.50510900000000003 0.21049300000000001 0.14149500000000001 0.63544687519848353 0.76114222818150379 0.129883706750995
0.50007900000000005 0.21257999999999999 0.143182 0.29488163160287001 0.9554772134467826 0.01039797707250636
0.28554499999999999 0.21152199999999999 0.143209 -0.7873873399580763 -0.59142855091846502 -0.17387767548546604
0.418408 0.20671700000000001 0.1421 -0.60005774766547726 0.75317194239071161 0.26956024310353516
0.40812999999999999 0.208006 0.14214099999999999 0.12946874013884838 0.45862600989703856 -0.87914733029952419
0.54262299999999997 0.13281899999999999 -0.0069622699999999996 0.068628866943556632 0.045656743748755425 -0.99659697991329699
0.39913799999999999 0.21138199999999999 0.141181 -0.30889958467007428 -0.88451909105344717 -0.34958121252813257
0.34201199999999998 0.213113 0.142319 0.26392566649767357 -0.91250571983851869 -0.31253248443281123
0.32569100000000001 0.21238199999999999 0.13980400000000001 0.31504935597610501 -0.94090089212146288 -0.12429567371424033
0.30577199999999999 0.208068 0.14324700000000001 -0.36705214991918278 -0.063685207309872205 -0.92801773345642724
0.30230200000000002 0.20719899999999999 0.142239 -0.020537697534413826 0.98864352701162628 -0.14886967279468616
0.29847400000000002 0.20816000000000001 0.14200099999999999 -0.79956773277474358 -0.56485006945569172 0.20404862102292384
0.29291699999999998 0.21144299999999999 0.13969000000000001 0.63325504785998588 0.76962894036782692 0.08160477013106035
0.30409399999999998 0.21113299999999999 0.14216200000000001 0.649005026152774 -0.50622196153297527 0.56791883371670659
0.31335600000000002 0.13572000000000001 -0.0059509999999999997 0.10549058292141361 0.36975646283449726 0.92312073701494823
0.318137 0.136097 -0.0056897299999999996 -0.13240631130370598 -0.15890174088038134 -0.97837559529667883
0.51197400000000004 0.20316200000000001 0.14282500000000001 -0.74465490674508861 -0.63941918639056305 -0.19139533415445054
0.32650400000000002 0.13614399999999999 -0.0060286699999999999 -0.095682619033994082 -0.074484773342931326 0.99262120416342492
0.33089499999999999 0.135515 -0.0072601300000000001 -0.11697134118124264 -0.084112370019805011 0.98956698335782833
0.419709 0.20589299999999999 0.14318900000000001 0.49011253149123191 -0.85237096736197338 -0.18235525896905236
0.408972 0.20096800000000001 0.141377 -0.025142394782185995 0.97935436692000621 0.20058136498521179
0.30649900000000002 0.20169400000000001 0.14297299999999999 -0.16923009211816747 -0.98158116433743481 -0.088654349806664201
0.37796200000000002 0.13780000000000001 -0.0073472499999999996 -0.0050637050436822748 -0.11240096495257033 0.99365002992450069
0.301952 0.20221800000000001 0.14247199999999999 0.64316475305773479 0.73936664532396346 -0.19918851424359679
0.51925299999999996 0.200104 0.14236499999999999 0.012444597398232601 0.94578093919073636 0.3245667066399221
0.39208399999999999 0.13652700000000001 -0.0035867999999999998 -0.37133189813311451 -0.37260827907902533 0.85045616688376457
0.39749699999999999 0.13633300000000001 -0.00304915 -0.058965712855531732 -0.96698474577423921 0.24791842639741174
0.51800800000000002 0.198633 0.14321 0.13857625185072917 0.9382736941188714 0.31692127941734954
0.51498100000000002 0.20011399999999999 0.14191200000000001 0.37750374211030424 0.88937570292687473 0.25787939765720735
0.413941 0.20097699999999999 0.142349 -0.63800360778814935 0.76177765598949598 0.11245532128118269
0.41246899999999997 0.19888400000000001 0.143063 -0.24399153679301283 0.93790352613449934 0.24658691294927995
0.4083 0.200239 0.14302899999999999 0.14051351465766942 0.98677474099692608 0.080818084170551738
0.32202900000000001 0.21188899999999999 0.14354500000000001 -0.55397118379151378 0.82960355409068753 0.069813111725006996
0.29932300000000001 0.20125499999999999 0.14188999999999999 0.66246200498608987 0.74097865860920997 -0.10997599481480479
0.43823499999999999 0.13710800000000001 -0.0073712300000000003 0.013608696283690555 -0.002419372406021407 0.99990447044836195
0.51698599999999995 0.196795 0.14375599999999999 0.128305301344526 0.95964887442286229 0.25022347504945192
0.328148 0.23312099999999999 0.13501099999999999 -0.11475522969477574 -0.86195965075713177 -0.4938185878684021
0.45147999999999999 0.13687299999999999 -0.0072290200000000001 0.10282279242766615 0.050345101852250745 0.99342480544672518
0.32441700000000001 0.232152 0.133719 0.077299106238172433 -0.83300279534822774 -0.54784230497180353
0.31867299999999998 0.23225799999999999 0.13388600000000001 -0.20834969488193672 -0.8858969857996648 -0.4144598113130788
0.32672299999999999 0.21382100000000001 0.1434 -0.407195729793702 0.88940920314271266 0.20770870709438019
0.463223 0.22511200000000001 0.134827 0.075279359731309933 -0.79940528097432673 -0.59605722439108277
0.38991100000000001 0.229185 0.13537399999999999 0.11909350266618986 0.69590971636224974 0.70818528952196647
0.38229000000000002 0.22848399999999999 0.13659299999999999 -0.074750646545083926 -0.79910667131355451 -0.59652398837202036
0.37339600000000001 0.22892899999999999 0.13494300000000001 -0.15268737358574336 -0.79723259751635933 -0.58404344992886137
0.367647 0.229355 0.13501299999999999 -0.079941047720646613 -0.80582770393806868 -0.58672918834435472
0.36307400000000001 0.22880200000000001 0.13422300000000001 -0.017616501923398132 -0.85222853081865346 -0.52287301529019692
0.357763 0.23005300000000001 0.13505800000000001 0.035869162834771991 -0.81396492021061495 -0.57980558105632285
0.35177799999999998 0.22808899999999999 0.13536799999999999 0.072001832358050674 -0.88611666647277998 -0.45783511173374508
0.342669 0.22938800000000001 0.13613800000000001 -0.099557321355554201 -0.8451076911348423 -0.52524406721946237
0.33540799999999998 0.229855 0.137186 -0.18293175582723736 -0.85874599652487194 -0.47863481503382999
0.32869900000000002 0.23148099999999999 0.13601099999999999 0.038954760421886767 0.86103742223020008 0.5070474180583564
0.33826000000000001 0.214028 0.14251 0.1765930214166363 -0.90370781199915806 -0.3900347360410833
0.347057 0.21324000000000001 0.143259 0.15668352120395013 -0.90808783458042353 -0.38836420904888813
0.30072599999999999 0.142734 -0.0021215399999999999 0.88740992693504872 -0.17525793980696397 0.42636636371992387
0.55744199999999999 0.223024 0.135181 -0.22362341400883304 0.97109776063472142 -0.08343685035560798
0.35626400000000003 0.21399899999999999 0.14382200000000001 -0.13994087656250342 -0.9461035144833152 -0.29206966797193679
0.31687900000000002 0.14366699999999999 -0.0070435899999999997 0.021083396976524605 0.022641992772541159 -0.99952130069109513
0.495813 0.22118199999999999 0.13630999999999999 -0.17716958272809535 -0.93814227988073506 -0.29748949839637961
0.49271599999999999 0.22204599999999999 0.135494 -0.2354652284870638 -0.9032714923105738 -0.35868752048623642
0.4834 0.223303 0.13589599999999999 -0.21617409840251239 -0.85995273174496323 -0.46233111332056831
0.47750700000000001 0.223327 0.13748099999999999 -0.12392626648541344 -0.82202486870462277 -0.55580337863864593
0.37723899999999999 0.143508 -0.0073067699999999998 0.10568120176598189 -0.10904022493728663 0.98840361843678182
0.38467800000000002 0.14286299999999999 -0.0056739800000000003 -0.43497735832794926 -0.21554747922571615 0.87426196413974133
0.47177200000000002 0.22334499999999999 0.135382 -0.045599779586070324 -0.7644308448022249 -0.64309108500791579
0.39041399999999998 0.14268800000000001 -0.00314446 0.81824031491417892 0.025131161122630686 -0.5743267465387395
0.46878399999999998 0.22378500000000001 0.134551 -0.019305640291789977 -0.79990453400062478 -0.59981666260463928
0.46214 0.22412299999999999 0.13556399999999999 0.02523906024274097 -0.79989282296644293 -0.59961192583606771
0.45485799999999998 0.222442 0.13770199999999999 0.17978283286875055 -0.84224011189017745 -0.50824179966715488
0.43914199999999998 0.22278300000000001 0.135213 -0.049049159734003908 -0.76171504691895264 -0.64605291364302808
0.437747 0.224136 0.13353899999999999 0.16619518325202337 -0.68450101996704238 -0.70981512714784045
0.42747299999999999 0.142815 -0.0060551800000000003 -0.042863049667777028 0.051526735981714228 -0.9977513490104879
0.43255300000000002 0.222442 0.13452800000000001 0.47848897888732311 -0.80036475943377994 -0.36119876652595873
0.42684299999999997 0.222084 0.13505700000000001 0.46943945445409069 -0.80859049327220556 -0.35469425254951187
0.42228100000000002 0.22218299999999999 0.134878 -0.17409166600627918 0.43209037865047945 0.88486721970295823
0.38101499999999999 0.21668899999999999 0.143902 0.0032201272738852232 0.97937550726062594 0.20202288622413919
0.39311099999999999 0.22297600000000001 0.13681199999999999 -0.41634874526282961 -0.67918740974805902 -0.60444866180494516
0.39031199999999999 0.225658 0.13773099999999999 0.43909278715149691 0.65998580315975242 0.60960336604968579
0.358574 0.216553 0.22487399999999999 0.0079601256648545726 0.99987215979497479 0.013867244366918453
0.367066 0.22676099999999999 0.13778399999999999 -0.059848144458929983 -0.70154526573768405 -0.71010734380505169
0.398065 0.213728 0.14294399999999999 -0.23939639218725942 -0.91543706475107467 -0.32351869789497506
0.40668900000000002 0.21316599999999999 0.142458 -0.22038419511472743 0.72100769949052712 0.65694649996709131
0.41247299999999998 0.21220900000000001 0.14269000000000001 -0.8432873388486305 -0.49961799677373675 -0.19811189120644332
0.41612300000000002 0.213006 0.14244299999999999 0.300887482804648 0.8996682181857355 -0.31632865800933396
0.531138 0.219385 0.136018 -0.67533603366073658 0.73743594553581937 0.010462689476254367
0.51086600000000004 0.21821599999999999 0.13634499999999999 0.62933354290369559 0.69537924092026415 0.34696830269268031
0.35022999999999999 0.215915 0.22272800000000001 0.00028098554950719266 -0.99871198114455528 -0.050737557740180031
0.50688200000000005 0.218748 0.136658 -0.083726993365207419 0.96628266223003745 0.24349046645742406
0.44730700000000001 0.22106600000000001 0.137017 0.097300300666421119 -0.90415712071673204 -0.41597181701102376
0.43251000000000001 0.22075700000000001 0.136853 0.15421673656348053 -0.97097120434599382 -0.18284452000155793
0.40805799999999998 0.21977099999999999 0.136711 0.12002176464267285 0.94086516565396594 0.31680832702281381
0.401194 0.21935399999999999 0.13639599999999999 0.14740901334489293 -0.87106608144990283 -0.46852370754551603
0.38762999999999997 0.222665 0.13749900000000001 0.47552460439563449 0.64885751656217072 0.59402043215292522
0.37800499999999998 0.224773 0.137742 -0.046606247306294139 -0.72638778118119129 -0.68570303270635313
0.36820199999999997 0.224187 0.13922100000000001 -0.013138697693359173 0.52981800538072044 0.84800958473198729
0.36271399999999998 0.22478799999999999 0.13929 -0.0083083502133378985 0.51404502799717322 0.85772296256315628
0.35652899999999998 0.224273 0.138736 0.14476821740539078 0.67296118127029847 0.72537260200020648
0.35237000000000002 0.223328 0.137901 -0.059072178193392194 0.64930410688356666 0.75823126719202372
0.34300000000000003 0.223695 0.137659 0.13416504020177161 -0.9793819872579419 -0.15103199999450906
0.33258399999999999 0.22391 0.13730000000000001 -0.042881702730763402 -0.9642440792885566 -0.26152345043585407
0.32734999999999997 0.22360099999999999 0.13799900000000001 0.29255877563841759 -0.26660539864490884 -0.91833050924508608
0.31717099999999998 0.22470200000000001 0.13717599999999999 0.18126522929651068 -0.79688331494057352 0.57629844613481829
0.430703 0.217226 0.14305699999999999 -0.42035273950875057 0.90379180563377137 0.080398671983656508
0.43732599999999999 0.21734200000000001 0.14424899999999999 0.083897024905418588 0.99190671569709199 0.095301398557563671
0.44298399999999999 0.21826000000000001 0.14360100000000001 -0.030241971359487432 0.98515245700277432 0.16899721781641425
0.28649799999999997 0.22204499999999999 0.13730000000000001 -0.79094039818776884 -0.57675514313121912 -0.20436925254612251
0.55871700000000002 0.216645 0.138348 0.23984408037318447 0.94454112372342125 0.22431424989339721
0.54916799999999999 0.21573899999999999 0.137741 -0.087962099096239491 -0.97382827047669918 -0.20957377875808914
0.43721599999999999 0.148177 -0.0062316400000000001 -0.015569825704750495 0.018815817667692313 -0.99970172828350157
0.53684900000000002 0.216248 0.138902 0.31480788640769058 0.92572564234584076 0.20959014709404428
0.53223100000000001 0.21625900000000001 0.138576 -0.65471200564068832 0.73446518907353731 0.17864231220268265
0.34252500000000002 0.213703 0.222639 -0.14358794716484904 0.96973582767486921 0.19747132944486154
0.52456400000000003 0.21469199999999999 0.13667599999999999 0.18656783923729051 -0.84518404291865379 -0.50085564283334927
0.51576599999999995 0.215361 0.137571 -0.28611816521238725 -0.88825768404130279 -0.3593531442426488
0.29195100000000002 0.21674299999999999 0.13674900000000001 0.059979541785522526 -0.57785824119203677 -0.81393016141045249
0.49833899999999998 0.21412600000000001 0.138019 -0.33206521091423458 -0.93744540300066848 -0.10454095892710817
0.49477599999999999 0.21631 0.13694899999999999 -0.22313949075463524 -0.91571415514273258 -0.33418012169635919
0.48173500000000002 0.217284 0.137437 -0.031827364929907481 -0.94731710000527791 -0.31871198734783873
0.477684 0.21721399999999999 0.13882800000000001 -0.12668486699068862 -0.92343759387540203 -0.36223466798908027
0.46867599999999998 0.21657899999999999 0.140768 -0.02982337790008862 -0.89394839958873795 -0.44717650318790514
0.46397500000000003 0.215917 0.140598 -0.028072528364317721 -0.94239567193917728 -0.33332016239876833
0.54766599999999999 0.148835 -0.0081708100000000006 0.29236569858880529 -0.095625716165110411 -0.95151354204582361
0.45649699999999999 0.21670600000000001 0.140315 0.064462853031176021 -0.94145934404341025 -0.33090609558065376
0.44220700000000002 0.216942 0.13706099999999999 0.028279614575732356 -0.97020690205217541 -0.24062175838807437
0.43131999999999998 0.216782 0.135354 0.59669704221882847 -0.8024189059905823 0.0087486636795831713
0.42658400000000002 0.213315 0.137154 0.69354232672028704 -0.65527703799312997 0.29935103895988191
0.39432699999999998 0.214723 0.138516 0.35538542513795413 0.88766797371242012 0.29282549077018827
0.462144 0.21810299999999999 0.14261199999999999 -0.0015847722399399584 0.95041599865889759 0.31097735928867543
0.46635100000000002 0.21801300000000001 0.14386599999999999 -0.006607277447624571 -0.94323562407097206 -0.33205858122953824
0.31253700000000001 0.15351999999999999 -0.00393371 -0.45406081851299651 0.22952437984383153 -0.86089914168188852
0.34923700000000002 0.21360499999999999 0.140375 -0.019314704906006709 0.76059167172567843 0.64894318015981278
0.31158200000000003 0.20994499999999999 0.13547200000000001 -0.86333724740502482 -0.34799225935805705 -0.36544518695693573
0.294124 0.209818 0.13494800000000001 0.51265275116973164 0.85733824560284566 0.046457392788878324
0.377693 0.15210799999999999 -0.0068714700000000002 -0.23738696045826177 0.051421036770065542 -0.97005325007541687
0.547593 0.21640699999999999 0.14364299999999999 -0.28990082231925934 0.93775447171905124 0.19124346783495857
0.36809700000000001 0.232543 0.13125899999999999 -0.094491465268297409 -0.91754353748090389 -0.38624502562295776
0.39270300000000002 0.15260499999999999 -0.00314205 0.81061609813218616 -0.059567720093715359 -0.58254032321530058
0.36402000000000001 0.233291 0.129275 -0.07453371872291123 -0.94237572425494109 -0.32614830845538412
0.40402900000000003 0.154525 -0.00041980300000000001 0.37528327455537808 -0.72458865044583043 0.57804303601382734
0.35626000000000002 0.231714 0.13037099999999999 0.03180977153775677 -0.88743945748952924 -0.45982534480540099
0.32781399999999999 0.23380600000000001 0.13114600000000001 0.1561574731771517 0.70872251079603865 0.68798782421049132
0.30791099999999999 0.217672 0.14267199999999999 -0.90668014031481992 -0.29880461814246478 -0.29773633190363857
0.33208199999999999 0.21751599999999999 0.14280899999999999 -0.31858689621083275 0.18769648716855883 -0.929124544002219
0.41847400000000001 0.229682 0.12840199999999999 -0.26191713903405028 0.84711071147987449 0.462388207868971
0.38996500000000001 0.22899700000000001 0.13057199999999999 0.63325045377057942 0.67836856660569844 0.37257207442411056
0.38693499999999997 0.22913900000000001 0.13090499999999999 0.21360517879225424 0.85163516878953471 0.47863385470936948
0.37760899999999997 0.229741 0.13086 -0.13468374811266878 -0.85736063698907528 -0.49678267495556871
0.34176299999999998 0.23002700000000001 0.131826 -0.18772266764588563 -0.75723471450519464 -0.62558435658202738
0.33637600000000001 0.231991 0.13097500000000001 0.016581640222783765 0.74150055720812669 0.67074732415982063
0.33809499999999998 0.21799299999999999 0.142566 -0.29569548427446085 0.67250744971897392 0.67845258541196107
0.35764099999999999 0.217891 0.14328099999999999 -0.12715449940163948 -0.85216849744626777 -0.50758308210783498
0.36190600000000001 0.21742400000000001 0.14312900000000001 0.00069622974114394789 -0.86715977685878887 -0.49802955400494314
0.36705599999999999 0.218307 0.14293500000000001 -0.083323325132315856 -0.9539203827730619 -0.28825878446109765
0.37304999999999999 0.217975 0.14251800000000001 -0.15656638513123194 -0.94361660998356955 0.29167560818493937
0.37793199999999999 0.21848799999999999 0.14310200000000001 -0.1251922060501981 -0.90446516573496505 -0.40776178770981841
0.50007299999999999 0.221583 0.130194 -0.11877154938372686 -0.91896556259927786 -0.37602608129434567
0.490788 0.22251399999999999 0.130435 -0.21997032263353589 -0.79175356641139205 -0.56985905909736945
0.486765 0.224272 0.13081000000000001 -0.30569351870817807 -0.80784783168020835 -0.50391800272405285
0.54789600000000005 0.15268699999999999 -0.0075170200000000001 0.22640011279404287 -0.033559363831890558 -0.97345608941854367
0.45450400000000002 0.22322400000000001 0.13056200000000001 0.32276680915296119 -0.84328756370200519 -0.42975303584122898
0.44688099999999997 0.22239300000000001 0.13089999999999999 -0.29255583708891875 0.91613218150656717 0.27406734244200037
0.43417299999999998 0.22581799999999999 0.13109999999999999 -0.18010354652217614 0.60520085465508378 0.77543190420235542
0.41922199999999998 0.22364400000000001 0.129884 -0.18565900492273421 -0.503314388844887 -0.84392260301096189
0.39379500000000001 0.22373599999999999 0.13081000000000001 -0.65086506521133625 -0.51594688018143364 -0.55693220747097061
0.35165099999999999 0.22827500000000001 0.13281200000000001 0.054485951475751263 -0.80511034608937515 -0.59061714478300453
0.31457600000000002 0.22554299999999999 0.13208700000000001 0.8689344259023114 -0.47105679809947432 0.15185011177503716
0.30738900000000002 0.158611 -0.0028061000000000002 -0.40462189844072688 0.7696477540934612 -0.49388607382787475
0.312255 0.157751 -0.0034374800000000001 0.66970671136193261 -0.3273767055166027 0.66657138660602666
0.402335 0.21768299999999999 0.14272599999999999 0.10801991184141449 0.94058820255391007 0.32190919816336044
0.40669899999999998 0.21721699999999999 0.142846 -0.23982615151036299 0.87258205443415238 0.42553962839106091
0.526111 0.21731 0.12961 -0.26852614522435148 0.59068440299557845 0.7609110627325032
0.37656299999999998 0.15887599999999999 -0.00522654 -0.30043054630811095 -0.048349439903069169 -0.95257746063302895
0.51515500000000003 0.21849499999999999 0.13030600000000001 -0.25891321174406462 -0.9568559075343378 -0.1318738829374928
0.50687700000000002 0.218915 0.131824 -0.2100386594994077 -0.96155073463681784 -0.17692921249778906
0.47806599999999999 0.224383 0.13426399999999999 -0.22938502187092277 -0.78874626187199526 -0.57031732055429518
0.466748 0.22516700000000001 0.135216 0.0084276832208433489 -0.797567586320309 -0.60317072160933471
0.39624500000000001 0.15769 -0.0026880599999999999 0.18292625623128833 -0.082299957884822084 -0.97967581460060638
0.41238799999999998 0.22139700000000001 0.13193199999999999 0.099067177060633921 -0.81980552634871318 -0.56400761820860745
0.40179900000000002 0.21979899999999999 0.13067799999999999 0.13853365755235714 -0.97056681853296034 -0.19699867128479404
0.34636 0.22491800000000001 0.13442999999999999 0.075049661148273786 -0.94609366891673352 -0.31507827281042966
0.342109 0.22343199999999999 0.13309299999999999 0.15740707546419602 -0.9686295604836952 -0.1923012926398894
0.337335 0.222743 0.13289799999999999 -0.291079050720635 0.82095313469923736 0.49123206008878312
0.32239800000000002 0.22417300000000001 0.13350000000000001 -0.77380698868997644 0.60580804349658945 0.18498475258621894
0.41743000000000002 0.21756200000000001 0.14266499999999999 -0.12515244039225198 -0.98832771016019039 0.08686313368384771
0.42797099999999999 0.218473 0.14304800000000001 -0.35472273209558414 0.93088691356621334 0.087300271968726195
0.28637000000000001 0.22093099999999999 0.13378799999999999 -0.74460767837346165 -0.55933930164616164 -0.36427867209221548
0.28468599999999999 0.22342200000000001 0.13177 -0.72956255900792799 0.68298725903009128 -0.035593208570832258
0.43729800000000002 0.218251 0.14270099999999999 0.060526684549812845 0.98561401886340594 0.157802174501283
0.50021599999999999 0.15862299999999999 -0.00121338 0.99319111939083449 -0.0040508026069536462 0.11642590502727805
0.52319700000000002 0.21504999999999999 0.13044600000000001 0.31639265839906228 -0.88832660970000699 -0.33282355717416662
0.51615599999999995 0.21562700000000001 0.13122500000000001 -0.18748143843263876 -0.82952670624063984 -0.52605717738358393
0.51248800000000005 0.15823000000000001 -0.0026156999999999999 -0.93451538816806934 0.2861989565801904 -0.21159193398967863
0.48772300000000002 0.21715599999999999 0.13328400000000001 -0.23615093311722279 -0.86092329940453505 -0.45060382746962341
0.40720499999999998 0.21695 0.132545 -0.74673238182234924 -0.53147355612819203 -0.39990825082057868
0.40243299999999999 0.21698000000000001 0.13303200000000001 -0.098648728413708031 0.89667292989578662 0.43156237692188204
0.45219900000000002 0.21885599999999999 0.142794 0.048958155748864911 -0.95252514558028611 -0.30049783031317279
0.30712699999999998 0.216562 0.133191 0.85789779603968486 0.37811096063908656 -0.34791302504338395
0.50707800000000003 0.21251999999999999 0.13291800000000001 0.24071671217873022 0.87210876582084329 0.42600676644427593
0.49841400000000002 0.21613099999999999 0.13277900000000001 -0.09869633490149099 -0.87812771325681005 -0.46813539995110182
0.440579 0.216945 0.133188 -0.083243364417268775 0.98808731646563186 0.1294372331295765
0.41722500000000001 0.21240500000000001 0.13211000000000001 -0.11524506774000379 -0.95158695017281647 0.28495762952130221
0.47695399999999999 0.21892700000000001 0.14267099999999999 0.058150726526594976 -0.92853837124793626 -0.3666537687310179
0.48779099999999997 0.21929100000000001 0.14260700000000001 0.11023426961295944 0.97530886553225549 0.19136620029953383
0.50773500000000005 0.218114 0.142738 -0.062569806738393435 0.9972975494455405 0.03850476794684058
0.32224799999999998 0.21088899999999999 0.13106300000000001 -0.32682333778847916 0.90597970731613253 0.26904883535925855
0.28816999999999998 0.21470700000000001 0.13209399999999999 -0.7444872041548023 -0.064112851248294161 -0.6645512359138156
0.52186399999999999 0.207959 0.13253400000000001 0.86420474634833955 -0.4565434706996554 -0.21146681950252941
0.51300000000000001 0.20801500000000001 0.132906 0.94674922853030796 0.20659955490177928 0.24694639538096844
0.509459 0.20877100000000001 0.13339200000000001 0.8078969023373852 0.29747694624322707 0.5087337826874303
0.51212999999999997 0.21699499999999999 0.14308799999999999 0.58942465200815819 0.80744280116643086 0.024793193613765072
0.415962 0.20808599999999999 0.13309599999999999 -0.37377926450003485 0.89987600262027756 0.22474928551157408
0.411551 0.20704800000000001 0.13292100000000001 -0.40546636588062274 0.88845408372553558 0.21504968554029613
0.52446899999999996 0.21424000000000001 0.14275099999999999 0.24985079532417304 -0.95035479219125518 0.18547331084281216
0.52886299999999997 0.21615300000000001 0.14272299999999999 -0.7666903248387007 0.6145187044626278 0.18588358632300214
0.31221399999999999 0.207874 0.130631 0.59611139872928343 0.67478806700890548 -0.43510029295255875
0.30737700000000001 0.20805399999999999 0.13198099999999999 0.075487146244074321 -0.93444321167632649 0.34801950362581324
0.51801399999999997 0.20174500000000001 0.13309499999999999 0.13406801561034315 0.98767036193693825 -0.080827120087642562
0.40262599999999998 0.160604 -0.00049102800000000002 0.25757844528111262 0.36053712696758355 0.89647438591658901
0.51397199999999998 0.202405 0.13222999999999999 -0.83393427438402579 -0.5442436383813023 0.091391947616136907
0.556786 0.21756300000000001 0.14369699999999999 0.032950794749347867 0.95307422494642069 0.30093814458816348
0.41480800000000001 0.201012 0.13270199999999999 -0.83379898140773601 0.54698151816541229 0.074769495042315309
0.40891499999999997 0.20058699999999999 0.134135 0.13632360203255511 0.97842980994271944 0.15521270097618736
0.30270900000000001 0.20208200000000001 0.133551 -0.087137620104472888 0.99309957551004679 -0.078487376591993979
0.298842 0.20191400000000001 0.13384799999999999 0.40118957447921305 0.91580070714584139 0.018867700452497992
0.32750499999999999 0.23700499999999999 0.12523699999999999 -0.12971778121347277 -0.94950132848373092 -0.28569305984689897
0.43313299999999999 0.232711 0.124265 0.19198742333860067 0.89389867214649599 0.40507529326599989
0.38979399999999997 0.23305400000000001 0.126529 0.57801187267031651 0.81185382830336672 0.082435650790913167
0.452096 0.16321099999999999 -0.0072726199999999996 -0.1257514551983871 0.10422486822018971 -0.98657171475771177
0.35319800000000001 0.23481099999999999 0.12548699999999999 0.081578540320687898 -0.95158473953727651 -0.29636367057876628
0.348553 0.23492499999999999 0.12618699999999999 0.010226218881038349 -0.91244290815981088 -0.40907623225538808
0.33630300000000002 0.233461 0.12562699999999999 0.070404919152457446 -0.96017052454874674 -0.27039917001891961
0.32307900000000001 0.224025 0.14369899999999999 -0.65059953237112411 -0.71628643701719164 -0.25229742096123692
0.43271799999999999 0.230711 0.12592200000000001 0.078280194989095497 0.85264100283837785 0.51659997227180976
0.42091699999999999 0.23019400000000001 0.12562599999999999 0.18333517278601119 -0.8532759954342477 -0.48816830093239111
0.41839999999999999 0.230327 0.12592999999999999 -0.33040957727819081 0.83189391314875993 0.44584978244795714
0.39365 0.229042 0.124845 0.80334067757440075 0.5954665053863869 -0.0079622055503949588
0.38862999999999998 0.23073299999999999 0.12726100000000001 0.47922722400344087 0.83617056311832494 0.26675842469983829
0.37667899999999999 0.22922200000000001 0.12695600000000001 -0.49105463036976493 -0.84782084460376084 -0.20016284732132208
0.37360900000000002 0.231044 0.12647800000000001 0.089970054203524275 0.93286461254982544 0.34881084271977314
0.36278899999999997 0.23189899999999999 0.12607499999999999 -0.11838430798267317 -0.91777815871096025 -0.37903615528941731
0.35762699999999997 0.232375 0.12731300000000001 0.045223468032188782 -0.9141469856178438 -0.40285248742554852
0.34700199999999998 0.230409 0.126192 0.081221878672563877 -0.96387565902934291 -0.25366655348241945
0.341169 0.23080500000000001 0.12687100000000001 0.14843455371139508 0.7530193257161375 0.64103750152585681
0.33044699999999999 0.23035900000000001 0.12653200000000001 0.18542698274438327 0.96845006874330863 0.16649714238207025
0.32660699999999998 0.23133500000000001 0.127136 -0.2465155435509187 -0.86712908468543404 -0.43280161423035018
0.31935400000000003 0.23175799999999999 0.12719900000000001 -0.58931789188240946 0.65048618138037417 0.47913688038018087
0.50072399999999995 0.22320999999999999 0.12564 0.22288362412249521 0.95838587235919559 0.17837995896491848
0.49157000000000001 0.223744 0.12615000000000001 0.42439966147742325 0.86016449828176467 0.28284618299268105
0.31224099999999999 0.167959 -0.00331271 0.12359660375933923 0.14550233316673267 0.98160733013878521
0.45723000000000003 0.22817899999999999 0.12847500000000001 0.19278852527574325 -0.92239135435806874 -0.33470400942846723
0.44897700000000001 0.22487299999999999 0.126833 0.32865828864894286 -0.87191210737071656 -0.3629779694729478
0.41359600000000002 0.22461300000000001 0.12674099999999999 -0.43363626985510517 0.79409263402124153 0.42588316949529387
0.40734199999999998 0.224139 0.12645000000000001 -0.17662553237093648 0.92930829302369367 0.32432933544789322
0.40368399999999999 0.223028 0.126114 -0.080685756167352934 -0.89043570093839108 -0.44789962184183507
0.383048 0.16933200000000001 -0.0043725300000000003 -0.29474909230589719 -0.28492840131031993 0.91210678032322223
0.29885499999999998 0.22562399999999999 0.125111 0.082613659685465579 -0.76718716865041825 -0.63608083723024456
0.39271499999999998 0.167103 -0.0022537600000000001 0.73006196561149439 0.16386100685497287 -0.66344487095760685
0.40747299999999997 0.21960199999999999 0.14261199999999999 -0.19091602843764854 0.89216029630606597 0.40939110369018472
0.511602 0.21956600000000001 0.12710099999999999 0.21764270088228663 0.97525054472243533 0.038961901535433073
0.50670700000000002 0.219778 0.126525 0.43318611641866162 0.89337834894515777 0.11926824463427489
0.43688900000000003 0.22154399999999999 0.12745699999999999 -0.73753876012997188 -0.64843813327676769 -0.18858569568894923
0.42232999999999998 0.222026 0.12723300000000001 -0.56605466019736539 -0.54652732963524842 -0.61716286313307078
0.332872 0.22310199999999999 0.12697600000000001 -0.015841798667309802 0.1713129798718514 0.98508928546726704
0.32863100000000001 0.22309399999999999 0.126856 -0.72246605095381811 0.49040952728755355 0.4873820890890363
0.30263099999999998 0.223444 0.12625800000000001 0.44761454759043617 -0.34886727211016666 -0.8233667732158132
0.29680699999999999 0.22230900000000001 0.126745 0.90348811464896917 -0.38876230539142759 0.18048018338530511
0.29214699999999999 0.22279099999999999 0.12584500000000001 -0.090156885236613665 -0.99370290837328878 -0.066530188147177177
0.28437400000000002 0.222882 0.127355 0.56141833890332782 0.82752571982249035 0.003260640320139653
0.52256400000000003 0.21543899999999999 0.12698799999999999 0.54769208408343795 0.82301208662408754 0.15061369892212795
0.51739299999999999 0.216756 0.12731100000000001 -0.045498859144424475 -0.95867368279736398 -0.28084626351136543
0.491892 0.217248 0.127132 0.25166713026846826 0.96449657864467819 0.080062508861166198
0.43288599999999999 0.21928600000000001 0.12671099999999999 -0.6585565797240196 0.7504566352387706 0.05583968058919872
0.33996799999999999 0.22198999999999999 0.127466 0.32675261601316563 -0.83166814718566962 -0.44895525488104937
0.30544300000000002 0.21529200000000001 0.12595700000000001 0.577222612341871 0.1807492207232233 -0.79633144795943678
0.29227900000000001 0.21581600000000001 0.127246 -0.27431071674390789 -0.11718672806227332 -0.95447414917613282
0.530976 0.21412 0.127 -0.92158059523354796 0.083051762875681875 -0.37919864342086096
0.43176100000000001 0.21534900000000001 0.12674199999999999 -0.31166649637219063 0.94711360303737335 -0.076418701772853093
0.412053 0.21323600000000001 0.12715599999999999 -0.80242139674325463 -0.5087293162634503 -0.31195253616973023
0.29727199999999998 0.21249299999999999 0.127469 0.54748299236020215 0.43039489183457202 -0.71765075779171694
0.51775599999999999 0.20688799999999999 0.12708 0.50809113199533529 -0.58936809517570243 0.62808331451859423
0.41220299999999999 0.207257 0.127221 -0.82761540473774542 0.52881803912063752 0.18816010029063393
0.55438399999999999 0.209068 0.22136700000000001 -0.54429242623516483 -0.80373938735044625 -0.24030970010502531
0.40337600000000001 0.21007400000000001 0.12690599999999999 -0.63528587914241086 -0.54509804963910602 -0.54706486639327945
0.29269499999999998 0.17305000000000001 -0.0024217700000000002 -0.94983392225813223 -0.27212270942553801 -0.15415820167164812
0.55122400000000005 0.221773 0.142623 0.22426943510108766 -0.93505629863948336 -0.27454132449244928
0.30257000000000001 0.20757600000000001 0.126971 0.08538278761529286 -0.93779734599482711 0.33652030759539714
0.297823 0.20774599999999999 0.12720699999999999 -0.20874469714434771 -0.92199138936391534 0.32612502104700863
0.31025199999999997 0.206011 0.12744800000000001 0.26604131260469094 0.88918885259470148 -0.37224347463574381
0.51997499999999997 0.20038300000000001 0.12728600000000001 -0.31994827215023641 0.94483656981042685 -0.070121034625456047
0.32071 0.17272699999999999 -0.00523808 0.031333439868346524 -0.0060880143270624631 -0.99949044599114112
0.51444999999999996 0.201325 0.12731200000000001 -0.90895044776654876 -0.3718324017720942 -0.18854640939934761
0.30841200000000002 0.20211599999999999 0.12731100000000001 0.085020932738148994 -0.99558615141260243 0.039744887869739738
0.29885499999999998 0.20224600000000001 0.127248 -0.054334507725530432 -0.99243617580928434 -0.11008268808158399
0.31781599999999999 0.22655900000000001 0.142682 0.34764721846718594 0.92769251965910215 0.13611759790921579
0.382523 0.17267199999999999 -0.0026340399999999998 -0.43089903420544107 -0.16658604571747879 0.88689069884232752
0.327428 0.227242 0.14279600000000001 0.0037761657004614785 0.94251839616349364 0.33413292783860449
0.43628899999999998 0.232463 0.118784 -0.45289155722025592 -0.8059930083116742 -0.38113581300018096
0.39056600000000002 0.23427999999999999 0.121227 0.41281213599938221 0.89220105959045826 0.18320319221370476
0.37704300000000002 0.23200799999999999 0.119186 -0.2613431695364124 -0.79291590107366783 -0.55043993456252382
0.36942199999999997 0.23416500000000001 0.12243900000000001 0.088012838532645563 0.91721272470394977 0.38855444649956461
0.337418 0.22679199999999999 0.14263000000000001 0.012726110233729288 0.9924995263126547 0.12158427689251379
0.352655 0.226714 0.143044 -0.43302366440558793 -0.70346130100847104 -0.56358912697835684
0.36337799999999998 0.232546 0.12241 -0.12435330076741206 -0.95392764077270031 -0.27305368109234401
0.31310199999999999 0.23017599999999999 0.12157 -0.59066514649468138 -0.28134200835980538 0.75628126979880173
0.50542399999999998 0.223553 0.11978 0.39761291044797475 0.8933998274167404 0.20914282635756049
0.43656899999999998 0.22637499999999999 0.12177499999999999 0.98934533318674089 -0.14417442246113749 0.020237282663792724
0.346632 0.226852 0.14322299999999999 0.013306398996988406 0.9942389692842748 0.1063570011906864
0.52445399999999998 0.219245 0.121271 -0.85485160880945832 0.35817849847422906 0.37541562320530525
0.50210999999999995 0.21745900000000001 0.122972 0.32787606208489556 0.94018178075123715 0.092495983994624317
0.45743899999999998 0.174792 -0.0050910399999999998 -0.33311208203382947 0.16811593749461468 -0.92777873028184588
0.50886799999999999 0.21471199999999999 0.122421 0.57792129604963438 0.81520375952631774 -0.038076318446880489
0.41256599999999999 0.20724400000000001 0.12288200000000001 -0.66286985152141797 0.71584207232937846 -0.21948505057783357
0.29974099999999998 0.20377799999999999 0.147979 0.69954596611588971 0.71369195077883729 0.035766474308836449
0.40488099999999999 0.202073 0.14665800000000001 0.70751932665625039 0.70669394014616715 0.00027815206600964593
0.40815800000000002 0.202933 0.147566 -0.86865467886481129 -0.4772912449798461 -0.13278597950032023
0.40877999999999998 0.20155000000000001 0.122636 -0.97663626229005884 -0.19571999917986588 0.088742848168946134
0.34104800000000002 0.237979 0.119418 -0.0285626693353596 0.99921632464556287 -0.027402745888914393
0.33317999999999998 0.23699400000000001 0.11940099999999999 0.19137596244820462 0.98139618754487723 -0.015387139740840508
0.31980900000000001 0.23918300000000001 0.118009 -0.10704995475888515 0.95762069803431171 0.26740027277921491
0.426423 0.23511499999999999 0.11709 0.068665125243706465 -0.96026684694559261 -0.27050449761960804
0.38961299999999999 0.23378099999999999 0.117713 0.59824023497358825 0.79257639691144455 0.11803082782738704
0.37859900000000002 0.235233 0.11502800000000001 -0.20216645250824894 -0.92616746645910175 -0.31834344590859481
0.37323400000000001 0.23696200000000001 0.11497599999999999 0.010383791702878176 0.9596476483000792 0.28101346583749132
0.36716799999999999 0.23605999999999999 0.11505899999999999 -0.066047091485737619 0.98207098925778524 0.1765626057932706
0.312558 0.238316 0.11570800000000001 0.31652025419796187 -0.90850202698593929 -0.27283510706083541
0.43235499999999999 0.23186200000000001 0.117964 0.037794691771914662 0.62519132134902 0.77955588188643166
0.39304600000000001 0.228209 0.118774 -0.83093692764706051 -0.55618643593447425 -0.014158769542950519
0.387179 0.23199 0.117825 0.54025373185573888 0.829690529487216 0.14049743946126078
0.34262999999999999 0.23227700000000001 0.117716 -0.19557882384239489 0.97040956804415734 -0.14161283103157565
0.33232699999999998 0.231711 0.116828 0.25223938094700454 0.84709583749582817 -0.4677648306539442
0.32746199999999998 0.23155600000000001 0.117644 -0.84122806300471309 -0.25707352581038895 0.4756559138082419
0.31823699999999999 0.23172899999999999 0.118257 0.95294207696636368 -0.28753666372369874 0.096041995823062873
0.31190800000000002 0.23005800000000001 0.117437 -0.57186500188935763 -0.45540011289167587 0.68233507662462578
0.30365300000000001 0.23219100000000001 0.11609999999999999 -0.72950267128174562 0.6461895051888974 0.22419851912206162
0.44320900000000002 0.21299100000000001 0.150507 -0.026586610475754859 0.99704199048508424 0.072113947007159535
0.50240399999999996 0.22486 0.116781 -0.24621416392267159 -0.90484681460483463 -0.34731948920747874
0.49641299999999999 0.225463 0.117045 0.28875112811246828 0.8692038070125776 0.40138202237845499
0.423344 0.22784099999999999 0.118293 0.98589706596439852 0.16732008161733614 -0.0033114362983856782
0.41048200000000001 0.223547 0.117894 0.5138247988183875 -0.8387819638901528 -0.18008024092559966
0.39247199999999999 0.177728 -0.0024199 0.37752379547344012 -0.64284865639855593 -0.66649935395159932
0.39986699999999997 0.22269900000000001 0.118251 -0.16886762412384834 -0.97569200244245413 0.13967405590373821
0.34723599999999999 0.231158 0.11935999999999999 -0.11252669271692275 0.96983950053642698 0.21621537092779711
0.29796899999999998 0.22477900000000001 0.11749800000000001 0.25055985211499132 -0.96307671786562854 0.098503786796660844
0.286138 0.22211400000000001 0.11709600000000001 0.55583797921267686 0.82806293014742949 -0.073184182583543228
0.51727900000000004 0.21839900000000001 0.116581 0.34377391603193258 -0.91182043221445541 -0.22450611139190371
0.49471900000000002 0.22178200000000001 0.117425 0.29069922017990035 0.93296542376523905 -0.21229574052567726
0.44094 0.222106 0.11824 0.5475931340494834 -0.65197691810313996 -0.52446911997046719
0.43268099999999998 0.222271 0.11816400000000001 0.89242302235293458 -0.025542795890144167 -0.45047609787042858
0.42713800000000002 0.22119800000000001 0.117631 -0.3349047748163162 0.50828559325694489 0.79340062231678887
0.416626 0.22247 0.11752600000000001 0.95208669445533833 -0.18220630236448332 -0.24562530329705407
0.39235999999999999 0.22339000000000001 0.117144 -0.22878799911270101 0.18143967100405423 -0.95641816024579318
0.38748300000000002 0.22372500000000001 0.117143 0.84512673618007794 -0.46322605172987885 -0.26680034631228766
0.458428 0.180118 -0.0057939799999999998 0.67489253278175609 -0.14294885481466457 0.72393763136239975
0.38156499999999999 0.219913 0.119795 0.91279912767353877 -0.163279961126474 0.37434931122277182
0.30442200000000003 0.21030199999999999 0.14696999999999999 0.44651575481271255 -0.4805684010869386 0.75476996004132058
0.31139600000000001 0.22418299999999999 0.11700000000000001 0.2371531789618056 -0.94999460644775457 0.20314678788621127
0.30309900000000001 0.22351299999999999 0.118469 -0.88797189117633568 0.066435034551257641 0.45507395735736783
0.55289299999999997 0.21481600000000001 0.117123 0.31553949538909298 -0.94383376285545728 -0.098044147931966558
0.54669500000000004 0.21420500000000001 0.118286 0.19238762055283112 -0.98103553726510206 -0.023585548138471274
0.53830100000000003 0.21381600000000001 0.117854 0.22790407603512039 -0.97330065086356843 0.02730522212200635
0.53193199999999996 0.213392 0.117961 -0.14720338424003049 -0.9406671318733909 -0.30573928547272161
0.51740200000000003 0.21740100000000001 0.117719 -0.086495260540526225 -0.83102343200964013 0.54947122340932963
0.50172600000000001 0.217084 0.117546 0.21181639229842647 0.97678047664046919 0.032151460428675789
0.332339 0.21407300000000001 0.147929 -0.26361584008665206 0.94153319733342877 -0.20981402997535456
0.29223700000000002 0.21632599999999999 0.11724999999999999 0.94285513471659188 -0.13962963628649852 -0.30253555098377694
0.52264600000000005 0.212535 0.11676 0.13853856271396137 0.24606443982714898 -0.95930149488766114
0.507714 0.214147 0.116711 0.60034984915171474 0.60864337955144165 0.51878058478677969
0.37215599999999999 0.215753 0.146786 -0.08476927687210678 -0.98681174263734539 0.13790124833236983
0.41217300000000001 0.211947 0.117205 -0.17728503627272438 0.9743152167123218 0.13885198737000579
0.40315899999999999 0.212313 0.117134 0.63155904897887649 0.10515377110978132 -0.76816394869473603
0.30244799999999999 0.18249399999999999 -0.0018523599999999999 -0.82304241015448976 -0.54208246203484634 -0.16955174856464489
0.39342199999999999 0.21268599999999999 0.11784600000000001 -0.19946274511658252 -0.97120714598431646 0.13027391488534987
0.53102099999999997 0.20955599999999999 0.116838 0.41577278350941821 -0.88269819745518152 -0.21903626344102051
0.52242999999999995 0.207812 0.117495 -0.086180302817616489 -0.49445999996217488 0.86491748961601533
0.51686100000000001 0.206402 0.117632 0.91113613909128921 0.32628944041545693 0.25172631391093458
0.41613299999999998 0.209596 0.11627899999999999 0.84220828127848735 -0.50434950750638685 0.19056963353063688
0.41206399999999999 0.20760400000000001 0.11748500000000001 -0.58409212992106452 0.75542203204729019 -0.29694096595420622
0.40348899999999999 0.209402 0.117753 0.33841726621525897 0.94001054155128694 0.04305735360942585
0.368481 0.18240999999999999 -0.0071406000000000004 0.01807634995338207 -0.078858631385775008 -0.99672190797048565
0.31022300000000003 0.20419699999999999 0.118212 0.17867781697686774 0.97986614595403287 -0.089087449921810696
0.37840699999999999 0.18123700000000001 -0.0050261100000000003 -0.26211386712475365 0.12977595451698348 0.95627115521180128
0.30610999999999999 0.20627999999999999 0.11763700000000001 0.14783837021023849 0.97012448911522697 0.19235979806732034
0.29789199999999999 0.20735400000000001 0.117696 0.02853327598939568 0.94955915954528636 0.31228713499752514
0.28870499999999999 0.20607500000000001 0.1178 -0.45486877072329962 0.87266298723404234 0.17763364583443053
0.521069 0.20104 0.11786199999999999 0.38909346465006101 -0.90796588203778561 -0.15557709607123404
0.51470400000000005 0.20186799999999999 0.11829199999999999 -0.91026982069100293 -0.38831745041825483 -0.14359112521265216
0.413713 0.20122100000000001 0.118287 -0.68428311509718864 0.72826882660440118 -0.037163619160905353
0.40917399999999998 0.20094000000000001 0.117564 0.17037601685334375 0.94571005600310909 -0.27677518468205453
0.29903099999999999 0.20211000000000001 0.118282 -0.12908992016523302 -0.97796420649142191 -0.16407864984006182
0.385015 0.23810100000000001 0.111831 0.42339799806635348 0.87134417557253363 0.24797875499571714
0.381633 0.23993100000000001 0.11064 0.20248336711427345 0.93571397149419255 0.28885956725134088
0.37305700000000003 0.23905100000000001 0.11106199999999999 -0.066985151880056257 0.97131666327500421 0.22815987612180597
0.31147900000000001 0.23879800000000001 0.109821 0.29179647486335181 -0.86703213105558219 -0.40386891558343263
0.43724400000000002 0.236232 0.111748 -0.16447311323939923 -0.98415253049177553 -0.066275121636817688
0.43268299999999998 0.23518500000000001 0.11225499999999999 0.1261772200607926 -0.92298996630132801 -0.36355031459868625
0.33939999999999998 0.23342199999999999 0.111842 -0.31587645008955884 0.93998724112464083 -0.12901959076707967
0.33487499999999998 0.232491 0.112238 -0.036011215195994636 -0.89710545568122846 0.44034644743324924
0.48272700000000002 0.217665 0.14737500000000001 0.07676724517865921 0.99238110277084912 0.096366679568162167
0.30456800000000001 0.23624500000000001 0.111832 -0.75589291938652159 0.64283069985488006 0.12407491988877727
0.48846099999999998 0.21742900000000001 0.14874100000000001 -0.094965003075383761 -0.99474658210711309 0.038221532898471536
0.50426300000000002 0.21578900000000001 0.147117 0.26246882317585651 0.96180610217045381 -0.077711895410930251
0.52797099999999997 0.20827100000000001 0.223159 -0.0049162332128209162 -0.64849845524728911 -0.76120009471417993
0.42239599999999999 0.231236 0.11132400000000001 0.51153017908819798 -0.73842335463189279 -0.43939483976962895
0.418271 0.23149 0.110619 -0.74427010498072044 0.66472964114995392 0.064780514112199497
0.53840200000000005 0.215554 0.14765400000000001 0.14094200241416591 -0.9189909897174714 -0.36822671382395267
0.33314199999999999 0.23130899999999999 0.11175400000000001 0.14991820807757522 0.90636595885228355 -0.39500035382337279
0.302062 0.23186100000000001 0.11200400000000001 0.59718207447259497 -0.79999619862435789 -0.058134775437643268
0.299655 0.229771 0.111205 -0.7516661220290255 0.40157692546814888 0.5231959613045527
0.51317900000000005 0.22270599999999999 0.11122600000000001 -0.17050755910432441 -0.80710669267007973 -0.56524858154218338
0.50680899999999995 0.22445200000000001 0.111165 0.35430916955527658 0.79448058261322119 0.49321964297826459
0.56340000000000001 0.21349899999999999 0.14608399999999999 -0.50610690900293176 0.8241113835633237 0.25435452451419555
0.43449399999999999 0.22931099999999999 0.11232499999999999 0.74196506959947472 -0.15784894150760884 0.65159154933069385
0.40045799999999998 0.223443 0.11036600000000001 0.48941384373642288 0.81967683754562837 0.29766419259013682
0.29932399999999998 0.22653100000000001 0.112747 0.36096904727934531 -0.91460659395666966 -0.18219803840113385
