0.428489 0.0646862 0.0983051
0.58736 0.49754 0.0462282
0.581208 0.502475 0.0511869
0.612543 0.492979 0.0446466
0.60889 0.492627 0.0455
0.603469 0.486762 0.0443835
0.399 0.486654 0.0205448
0.587322 0.490356 0.0432347
0.58321 0.488893 0.0460129
0.604044 0.484075 0.0452745
0.582968 0.486033 0.0443748
0.578694 0.484942 0.0481947
0.367761 0.501936 0.0191077
0.437697 0.48733 0.0189407
0.442231 0.487243 0.0188518
0.446919 0.487784 0.0195634
0.452038 0.487723 0.0204113
0.456889 0.488745 0.0212202
0.461541 0.487061 0.02171
0.472684 0.487306 0.0227878
0.477132 0.487638 0.0226874
0.481196 0.48773 0.0225406
0.493214 0.489057 0.0222126
0.37075 0.503385 0.019106
0.503084 0.487918 0.0212425
0.507681 0.487621 0.0206149
0.395793 0.427522 0.0465439
0.693254 0.298453 0.0543482
0.522213 0.420236 0.0505253
0.517554 0.419483 0.0501064
0.532388 0.487639 0.0192093
0.537897 0.488026 0.0186712
0.508007 0.420675 0.0496561
0.45736 0.421405 0.0505079
0.692947 0.302824 0.0544009
0.695641 0.32692 0.0566815
0.697923 0.332425 0.0581
0.697558 0.337107 0.058471
0.214142 0.125036 0.139554
0.440518 0.417704 0.0494325
0.437244 0.417522 0.0486713
0.709373 0.338032 0.0563468
0.227325 0.419336 0.0500364
0.597251 0.486683 0.01948
0.612928 0.414279 0.0479086
0.607171 0.414006 0.0474782
0.602183 0.507637 0.0175899
0.201043 0.115656 0.135379
0.602308 0.414094 0.0476869
0.707191 0.36758 0.0572416
0.517705 0.412935 0.0473074
0.227309 0.127819 0.142019
0.477178 0.411438 0.0483517
0.437247 0.412212 0.0488054
0.442745 0.0636622 0.0965763
0.324129 0.128888 0.140615
0.367879 0.411521 0.0480972
0.412795 0.492654 0.0209825
0.41776 0.492467 0.0206199
0.351673 0.411138 0.0487064
0.602333 0.512427 0.0178266
0.433294 0.492661 0.0200247
0.706528 0.423885 0.0581539
0.442326 0.492354 0.019213
0.292506 0.237733 0.196853
0.222535 0.132033 0.14378
0.227419 0.131034 0.143958
0.51683 0.410635 0.0448501
0.48497 0.409482 0.0459633
0.477524 0.492823 0.0225275
0.482426 0.492637 0.0222444
0.487 0.494626 0.0220263
0.492316 0.4924 0.0221014
0.302032 0.236452 0.196621
0.502535 0.492637 0.0211064
0.507926 0.492312 0.0204524
0.51284 0.492367 0.0199014
0.462729 0.40806 0.047822
0.457753 0.408234 0.0477502
0.527611 0.492376 0.0194559
0.453062 0.407803 0.0477017
0.447846 0.408381 0.0482454
0.317334 0.132611 0.141986
0.601831 0.517221 0.0196137
0.62661 0.523754 0.027083
0.322316 0.132045 0.142503
0.562579 0.492792 0.0173986
0.329394 0.235904 0.196831
0.572465 0.492926 0.0183066
0.577391 0.492827 0.0183205
0.381804 0.40996 0.0455676
0.587452 0.492652 0.0190604
0.332805 0.235891 0.19689
0.597287 0.492819 0.0176281
0.605751 0.523256 0.0199032
0.347266 0.409116 0.0467695
0.337688 0.236285 0.196876
0.242471 0.407697 0.0480702
0.237407 0.40765 0.0475493
0.222783 0.407059 0.0482659
0.217582 0.135705 0.145428
0.399165 0.49668 0.0208875
0.347397 0.237491 0.196606
0.352651 0.237873 0.196501
0.357425 0.237498 0.196629
0.316616 0.404477 0.0453603
0.306972 0.40449 0.0453819
0.302641 0.404559 0.0454088
0.28697 0.403549 0.0461336
0.277528 0.404457 0.0476246
0.442109 0.497386 0.0196071
0.607413 0.527519 0.0208734
0.703487 0.428831 0.0584679
0.682849 0.432393 0.0599423
0.7313 0.274836 0.0158896
0.687013 0.431818 0.0594754
0.731033 0.272029 0.0154622
0.722397 0.272233 0.0127745
0.364974 0.080209 0.109317
0.710121 0.312665 0.0467323
0.709726 0.307792 0.0466354
0.709779 0.302525 0.0455703
0.709869 0.297182 0.0448751
0.522541 0.497422 0.0195084
0.492707 0.232121 0.197843
0.387142 0.081262 0.10925
0.710923 0.269382 0.0451737
0.671567 0.265707 0.0492176
0.367611 0.236614 0.197342
0.752027 0.263397 0.0153291
0.662449 0.266181 0.049102
0.397527 0.23522 0.198357
0.402811 0.235756 0.198467
0.48776 0.231664 0.198084
0.577296 0.497227 0.0197457
0.710377 0.261802 0.045318
0.167616 0.552892 0.0200852
0.482785 0.231825 0.198324
0.411905 0.113702 0.131017
0.472206 0.231754 0.197746
0.67748 0.26376 0.0500685
0.171151 0.557862 0.0199695
0.462606 0.231853 0.197453
0.457486 0.232319 0.197368
0.413927 0.557802 0.022375
0.398989 0.500262 0.0216457
0.40216 0.499812 0.0218775
0.414212 0.501818 0.0221877
0.417708 0.501859 0.0218719
0.422882 0.502114 0.0214402
0.42774 0.502238 0.021073
0.417228 0.558034 0.0215571
0.437486 0.502555 0.0198324
0.706994 0.247412 0.0464531
0.70259 0.247588 0.0483446
0.478699 0.50178 0.0223053
0.482436 0.50198 0.0220885
0.487754 0.5024 0.0219713
0.492488 0.502402 0.0218134
0.687786 0.247459 0.0497304
0.677662 0.247282 0.0489637
0.673143 0.247933 0.048886
0.662471 0.247622 0.0488507
0.517277 0.502142 0.0197523
0.409473 0.56852 0.0208164
0.704875 0.208479 0.180507
0.706905 0.24257 0.0463172
0.702556 0.242407 0.0482056
0.697434 0.242593 0.0492846
0.55246 0.502215 0.0199377
0.557797 0.501695 0.0195835
0.692282 0.242452 0.0496845
0.682735 0.242743 0.0492714
0.268831 0.0864097 0.109641
0.577608 0.502288 0.0206249
0.268529 0.0896917 0.111779
0.70698 0.237744 0.0461432
0.702301 0.2374 0.0479706
0.69746 0.237405 0.0490272
0.443326 0.095947 0.118722
0.707129 0.232525 0.0457697
0.702262 0.23248 0.0477373
0.42583 0.568261 0.0201521
0.7325 0.227682 0.0121999
0.727683 0.22809 0.0111029
0.701975 0.222536 0.0469135
0.697118 0.222507 0.0483107
0.69763 0.217582 0.0476347
0.425404 0.0943546 0.118955
0.479352 0.5068 0.0227542
0.697832 0.212459 0.0467143
0.487382 0.507315 0.0223599
0.492861 0.50732 0.0220588
0.697498 0.344821 0.0594961
0.502712 0.507213 0.0212782
0.507592 0.507483 0.0208777
0.512637 0.506987 0.0203555
0.692194 0.17872 0.0463352
0.696799 0.352432 0.0601018
0.566691 0.589763 0.0278854
0.227317 0.112112 0.133663
0.59752 0.590014 0.0198645
0.67992 0.570101 0.0434377
0.358039 0.592582 0.0193927
0.552517 0.507221 0.0209044
0.557584 0.506931 0.0207112
0.36144 0.593106 0.0194368
0.574466 0.505054 0.0204473
0.577497 0.506378 0.0211974
0.365204 0.594759 0.0198701
0.733188 0.223981 0.0108819
0.417559 0.0959371 0.120046
0.412301 0.0966813 0.11958
0.357831 0.597291 0.0182187
0.720013 0.224744 0.00843597
0.698573 0.36778 0.0610182
0.707119 0.566627 0.0427854
0.372484 0.0972301 0.119663
0.697936 0.372442 0.0615024
0.702834 0.567493 0.0432304
0.387666 0.232414 0.197521
0.442525 0.512659 0.0202812
0.701601 0.372521 0.0609644
0.377398 0.232439 0.197223
0.7623 0.217248 0.0142808
0.653047 0.561158 0.0432398
0.643665 0.559688 0.0439971
0.487974 0.511986 0.0230448
0.492986 0.512512 0.0226964
0.403646 0.612517 0.018097
0.703998 0.170082 0.139964
0.639829 0.55875 0.0366137
0.512301 0.512243 0.0210902
0.608612 0.567215 0.0326356
0.520875 0.512206 0.0207313
0.632068 0.553353 0.0353455
0.197129 0.133774 0.145846
0.702222 0.37709 0.0611817
0.762399 0.212259 0.0143724
0.757534 0.212576 0.0135972
0.702168 0.382464 0.0614682
0.671222 0.510893 0.0386682
0.698348 0.392542 0.0630575
0.640887 0.506907 0.0411409
0.6576 0.502806 0.043754
0.456216 0.615774 0.0201854
0.206898 0.136773 0.146318
0.747462 0.207625 0.0132618
0.423223 0.519377 0.0218933
0.233951 0.136157 0.147784
0.657528 0.497632 0.0432528
0.652303 0.497894 0.0435977
0.627026 0.497829 0.0434193
0.637935 0.49252 0.0429688
0.458583 0.517721 0.0231381
0.461138 0.516885 0.0233485
0.483974 0.5186 0.0243257
0.652252 0.488068 0.041692
0.637904 0.487492 0.0416939
0.633157 0.485161 0.0407276
0.509806 0.5172 0.0221031
0.627978 0.489567 0.0421677
0.637442 0.483848 0.0405952
0.203553 0.140601 0.149494
0.382298 0.0594466 0.0959598
0.73356 0.207524 0.0105889
0.698691 0.397263 0.0633662
0.703689 0.397834 0.0618519
0.577682 0.517434 0.0207931
0.396317 0.0799425 0.109133
0.587748 0.517414 0.0203198
0.752543 0.202667 0.0136898
0.369591 0.0829294 0.111004
0.747637 0.202468 0.0138009
0.197798 0.212923 0.196261
0.631689 0.524867 0.0285057
0.635263 0.524935 0.0284758
0.420109 0.520209 0.0228357
0.202444 0.212751 0.196562
0.698152 0.40262 0.0631813
0.207358 0.212749 0.196447
0.378704 0.0836355 0.111
0.730256 0.00872219 0.00922423
0.733477 0.203214 0.0115797
0.458656 0.522207 0.0234789
0.46075 0.52246 0.0236816
0.412396 0.431894 0.0417234
0.572585 0.522756 0.0209532
0.577501 0.522403 0.0208989
0.252676 0.0982235 0.121948
0.703285 0.402928 0.0623068
0.752367 0.197428 0.0137913
0.412264 0.2361 0.197986
0.402362 0.422247 0.0455179
0.397909 0.416177 0.0457309
0.510153 0.410971 0.0449824
0.747285 0.00298397 0.00695744
0.18784 0.19218 0.183734
0.392825 0.411249 0.0434958
0.372958 0.409019 0.0452357
0.752614 0.19243 0.0138167
0.242173 0.107623 0.131486
0.605808 0.411305 0.0396811
0.487758 0.408621 0.0444763
0.417437 0.235843 0.197695
0.458605 0.528011 0.023628
0.461195 0.526741 0.023837
0.7624 0.187462 0.0137682
0.75716 0.187481 0.0135942
0.578675 0.525216 0.0209683
0.38617 0.410313 0.0442198
0.751347 0.284302 0.0186322
0.657377 0.414331 0.0622827
0.752182 0.287625 0.0191703
0.719833 0.291664 0.0244957
0.231828 0.40585 0.0455025
0.690457 0.528263 0.0229102
0.756933 0.292507 0.0195203
0.767732 0.182489 0.0142373
0.289353 0.403537 0.0449059
0.711276 0.302685 0.0436227
0.779306 0.0540866 0.00678701
0.368751 0.533147 0.0214611
0.68281 0.412847 0.0609941
0.687894 0.412241 0.0611652
0.697666 0.412202 0.0616324
0.702062 0.412061 0.0621529
0.245019 0.105562 0.12948
0.417345 0.533281 0.0230339
0.757024 0.30745 0.0209184
0.458154 0.532641 0.0234634
0.461637 0.532556 0.0235204
0.554475 0.534453 0.0227446
0.558136 0.533732 0.0222137
0.782637 0.0533591 0.00620801
0.704894 0.152237 0.128713
0.747384 0.312485 0.021476
0.752448 0.312829 0.0214792
0.710376 0.215951 0.0410651
0.710281 0.212813 0.0405829
0.747177 0.317522 0.0225125
0.721243 0.216785 0.00650341
0.698236 0.202504 0.0455236
0.698241 0.197581 0.0452526
0.710199 0.186663 0.0394509
0.710672 0.181167 0.0394664
0.702264 0.177546 0.0431354
0.69315 0.177004 0.0458499
0.41342 0.537155 0.0239026
0.710944 0.17227 0.0393644
0.187924 0.185081 0.179748
0.702138 0.172347 0.0431047
0.461286 0.538 0.0230323
0.47348 0.540079 0.023041
0.693623 0.172357 0.0453566
0.748328 0.162916 0.0133182
0.710637 0.167673 0.0396811
0.709931 0.214499 0.174267
0.702355 0.167441 0.0431867
0.698019 0.167541 0.0443832
0.602534 0.537027 0.0211442
0.693689 0.167669 0.0453889
0.75698 0.327342 0.0243951
0.786684 0.157481 0.0157873
0.707186 0.152491 0.0417999
0.707279 0.147412 0.0419484
0.36872 0.541379 0.0212835
0.70271 0.147586 0.0445204
0.410519 0.542784 0.0246617
0.707873 0.137436 0.0428079
0.416874 0.542786 0.0229727
0.457305 0.542261 0.0225642
0.756924 0.332281 0.0244689
0.468322 0.543736 0.0222542
0.703372 0.137872 0.0450316
0.708407 0.132829 0.0433875
0.479669 0.541608 0.0239942
0.551856 0.54422 0.0234442
0.559057 0.542397 0.0226271
0.703446 0.132987 0.0450762
0.598054 0.541889 0.0221333
0.720988 0.126734 0.0410195
0.6624 0.417483 0.0637564
0.522629 0.638036 0.0336611
0.571318 0.580705 0.0302194
0.667238 0.418073 0.0629159
0.755376 0.347198 0.0247525
0.716941 0.562305 0.0382605
0.365134 0.548915 0.0229221
0.753391 0.351456 0.0250998
0.704484 0.175235 0.144917
0.410665 0.547333 0.0244083
0.75257 0.357348 0.0254292
0.416698 0.548115 0.022525
0.452925 0.547364 0.0227517
0.457177 0.547166 0.0224144
0.462821 0.547142 0.0219611
0.467499 0.547537 0.021815
0.677097 0.553287 0.0369938
0.476476 0.547539 0.0229983
0.549235 0.54693 0.0236777
0.749229 0.362666 0.0256843
0.196033 0.139356 0.149915
0.599683 0.546818 0.0229216
0.602797 0.546922 0.022748
0.697617 0.417412 0.0623026
0.667694 0.539401 0.0324556
0.664363 0.540666 0.0324617
0.676548 0.511712 0.0347995
0.192643 0.142536 0.152789
0.197627 0.14259 0.152038
0.364692 0.552127 0.0236683
0.202214 0.143029 0.151423
0.701883 0.416931 0.0618433
0.672331 0.482469 0.0379282
0.454065 0.552421 0.0227782
0.667612 0.482396 0.0389679
0.462535 0.552439 0.0222427
0.467582 0.552203 0.0219342
0.748464 0.156982 0.0116057
0.476096 0.552411 0.0225428
0.50914 0.553323 0.024261
0.627331 0.481283 0.0392186
0.54331 0.554058 0.0245441
0.677442 0.477528 0.0367949
0.552211 0.550751 0.0237274
0.599599 0.551572 0.0239164
0.602494 0.551794 0.0238199
0.672676 0.477636 0.0378588
0.657235 0.476086 0.0397124
0.650837 0.479345 0.0402312
0.497455 0.458781 0.0220261
0.647476 0.477329 0.0397645
0.721698 0.21279 0.00640395
0.787573 0.153986 0.016049
0.360344 0.55938 0.0255251
0.364115 0.557275 0.0246415
0.637481 0.477573 0.0388039
0.627722 0.422534 0.0643395
0.626103 0.479532 0.0382424
0.632573 0.421693 0.0646359
0.45422 0.557499 0.0235541
0.622712 0.479294 0.0374616
0.462553 0.557293 0.0228882
0.467715 0.557389 0.0224312
0.617924 0.479378 0.0364506
0.476881 0.557439 0.0227955
0.604331 0.479313 0.0385386
0.539009 0.558551 0.0251956
0.502371 0.462618 0.0215542
0.546463 0.556604 0.0245743
0.59954 0.557342 0.0248664
0.517761 0.461991 0.0209921
0.660758 0.549213 0.0338138
0.677149 0.472306 0.0372177
0.553815 0.464421 0.0185296
0.66277 0.472462 0.0392224
0.658126 0.472482 0.0393447
0.21287 0.147084 0.153529
0.667684 0.422867 0.0630417
0.360226 0.562686 0.025986
0.75207 0.152972 0.011003
0.705332 0.421403 0.0594385
0.61186 0.478261 0.036138
0.762547 0.147954 0.0122235
0.64425 0.429818 0.0653733
0.682334 0.467831 0.0367042
0.69707 0.462186 0.0349522
0.692564 0.463313 0.0354892
0.658974 0.4306 0.0645024
0.667476 0.432185 0.062777
0.711967 0.437118 0.0362191
0.714509 0.433394 0.0343391
0.502624 0.564035 0.0254017
0.711995 0.432518 0.0366654
0.710819 0.427119 0.0396658
0.546693 0.561401 0.0251063
0.711673 0.423291 0.0372317
0.711588 0.417663 0.0368214
0.677595 0.432321 0.0608007
0.212662 0.472554 0.0227453
0.79224 0.127367 0.0129758
0.59144 0.407659 0.0366848
0.360342 0.566663 0.0258475
0.363494 0.567537 0.0250404
0.503266 0.409004 0.041068
0.37332 0.567219 0.0220841
0.347636 0.472225 0.0240076
0.711622 0.40743 0.0362744
0.696645 0.431726 0.059333
0.412234 0.472397 0.0204074
0.632545 0.199169 0.180715
0.627466 0.199314 0.180463
0.456142 0.565342 0.0250491
0.469472 0.565215 0.0236731
0.597459 0.40873 0.0371276
0.476815 0.56542 0.023847
0.480522 0.565073 0.0241288
0.792377 0.123157 0.011636
0.506662 0.568082 0.025526
0.544669 0.564351 0.0254658
0.582021 0.568615 0.0301099
0.677555 0.237234 0.198238
0.617557 0.199461 0.180144
0.363647 0.571099 0.0249751
0.346774 0.0559406 0.0925971
0.373567 0.570356 0.0219596
0.709028 0.0812794 0.0945042
0.61252 0.199377 0.180224
0.607426 0.19904 0.180356
0.782637 0.117851 0.011302
0.597787 0.198513 0.180378
0.592699 0.198344 0.18042
0.587542 0.198443 0.180553
0.452864 0.574904 0.0261016
0.582672 0.198545 0.180642
0.483583 0.572933 0.0254854
0.485933 0.572754 0.0260107
0.508406 0.570686 0.0255884
0.51182 0.571405 0.0254324
0.579688 0.572282 0.0308432
0.584344 0.572837 0.0297731
0.39215 0.0980404 0.120042
0.713935 0.399571 0.0338957
0.395135 0.57887 0.0211913
0.57273 0.198472 0.180767
0.556978 0.0290433 0.0700206
0.647605 0.397406 0.0368113
0.412703 0.577424 0.0197426
0.563348 0.198161 0.18117
0.641576 0.0297166 0.0696256
0.551936 0.197647 0.181113
0.547288 0.19765 0.181207
0.449093 0.579317 0.0255207
0.795106 0.10543 0.00986496
0.682616 0.23727 0.198261
0.67072 0.0294891 0.0690164
0.54372 0.197988 0.181344
0.220224 0.47716 0.023891
0.289127 0.0303262 0.0704945
0.686959 0.23655 0.1982
0.647776 0.38261 0.0367932
0.381131 0.583697 0.0219229
0.389517 0.583044 0.0219395
0.347319 0.477457 0.0237956
0.332484 0.0299983 0.0699574
0.402262 0.582091 0.0213264
0.337533 0.0308611 0.0696087
0.745172 0.105344 0.00826248
0.416964 0.582129 0.0209889
0.422399 0.581508 0.0215266
0.621226 0.377801 0.0348913
0.782718 0.102565 0.0107741
0.643292 0.367948 0.0350137
0.617432 0.368004 0.0348537
0.418234 0.0978638 0.122062
0.562297 0.0301175 0.0714079
0.182761 0.482362 0.021397
0.693277 0.236348 0.197933
0.207541 0.482313 0.0237192
0.621876 0.363811 0.034707
0.681756 0.0327371 0.0720999
0.281214 0.483123 0.0256023
0.623968 0.350574 0.033961
0.399228 0.585963 0.0221301
0.402594 0.585942 0.0221244
0.351882 0.48224 0.0224922
0.412402 0.587509 0.0216447
0.417003 0.586973 0.0219055
0.422207 0.586356 0.0224509
0.625833 0.348589 0.033859
0.44886 0.588407 0.0238888
0.743218 0.10123 0.00771974
0.716151 0.320935 0.0363831
0.716678 0.317091 0.0370322
0.177249 0.487392 0.0222842
0.187187 0.48774 0.0206642
0.427481 0.197588 0.182759
0.207168 0.486365 0.02406
0.244091 0.488736 0.0237717
0.412703 0.19828 0.181238
0.407401 0.198125 0.180964
0.716673 0.308815 0.0369719
0.397378 0.198761 0.180466
0.408852 0.592514 0.0224873
0.282487 0.487733 0.0253247
0.415582 0.590068 0.0222005
0.448993 0.593056 0.0225326
0.392395 0.198827 0.180009
0.38735 0.199064 0.179698
0.286083 0.489427 0.0252354
0.585951 0.592894 0.0256327
0.715314 0.302943 0.0373441
0.593926 0.593292 0.022019
0.377568 0.198752 0.179671
0.372522 0.198952 0.180217
0.367485 0.198755 0.180405
0.362617 0.19878 0.180357
0.710632 0.207632 0.0384498
0.352288 0.199049 0.179896
0.347447 0.199419 0.179667
0.342742 0.199124 0.179342
0.452653 0.597857 0.0210788
0.177858 0.492624 0.0215735
0.537462 0.599914 0.0249244
0.787538 0.0977542 0.0111424
0.332355 0.198941 0.179786
0.327455 0.199125 0.180238
0.322335 0.199113 0.180579
0.642522 0.419282 0.0649563
0.312796 0.198759 0.180328
0.715537 0.142353 0.0364738
0.453451 0.602607 0.0205741
0.721376 0.131164 0.0360907
0.382314 0.0577216 0.0948413
0.532119 0.642187 0.0316244
0.792735 0.0922737 0.01119
0.287387 0.198357 0.180262
0.518952 0.636022 0.0321272
0.787655 0.0925902 0.0112173
0.233345 0.494015 0.02622
0.512924 0.636505 0.0319444
0.507458 0.63793 0.0309785
0.782751 0.0925585 0.0107779
0.532659 0.607517 0.0233265
0.565668 0.608752 0.0242033
0.506889 0.611786 0.026896
0.59333 0.610217 0.0215455
0.286566 0.492907 0.0252366
0.576464 0.604741 0.0258283
0.576953 0.601496 0.0263604
0.578138 0.593519 0.0270973
0.568316 0.580071 0.0300539
0.561444 0.580062 0.0290251
0.460957 0.581857 0.0250599
0.290351 0.581265 0.0298166
0.563285 0.613312 0.0228044
0.565046 0.612092 0.0233175
0.282852 0.576706 0.0316418
0.279632 0.575067 0.0320732
0.597736 0.613388 0.0195673
0.261332 0.498897 0.0244782
0.306407 0.498536 0.025383
0.27415 0.557774 0.0286103
0.274206 0.554303 0.0283126
0.158599 0.553585 0.0309105
0.774732 0.0945799 0.00972066
0.751461 0.122726 0.00619295
0.685623 0.497032 0.0327885
0.567682 0.194669 0.178667
0.747305 0.122791 0.00542015
0.787557 0.0875157 0.0109448
0.552483 0.194217 0.179092
0.742881 0.122335 0.00480443
0.558273 0.617616 0.0215802
0.382606 0.083621 0.110812
0.567394 0.619252 0.0219377
0.705246 0.181019 0.149041
0.633965 0.424318 0.0655555
0.58783 0.615841 0.0223732
0.593391 0.617441 0.0209677
0.597295 0.616127 0.0200067
0.532292 0.194295 0.178916
0.527241 0.194278 0.1788
0.521367 0.193646 0.178472
0.732214 0.122669 0.0037812
0.717554 0.487266 0.031508
0.508232 0.194321 0.179298
0.461451 0.193611 0.179441
0.458114 0.193476 0.179601
0.562586 0.62242 0.020986
0.567395 0.623255 0.0212434
0.433578 0.194002 0.181425
0.426069 0.194216 0.180758
0.422502 0.1944 0.180502
0.417356 0.194738 0.179848
0.712263 0.487053 0.0321738
0.795675 0.0833216 0.0101539
0.702644 0.487675 0.0330239
0.234201 0.146094 0.153494
0.637682 0.423736 0.0657534
0.609311 0.421427 0.0676864
0.717744 0.482625 0.0322029
0.182613 0.502334 0.0207794
0.712597 0.482486 0.03275
0.707274 0.482303 0.0333051
0.702218 0.482455 0.0336764
0.217192 0.217791 0.196151
0.633077 0.427563 0.0657377
0.722397 0.477494 0.0325313
0.266289 0.504844 0.0247125
0.717623 0.477733 0.0326587
0.392715 0.0821875 0.110535
0.307539 0.502906 0.0256247
0.70736 0.477236 0.0336111
0.378959 0.056415 0.0945097
0.192384 0.147594 0.156329
0.212807 0.149335 0.155388
0.228903 0.150502 0.157468
0.309573 0.474942 0.0289111
0.397064 0.0821449 0.110613
0.727187 0.472692 0.0329296
0.722393 0.472373 0.0326565
0.712465 0.47229 0.0331829
0.303037 0.471746 0.030037
0.588278 0.645503 0.0233182
0.591286 0.645494 0.0232343
0.729247 0.118906 0.00569432
0.457509 0.50262 0.0218164
0.462587 0.50249 0.0223783
0.467707 0.502525 0.0224644
0.727427 0.462703 0.0322914
0.722599 0.46218 0.0319799
0.232021 0.193535 0.180863
0.575991 0.191808 0.17631
0.717716 0.462459 0.0321037
0.567412 0.191597 0.176633
0.56337 0.191439 0.176937
0.712865 0.46247 0.0324999
0.704075 0.23071 0.193536
0.707851 0.462442 0.0329788
0.696378 0.227983 0.19465
0.691925 0.228076 0.195305
0.702519 0.462387 0.0339317
0.547213 0.190112 0.176747
0.542436 0.190468 0.177106
0.308524 0.462724 0.030096
0.727363 0.457527 0.0315589
0.722371 0.457395 0.0312874
0.717483 0.457673 0.0316816
0.517387 0.19102 0.176921
0.41925 0.0837437 0.110901
0.212368 0.152199 0.157721
0.216395 0.151388 0.157435
0.78737 0.0576178 0.00677538
0.51761 0.0297206 0.0719241
0.568265 0.0300531 0.0716621
0.727896 0.452492 0.030999
0.722574 0.45266 0.0311362
0.475661 0.189005 0.176406
0.573335 0.029835 0.0718833
0.422495 0.0839515 0.111035
0.57745 0.0298484 0.0723133
0.312474 0.507773 0.0254721
0.32239 0.509182 0.0255422
0.352798 0.507354 0.0222141
0.357685 0.507604 0.0215066
0.409047 0.189749 0.176111
0.336583 0.191933 0.17598
0.737106 0.442732 0.0310718
0.326847 0.19171 0.176619
0.321521 0.191283 0.176247
0.722564 0.442534 0.031322
0.312936 0.190739 0.175775
0.307582 0.190844 0.175737
0.3027 0.190862 0.175609
0.297686 0.190708 0.17544
0.587572 0.0301555 0.0721289
0.28782 0.191622 0.175909
0.282713 0.191373 0.175867
0.277298 0.191385 0.175995
0.27206 0.191287 0.17595
0.722589 0.437524 0.0314279
0.26222 0.191199 0.175744
0.257069 0.191224 0.17571
0.25243 0.190958 0.175601
0.717472 0.437388 0.0326515
0.241763 0.191106 0.176735
0.236794 0.190603 0.177606
0.74085 0.431489 0.0305422
0.546786 0.187173 0.175087
0.542848 0.187499 0.175371
0.537002 0.187482 0.175445
0.722506 0.432509 0.031417
0.527862 0.187412 0.17525
0.522582 0.187398 0.174928
0.517218 0.1873 0.174662
0.717093 0.427345 0.0325748
0.507464 0.187271 0.174788
0.502543 0.187437 0.175038
0.497275 0.186945 0.175093
0.21257 0.155556 0.160279
0.488463 0.187229 0.175454
0.476773 0.187459 0.175591
0.748045 0.0908813 0.00528425
0.455018 0.187457 0.176337
0.452536 0.186543 0.176003
0.621863 0.407107 0.0336687
0.442506 0.186517 0.176673
0.43737 0.186583 0.176198
0.657606 0.402271 0.0335092
0.411669 0.184622 0.174258
0.592602 0.0301755 0.0719113
0.405718 0.18694 0.17474
0.597469 0.0303528 0.0717789
0.315162 0.187683 0.174214
0.312082 0.188138 0.174317
0.261999 0.188128 0.173917
0.25787 0.188391 0.174092
0.240259 0.187786 0.175203
0.236551 0.186908 0.175635
0.232351 0.186437 0.176303
0.433811 0.183822 0.174154
0.711742 0.387293 0.0354602
0.638276 0.0303133 0.0698526
0.28508 0.0335922 0.074167
0.287455 0.0320028 0.0720182
0.198581 0.203614 0.190582
0.713511 0.37779 0.0330733
0.202403 0.203585 0.191462
0.657726 0.377156 0.0329995
0.713297 0.373028 0.033512
0.352624 0.0327237 0.0712304
0.626153 0.372092 0.0350102
0.713827 0.367668 0.0336929
0.660828 0.369037 0.0301915
0.262341 0.5117 0.0238953
0.507519 0.0318481 0.0733266
0.34399 0.511995 0.0240479
0.352777 0.512528 0.0228368
0.357571 0.512558 0.0221806
0.719953 0.336881 0.0273387
0.724232 0.0409347 0.0122269
0.727711 0.33739 0.0251263
0.627454 0.362389 0.0344025
0.687533 0.0331389 0.0720194
0.713815 0.352357 0.0337663
0.747771 0.337777 0.0247271
0.722587 0.0373277 0.0126704
0.407609 0.0868492 0.113212
0.755491 0.0308747 0.00805772
0.632357 0.352148 0.0336097
0.713483 0.34735 0.0329946
0.732721 0.342187 0.0244861
0.652346 0.347357 0.0319233
0.352253 0.0363 0.0749703
0.712982 0.342202 0.0326732
0.652752 0.342247 0.0320452
0.4224 0.0871696 0.112458
0.432245 0.0867784 0.113039
0.747129 0.0872609 0.00410299
0.687198 0.514648 0.0261941
0.657534 0.33748 0.0314089
0.247109 0.517573 0.0249264
0.743492 0.0872395 0.00422374
0.320937 0.517432 0.0251642
0.713921 0.332521 0.03294
0.710685 0.0471315 0.0724563
0.657178 0.332579 0.0317676
0.71522 0.327936 0.0341728
0.481833 0.0378979 0.0792842
0.350263 0.0397219 0.0786319
0.277337 0.0393453 0.0819757
0.656713 0.313765 0.0303524
0.651647 0.31324 0.0304512
0.649183 0.310818 0.0304679
0.647737 0.307238 0.0306485
0.382707 0.0385801 0.083323
0.650272 0.302162 0.030984
0.716135 0.29716 0.0345807
0.681908 0.227357 0.195171
0.677637 0.227243 0.195234
0.716962 0.294506 0.0321094
0.431562 0.10068 0.124714
0.562339 0.51748 0.0213535
0.387546 0.0389139 0.0831617
0.652566 0.227326 0.19556
0.646948 0.227404 0.195543
0.422403 0.23602 0.197769
0.738118 0.00489253 0.00836842
0.427757 0.235992 0.197892
0.687564 0.518211 0.0243439
0.437822 0.236442 0.198001
0.442301 0.235933 0.198088
0.409721 0.0902236 0.114943
0.752288 0.0826708 0.00354655
0.317467 0.522465 0.0253658
0.347563 0.522459 0.0244696
0.353048 0.521857 0.0238653
0.358292 0.522031 0.0228966
0.725616 0.226478 0.0100555
0.587646 0.655288 0.0247759
0.482454 0.458699 0.022744
0.487406 0.458206 0.0223542
0.536134 0.640813 0.0283736
0.540925 0.637453 0.0242694
0.747263 0.0824645 0.00303307
0.508078 0.628318 0.0275956
0.517516 0.522684 0.0225627
0.522493 0.522339 0.0225468
0.541479 0.61125 0.0218745
0.481918 0.610897 0.0245103
0.546345 0.606509 0.0229729
0.486443 0.60695 0.0254384
0.468315 0.604701 0.0205836
0.631596 0.200425 0.181629
0.547586 0.601664 0.024068
0.504228 0.604117 0.027574
0.419854 0.0902299 0.114764
0.472735 0.60229 0.0221131
0.184274 0.179737 0.176354
0.434505 0.600876 0.0254996
0.557358 0.522391 0.0223422
0.493041 0.462318 0.0224672
0.252702 0.100772 0.123501
0.607801 0.200325 0.181384
0.602246 0.200241 0.181785
0.575369 0.597958 0.0266226
0.592803 0.199649 0.181689
0.586937 0.199223 0.18148
0.582309 0.199534 0.18169
0.421644 0.596308 0.0229849
0.572395 0.199539 0.181897
0.387897 0.596638 0.0234224
0.244029 0.526525 0.0249667
0.246963 0.527478 0.024072
0.257649 0.527712 0.0220729
0.2829 0.527143 0.024566
0.286586 0.527826 0.0257097
0.55249 0.592301 0.0257515
0.547558 0.592296 0.0259915
0.183542 0.158012 0.162722
0.440472 0.0928231 0.116595
0.347174 0.527701 0.024817
0.353257 0.527863 0.0243486
0.212094 0.158052 0.162149
0.223745 0.158323 0.162523
0.732249 0.217353 0.0093464
0.377853 0.592192 0.0218633
0.729341 0.215435 0.00821271
0.551436 0.587436 0.0266372
0.547443 0.587186 0.026559
0.470669 0.589116 0.0235463
0.373087 0.587201 0.0207978
0.470297 0.58025 0.02489
0.432415 0.0377638 0.0854581
0.292578 0.581822 0.0279948
0.512593 0.527498 0.0235937
0.522422 0.527417 0.0232832
0.746987 0.0773241 0.00266533
0.532748 0.572563 0.0259947
0.493108 0.467464 0.0226948
0.402618 0.572883 0.0207118
0.436654 0.0386578 0.0853511
0.247876 0.572512 0.0253492
0.243807 0.570829 0.0246838
0.243351 0.56763 0.0236442
0.722278 0.210269 0.00689191
0.721807 0.553257 0.029729
0.40478 0.555446 0.0252925
0.341206 0.558321 0.0258442
0.412158 0.19978 0.182293
0.407348 0.200091 0.182238
0.266665 0.532963 0.022715
0.397652 0.200479 0.181561
0.581703 0.468909 0.0235078
0.502816 0.235844 0.198811
0.387282 0.200874 0.181106
0.731635 0.553492 0.0249117
0.402408 0.55235 0.0263573
0.507553 0.235695 0.198475
0.367583 0.20057 0.181522
0.512118 0.235587 0.198371
0.437638 0.532435 0.0224442
0.397499 0.547144 0.027443
0.34785 0.201088 0.180877
0.51764 0.532472 0.0236982
0.52267 0.53251 0.0237637
0.761464 0.141725 0.0102125
0.757386 0.142496 0.00894867
0.705438 0.141633 0.124677
0.282064 0.547601 0.0267527
0.312507 0.199976 0.181515
0.277571 0.547772 0.0275347
0.57748 0.53263 0.0214108
0.397345 0.472599 0.0226774
0.402447 0.472282 0.0215163
0.297539 0.200367 0.181551
0.587427 0.532596 0.0212163
0.266942 0.546551 0.0259771
0.281382 0.19956 0.181768
0.610213 0.532259 0.0229022
0.621454 0.530981 0.0265265
0.626613 0.530655 0.0241527
0.706104 0.134235 0.120812
0.447209 0.472949 0.0186431
0.75738 0.132412 0.00717637
0.267428 0.199527 0.181751
0.757409 0.127583 0.00715595
0.252861 0.537435 0.0232105
0.397766 0.542683 0.0266631
0.262722 0.199508 0.18181
0.313477 0.538008 0.0243234
0.792269 0.121006 0.0110041
0.352616 0.537162 0.0248215
0.356428 0.536336 0.0240677
0.345135 0.540562 0.0246485
0.43262 0.537648 0.0222393
0.437661 0.537733 0.0230007
0.482963 0.0395024 0.0804468
0.30208 0.54286 0.026229
0.399771 0.0405738 0.0853852
0.28704 0.54173 0.0268517
0.402063 0.0418813 0.0857426
0.261389 0.543688 0.0245295
0.704445 0.192839 0.172565
0.252891 0.542 0.0238653
0.572261 0.53742 0.0215851
0.587211 0.472237 0.0233913
0.592453 0.537911 0.021663
0.39892 0.537669 0.0258596
0.517322 0.228213 0.195611
0.616597 0.537035 0.0259073
0.789171 0.117408 0.0109294
0.436767 0.0401871 0.0856975
0.448987 0.0408726 0.0854917
0.345338 0.0445615 0.0821723
0.280586 0.0491147 0.0865566
0.340915 0.0495817 0.086074
0.287278 0.537587 0.0266465
0.283024 0.537654 0.0258832
0.267056 0.542632 0.0250865
0.307579 0.543158 0.0256576
0.337259 0.0528364 0.0886266
0.397523 0.0933749 0.117167
0.351612 0.540977 0.0248391
0.279613 0.536822 0.0251714
0.393435 0.477764 0.0229085
0.427505 0.542155 0.0218264
0.482576 0.532464 0.0247423
0.477448 0.532329 0.0241232
0.472646 0.532251 0.0237156
0.42668 0.0345454 0.0856021
0.51251 0.542309 0.024155
0.744118 0.0678125 0.00448001
0.7292 0.116516 0.00898833
0.572423 0.542457 0.0220322
0.577622 0.542543 0.022444
0.587737 0.542497 0.0226926
0.487567 0.527491 0.0250302
0.482397 0.527233 0.0249057
0.462047 0.477692 0.0217147
0.477787 0.527774 0.0245481
0.612557 0.54171 0.0231334
0.616441 0.542109 0.0254591
0.620584 0.541247 0.0287172
0.472577 0.527385 0.0243757
0.247663 0.0386567 0.0888523
0.497566 0.477424 0.0224162
0.253215 0.0388274 0.0887315
0.262713 0.0389391 0.0883135
0.267249 0.0388558 0.0872339
0.267029 0.544964 0.0255804
0.304763 0.548131 0.0254012
0.747726 0.112408 0.0077984
0.373107 0.0405449 0.0853976
0.377767 0.0394188 0.0842076
0.407689 0.522549 0.0251863
0.342528 0.522293 0.0245681
0.743167 0.0631141 0.00589771
0.35737 0.549404 0.0247565
0.578767 0.476394 0.0203071
0.583458 0.4766 0.0206375
0.427677 0.547768 0.0220588
0.437527 0.547355 0.0231374
0.315154 0.522308 0.0256972
0.312324 0.522322 0.0259594
0.472646 0.195504 0.181112
0.307529 0.522574 0.0266778
0.392551 0.0394487 0.0836653
0.237531 0.522255 0.0263237
0.441778 0.0400764 0.0853028
0.407541 0.517503 0.0251618
0.397807 0.517659 0.0247436
0.342199 0.517702 0.0243747
0.572587 0.547454 0.0230752
0.577638 0.547759 0.0235452
0.587448 0.547199 0.023614
0.244775 0.0401867 0.0896282
0.248199 0.0411598 0.0897468
0.327462 0.516198 0.0253944
0.237558 0.517514 0.0265993
0.686468 0.512652 0.0273697
0.158666 0.550628 0.0242892
0.419642 0.0992572 0.123711
0.34762 0.552744 0.0254245
0.427336 0.552561 0.0217455
0.422627 0.482696 0.0201735
0.432668 0.552464 0.0223896
0.437661 0.552447 0.0230302
0.74082 0.060292 0.0065249
0.737339 0.0584083 0.00695506
0.577345 0.552169 0.0244581
0.275638 0.0414943 0.0842684
0.458065 0.482294 0.021009
0.21215 0.163962 0.166182
0.684668 0.508467 0.030447
0.732536 0.0575685 0.0076449
0.407628 0.507824 0.0239413
0.704068 0.186233 0.167747
0.397884 0.507802 0.0224985
0.337481 0.507313 0.0253289
0.332383 0.50772 0.0258552
0.327318 0.507303 0.0257446
0.298055 0.507496 0.025944
0.237386 0.507885 0.0268919
0.23246 0.507532 0.0272586
0.742334 0.107472 0.00811717
0.685214 0.504217 0.0317599
0.337394 0.502469 0.0256669
0.777148 0.0527084 0.00680269
0.589046 0.48157 0.020005
0.591118 0.482786 0.0194393
0.507655 0.227925 0.195622
0.33254 0.502709 0.026296
0.328228 0.503567 0.0262196
0.297895 0.502476 0.0257087
0.286119 0.557907 0.0263825
0.237373 0.502532 0.02649
0.42766 0.557619 0.0211922
0.232376 0.502506 0.0270695
0.257406 0.0451533 0.0907958
0.217282 0.168728 0.16965
0.726835 0.554309 0.0266821
0.337338 0.49731 0.0259016
0.368112 0.0926989 0.117673
0.279934 0.0518956 0.088764
0.381571 0.0494834 0.0902126
0.332489 0.497778 0.0265824
0.708646 0.0607523 0.083416
0.423883 0.561681 0.0202415
0.708598 0.0652157 0.0866537
0.405934 0.105263 0.125455
0.232434 0.49742 0.0268084
0.222593 0.497612 0.0273869
0.37651 0.105662 0.12443
0.775789 0.0496627 0.0064382
0.709558 0.071756 0.0894524
0.337323 0.492661 0.0259169
0.292496 0.569419 0.0232592
0.772232 0.0478472 0.00677247
0.421395 0.0987395 0.12366
0.427158 0.091191 0.115347
0.222541 0.492242 0.026666
0.212698 0.492228 0.0256419
0.332189 0.487477 0.026622
0.438298 0.0902395 0.114975
0.237475 0.489083 0.0247248
0.232578 0.487766 0.0254707
0.227391 0.48784 0.0259918
0.596162 0.571335 0.0301642
0.60076 0.570001 0.0306261
0.743033 0.0928885 0.00578988
0.529455 0.486692 0.0192903
0.737313 0.0930304 0.00611568
0.272694 0.48269 0.0248321
0.3891 0.0506528 0.0901327
0.35888 0.0898657 0.116615
0.777704 0.062375 0.00798961
0.584965 0.489371 0.0203214
0.387387 0.477411 0.0258246
0.317652 0.477569 0.0277854
0.313169 0.475835 0.0283555
0.21875 0.221413 0.196257
0.772508 0.087275 0.0084839
0.632647 0.192628 0.176731
0.627496 0.192763 0.1763
0.270481 0.0463402 0.0883352
0.61767 0.193477 0.176364
0.612997 0.192939 0.176152
0.607353 0.192814 0.176494
0.602111 0.193003 0.176845
0.36199 0.580863 0.0236889
0.592452 0.192972 0.176943
0.587596 0.192819 0.176958
0.362091 0.0898545 0.116423
0.578572 0.192956 0.177312
0.247361 0.0459529 0.0909712
0.366762 0.0899707 0.116212
0.769692 0.0419768 0.00598679
0.777297 0.0823782 0.00917198
0.767471 0.0822388 0.00672478
0.252972 0.045908 0.0911475
0.333402 0.468295 0.0252775
0.326389 0.467631 0.0264365
0.447616 0.492797 0.0195923
0.32236 0.467282 0.0270988
0.457543 0.493044 0.0213324
0.462743 0.492925 0.0221036
0.467365 0.492699 0.0224445
0.45914 0.460818 0.0230861
0.562655 0.589614 0.0275877
0.777577 0.0774474 0.00874285
0.596564 0.587786 0.021306
0.467614 0.458511 0.0237384
0.463476 0.458879 0.0235354
0.772162 0.0773913 0.00785023
0.740237 0.434223 0.0307079
0.741399 0.42209 0.0300426
0.74174 0.417058 0.0298691
0.767211 0.077362 0.00674241
0.762749 0.0773928 0.00558738
0.262699 0.0462255 0.0904115
0.597897 0.406122 0.0290172
0.592111 0.406178 0.0292797
0.73749 0.4027 0.0285307
0.587247 0.492707 0.0207818
0.737303 0.397586 0.0280456
0.727528 0.397644 0.028731
0.737436 0.392237 0.0274675
0.727463 0.392869 0.028142
0.727324 0.387818 0.0275599
0.722548 0.382173 0.0283185
0.742568 0.377486 0.0261997
0.737461 0.377635 0.0257734
0.732304 0.377611 0.0259439
0.727238 0.377411 0.0267145
0.74255 0.372551 0.0256426
0.472758 0.191297 0.178593
0.737393 0.372695 0.0253638
0.792549 0.0674094 0.0082032
0.787151 0.0676335 0.00829829
0.747459 0.367662 0.0258464
0.742097 0.367715 0.0252606
0.742536 0.362705 0.0250444
0.661496 0.362116 0.0291685
0.412221 0.601876 0.0217743
0.722269 0.352765 0.0274761
0.661889 0.3526 0.0287015
0.662007 0.347518 0.028899
0.655649 0.310767 0.0299701
0.417683 0.19198 0.178716
0.39458 0.606195 0.021496
0.438395 0.605874 0.0251006
0.596521 0.65094 0.0233371
0.398492 0.0899368 0.11535
0.578714 0.647657 0.0233856
0.598046 0.643994 0.0224576
0.782335 0.067432 0.00833638
0.397513 0.192474 0.17735
0.392535 0.192913 0.176984
0.554124 0.608736 0.0229294
0.772457 0.0675016 0.00815971
0.522362 0.497349 0.0194157
0.387455 0.193148 0.176743
0.76768 0.0673764 0.00787628
0.377617 0.192778 0.176532
0.372395 0.192661 0.177075
0.580566 0.632154 0.0208613
0.567567 0.632631 0.0216999
0.562523 0.632387 0.0218716
0.352245 0.192889 0.177095
0.347779 0.192914 0.176784
0.398899 0.60961 0.019435
0.40142 0.611337 0.0185486
0.453255 0.612676 0.0204088
0.342676 0.192659 0.176552
0.55247 0.631793 0.0209719
0.547392 0.632517 0.0214877
0.762687 0.067652 0.0073959
0.607932 0.626499 0.0203965
0.585632 0.626057 0.020887
0.55353 0.612313 0.0221706
0.352426 0.0531738 0.0920405
0.472193 0.617387 0.0207935
0.787565 0.0625691 0.00753059
0.792365 0.0625941 0.00756235
0.187865 0.172917 0.171881
0.197754 0.172511 0.171787
0.202429 0.172621 0.171728
0.513622 0.616903 0.0264573
0.522389 0.617038 0.0249173
0.553287 0.618017 0.0208956
0.601924 0.617562 0.0186128
0.604736 0.61913 0.0181837
0.212189 0.173047 0.172424
0.632643 0.189098 0.174664
0.627388 0.189473 0.174255
0.222456 0.172899 0.171728
0.61744 0.189552 0.173867
0.612233 0.18927 0.174041
0.528007 0.622324 0.0241449
0.531208 0.62195 0.0233377
0.550211 0.620511 0.0203283
0.577952 0.624321 0.0214282
0.590414 0.622033 0.020887
0.607588 0.189029 0.174229
0.606303 0.622789 0.0190882
0.597684 0.189125 0.174356
0.592707 0.189364 0.17454
0.587236 0.189066 0.174477
0.582137 0.189435 0.174736
0.227255 0.173057 0.170898
0.538298 0.628808 0.0229688
0.547375 0.628153 0.0204923
0.572631 0.627654 0.0212231
0.518103 0.612375 0.0257252
0.513967 0.612465 0.0265055
0.476654 0.612703 0.0226697
0.534425 0.630922 0.0253312
0.472541 0.613734 0.0214376
0.462788 0.614013 0.0202876
0.593569 0.605519 0.0216967
0.572553 0.632267 0.021156
0.557628 0.607553 0.0233839
0.496641 0.224468 0.194985
0.332986 0.17527 0.169034
0.337804 0.175056 0.168972
0.347412 0.17467 0.169201
0.351709 0.175073 0.169534
0.523084 0.607785 0.0248493
0.485026 0.607232 0.0255537
0.478245 0.608186 0.0239616
0.477339 0.223687 0.194492
0.451939 0.607316 0.0206332
0.446749 0.606031 0.0217164
0.417587 0.187662 0.17636
0.719227 0.296747 0.0290933
0.721874 0.298275 0.0262137
0.724693 0.298855 0.0239776
0.387429 0.189554 0.174771
0.405846 0.605158 0.0211519
0.377238 0.189325 0.174824
0.401576 0.60714 0.0209725
0.594299 0.601177 0.0218442
0.723046 0.306539 0.0278
0.726336 0.307803 0.0256232
0.728183 0.311167 0.0254979
0.728186 0.320012 0.0260831
0.342667 0.188345 0.174826
0.730887 0.317715 0.0254502
0.719565 0.323562 0.0302777
0.716386 0.329157 0.0312835
0.722904 0.326978 0.0275128
0.726995 0.326824 0.0260474
0.742517 0.32681 0.0241053
0.307194 0.189105 0.174823
0.302665 0.189262 0.174836
0.29747 0.189098 0.174619
0.418051 0.507115 0.0226999
0.422794 0.507644 0.0219236
0.748697 0.326594 0.0240918
0.287647 0.189146 0.174612
0.282341 0.189162 0.174725
0.277386 0.189193 0.174864
0.71556 0.333738 0.0303483
0.727828 0.332724 0.0252246
0.742546 0.333556 0.0243906
0.540211 0.600152 0.0247742
0.252113 0.189151 0.174796
0.527983 0.603029 0.0246407
0.477413 0.507714 0.0228413
0.715036 0.337305 0.03025
0.755159 0.337271 0.0246999
0.659037 0.344821 0.030324
0.739371 0.343881 0.0243329
0.742984 0.342039 0.0245466
0.718658 0.347263 0.0285062
0.7223 0.347502 0.0269302
0.727343 0.347848 0.0256356
0.732656 0.349008 0.0247915
0.695908 0.180867 0.169392
0.692254 0.180275 0.169875
0.682787 0.179613 0.170584
0.637772 0.185746 0.173151
0.6332 0.185902 0.172645
0.747541 0.347307 0.0250533
0.627079 0.186345 0.172291
0.658958 0.352234 0.0300327
0.618017 0.186129 0.171886
0.612244 0.186559 0.172452
0.606725 0.186219 0.172543
0.602153 0.185357 0.172025
0.486142 0.602452 0.0260367
0.592429 0.185341 0.172066
0.587924 0.185428 0.172195
0.452489 0.228303 0.195195
0.718686 0.351388 0.0290327
0.727587 0.352536 0.0259944
0.576717 0.185737 0.172689
0.572121 0.185559 0.172793
0.567549 0.185139 0.172854
0.562629 0.184856 0.173137
0.73223 0.353371 0.0251988
0.552299 0.184717 0.173647
0.547479 0.185289 0.174006
0.542301 0.184909 0.173943
0.537522 0.184846 0.174168
0.742572 0.352702 0.0249249
0.527616 0.184722 0.173718
0.522342 0.184845 0.173372
0.747519 0.352492 0.0251971
0.65924 0.35768 0.0299998
0.718996 0.3586 0.0295968
0.502178 0.184723 0.173407
0.496794 0.184418 0.173436
0.722466 0.357623 0.0279239
0.727615 0.357419 0.0264036
0.73267 0.358282 0.0253032
0.479978 0.184058 0.17356
0.477109 0.184559 0.173858
0.472002 0.184345 0.173596
0.71933 0.362753 0.0295507
0.737186 0.362749 0.0249417
0.461158 0.185111 0.174671
0.457293 0.184296 0.174499
0.452765 0.184216 0.174731
0.394782 0.601317 0.0228016
0.442435 0.183717 0.174863
0.477354 0.512049 0.0233972
0.482256 0.512894 0.0234874
0.659147 0.366341 0.030766
0.566304 0.597851 0.0262755
0.726419 0.367111 0.0268595
0.502492 0.512552 0.0219477
0.562542 0.598209 0.0259187
0.557876 0.59765 0.0253646
0.529628 0.598542 0.02538
0.4373 0.183676 0.174518
0.719517 0.372896 0.0292209
0.727442 0.373428 0.0265283
0.508263 0.596086 0.0282423
0.371955 0.186025 0.173741
0.367502 0.184837 0.173597
0.397576 0.180139 0.17164
0.39419 0.179862 0.170947
0.353231 0.184945 0.173907
0.348306 0.185124 0.173741
0.387564 0.180136 0.169892
0.337025 0.184988 0.173192
0.33267 0.185282 0.173495
0.327343 0.184811 0.173428
0.322573 0.184998 0.173377
0.372634 0.180119 0.170841
0.486611 0.598002 0.0264801
0.307549 0.185639 0.172832
0.302659 0.18589 0.172776
0.297664 0.186328 0.172878
0.442635 0.228441 0.194864
0.481872 0.597462 0.0256976
0.287441 0.185992 0.172545
0.282429 0.185932 0.172588
0.437462 0.22833 0.194463
0.432528 0.228404 0.19448
0.277471 0.185778 0.172571
0.18767 0.17627 0.174146
0.267286 0.185117 0.172433
0.262628 0.185561 0.172738
0.257545 0.18568 0.172607
0.252111 0.185756 0.172725
0.718709 0.37791 0.0296843
0.241967 0.185227 0.173541
0.236797 0.184495 0.174438
0.192678 0.176251 0.174387
0.197659 0.176277 0.174376
0.20285 0.176406 0.174321
0.422389 0.517224 0.0222747
0.207611 0.176227 0.174178
0.217487 0.176555 0.174622
0.715148 0.383521 0.0322376
0.448085 0.51786 0.0214025
0.222723 0.177212 0.174176
0.22745 0.177354 0.173408
0.722481 0.387519 0.0288012
0.467723 0.515847 0.0237136
0.406992 0.59737 0.0223504
0.703605 0.181307 0.162951
0.696904 0.17878 0.166734
0.692225 0.177998 0.167587
0.677784 0.177241 0.168907
0.672658 0.176755 0.168746
0.662357 0.176814 0.168278
0.65761 0.176912 0.168231
0.547211 0.181276 0.171667
0.542503 0.180654 0.171532
0.537633 0.180484 0.171617
0.652691 0.177249 0.168147
0.527666 0.180884 0.171487
0.522746 0.180878 0.171092
0.517251 0.181332 0.171192
0.647603 0.177148 0.167584
0.507347 0.18106 0.171106
0.502132 0.180936 0.171174
0.497373 0.181242 0.171487
0.397629 0.597993 0.0233216
0.722973 0.392912 0.0291804
0.536036 0.594819 0.0258612
0.489685 0.183215 0.173086
0.480661 0.180581 0.171532
0.639351 0.5236 0.0294458
0.643312 0.522179 0.029445
0.723651 0.397538 0.0295399
0.651436 0.522336 0.0309942
0.477001 0.181219 0.171929
0.427687 0.228491 0.194188
0.422696 0.22853 0.194139
0.47243 0.180653 0.171441
0.534612 0.593897 0.02593
0.461262 0.181125 0.172521
0.457477 0.180825 0.172593
0.452617 0.180097 0.172439
0.507762 0.592213 0.0282856
0.443682 0.18095 0.173172
0.485919 0.593546 0.0269345
0.432831 0.180753 0.172227
0.481782 0.593072 0.0261593
0.412763 0.179916 0.172711
0.723119 0.402938 0.0301564
0.7277 0.402431 0.0291878
0.477221 0.591906 0.0247505
0.433146 0.592387 0.0245191
0.392841 0.59217 0.023128
0.573159 0.405644 0.0277156
0.587443 0.4058 0.0294518
0.34746 0.177946 0.170732
0.611648 0.405482 0.0304684
0.620202 0.405146 0.03203
0.720343 0.409837 0.0312418
0.452486 0.522505 0.0226182
0.727572 0.411666 0.0296159
0.737463 0.411416 0.0291797
0.737894 0.417305 0.0295818
0.727485 0.423885 0.0300434
0.502465 0.522429 0.0237332
0.733091 0.423536 0.0296728
0.37766 0.179549 0.169877
0.728671 0.42789 0.0301143
0.247134 0.1813 0.170418
0.241664 0.180612 0.17101
0.23654 0.180194 0.172
0.387616 0.17716 0.168309
0.54243 0.52255 0.0238854
0.367754 0.176042 0.16944
0.737286 0.431565 0.0302122
0.72815 0.436121 0.0304237
0.732846 0.437031 0.0302506
0.727471 0.444436 0.0306421
0.536757 0.585793 0.0264282
0.486115 0.586452 0.0269783
0.481826 0.587475 0.0262679
0.691775 0.174748 0.164372
0.682031 0.173466 0.165406
0.677549 0.17324 0.165605
0.672852 0.173044 0.165975
0.662816 0.173562 0.166086
0.657899 0.17372 0.165754
0.652468 0.173757 0.165404
0.647181 0.173982 0.165115
0.312658 0.467567 0.0291269
0.477568 0.58791 0.0252213
0.420828 0.176201 0.171018
0.387699 0.586831 0.0221292
0.542422 0.581841 0.02664
0.670887 0.525188 0.0319642
0.679379 0.524498 0.0298649
0.683605 0.52408 0.0270963
0.3936 0.469019 0.0241805
0.417418 0.22843 0.194189
0.360176 0.178705 0.170921
0.458538 0.468519 0.0216866
0.297268 0.178968 0.168316
0.52711 0.582738 0.0261534
0.308784 0.47182 0.0293729
0.481987 0.582694 0.0260131
0.482018 0.472287 0.0227495
0.477175 0.582332 0.0253319
0.52206 0.57736 0.0258494
0.412684 0.172173 0.169267
0.325118 0.476973 0.0269154
0.411904 0.169681 0.167549
0.333165 0.477481 0.0257513
0.337158 0.477783 0.0252907
0.367466 0.527599 0.0211692
0.437404 0.577493 0.023314
0.40183 0.17301 0.168685
0.396913 0.172481 0.167301
0.392571 0.173086 0.166639
0.387724 0.173258 0.166147
0.377645 0.173154 0.166618
0.372837 0.172704 0.166955
0.367553 0.172434 0.167355
0.452782 0.527783 0.0231511
0.219644 0.484894 0.0253987
0.347542 0.172405 0.168044
0.342523 0.172522 0.168087
0.332533 0.172307 0.167683
0.222765 0.484127 0.025436
0.4325 0.579722 0.022754
0.388106 0.578505 0.0212688
0.327546 0.482343 0.02684
0.332675 0.482752 0.0261907
0.537569 0.52724 0.0243846
0.337406 0.482241 0.0254779
0.52079 0.572474 0.0254687
0.387613 0.482422 0.0231225
0.391794 0.483152 0.0216675
0.642427 0.179949 0.169368
0.21783 0.488212 0.02574
0.651916 0.179695 0.170035
0.658266 0.179606 0.170388
0.662731 0.179175 0.170124
0.47752 0.572035 0.0246822
0.337381 0.487474 0.025676
0.345084 0.485998 0.0240772
0.392704 0.487344 0.0207226
0.438604 0.572856 0.0232232
0.417357 0.572025 0.019436
0.642567 0.52665 0.0273703
0.414254 0.57375 0.019541
0.65152 0.527175 0.0284279
0.655708 0.526162 0.0288658
0.678929 0.526677 0.0297602
0.683155 0.527519 0.0270287
0.288877 0.57268 0.02716
0.237478 0.492361 0.0252531
0.412378 0.228509 0.194701
0.241753 0.493011 0.0243646
0.605959 0.566153 0.0312936
0.438486 0.567335 0.0228516
0.419689 0.568622 0.019486
0.288469 0.567869 0.0267188
0.392994 0.493064 0.0198869
0.251884 0.567678 0.0239787
0.377609 0.182599 0.17145
0.38245 0.182702 0.17105
0.244998 0.499751 0.0245374
0.259313 0.498761 0.0242769
0.392424 0.182587 0.172023
0.342381 0.168351 0.165904
0.327324 0.168576 0.164928
0.606224 0.561114 0.0272045
0.497706 0.562735 0.0255421
0.442233 0.562723 0.0232938
0.437966 0.562099 0.0227338
0.300543 0.498942 0.0255706
0.347321 0.559962 0.0269329
0.452456 0.53252 0.023355
0.283982 0.56293 0.0282524
0.587287 0.555936 0.0249037
0.237079 0.168368 0.16581
0.503118 0.532953 0.0246236
0.23242 0.167634 0.166607
0.22257 0.167688 0.168575
0.572713 0.556382 0.025615
0.494157 0.555901 0.024724
0.202517 0.167538 0.168254
0.197409 0.167618 0.168328
0.192439 0.167154 0.168133
0.352796 0.556561 0.0262859
0.393133 0.502927 0.0204596
0.642939 0.183157 0.171964
0.65259 0.182731 0.172822
0.657546 0.182542 0.172752
0.662389 0.182577 0.172683
0.667477 0.182722 0.172666
0.242143 0.50703 0.026079
0.245235 0.506662 0.0254554
0.254599 0.508272 0.0242556
0.677404 0.181998 0.172496
0.305756 0.508856 0.0262182
0.682672 0.182255 0.172571
0.687711 0.182252 0.172166
0.697327 0.18306 0.170927
0.393561 0.507976 0.0213596
0.701262 0.184414 0.169475
0.723386 0.550099 0.0265279
0.411954 0.507618 0.0235208
0.592539 0.551587 0.0239155
0.223248 0.163512 0.165655
0.567956 0.552079 0.0243383
0.489742 0.550928 0.0244572
0.480364 0.552232 0.0230721
0.684246 0.532026 0.0274422
0.688501 0.531359 0.0246625
0.242081 0.512236 0.0263925
0.40205 0.227833 0.195314
0.442669 0.552211 0.0229427
0.307125 0.512718 0.0264488
0.396917 0.227883 0.195872
0.397479 0.186562 0.174627
0.419765 0.551293 0.0217399
0.357249 0.552456 0.0247993
0.422388 0.185799 0.175635
0.392956 0.512767 0.0223072
0.226874 0.159868 0.163036
0.353368 0.553057 0.0258762
0.283957 0.553989 0.0267678
0.39234 0.228021 0.196055
0.358474 0.227542 0.195628
0.731018 0.546744 0.0235155
0.412214 0.512738 0.024173
0.417953 0.513841 0.023108
0.54386 0.514378 0.0225414
0.376855 0.539047 0.0207604
0.547143 0.513793 0.0223344
0.723092 0.546406 0.0243561
0.718223 0.545544 0.0253962
0.240571 0.518276 0.0262388
0.713492 0.544337 0.0270611
0.311511 0.51788 0.0261012
0.710394 0.543359 0.0277813
0.623747 0.545444 0.0306772
0.5926 0.547575 0.0234812
0.567471 0.547585 0.0230474
0.536993 0.547132 0.0246565
0.497596 0.537474 0.0248853
0.522183 0.546692 0.0249939
0.517271 0.547349 0.0246885
0.467723 0.518267 0.0237953
0.550659 0.518169 0.0227169
0.685608 0.517846 0.0257959
0.507372 0.547568 0.0240955
0.241353 0.522899 0.0257042
0.537569 0.5379 0.0245037
0.502876 0.547303 0.0243902
0.489058 0.548579 0.0245073
0.442448 0.547562 0.0229742
0.422568 0.547338 0.0219246
0.703496 0.179384 0.160311
0.366493 0.523378 0.0213707
0.393316 0.523063 0.0236152
0.397647 0.522818 0.0247903
0.412162 0.522536 0.0241453
0.477466 0.522749 0.0244785
0.487419 0.522476 0.0246826
0.492409 0.522606 0.0243177
0.602469 0.537818 0.021276
0.534978 0.524333 0.0239024
0.547129 0.522567 0.0235733
0.55127 0.520622 0.0229823
0.662801 0.524957 0.0310388
0.686128 0.52278 0.0250957
0.631431 0.534167 0.0292764
0.637364 0.534262 0.0307351
0.642866 0.534669 0.0307729
0.39864 0.527376 0.0248376
0.650529 0.534519 0.0316246
0.402789 0.527679 0.025238
0.688888 0.534112 0.0264313
0.41248 0.527358 0.0238525
0.417096 0.527889 0.0226619
0.625242 0.540374 0.0305306
0.437768 0.172866 0.168433
0.401599 0.173122 0.168708
