0.64300985277650891 0.41951860630433851 0.04524969166426359 0.087136303212480101 -0.050246733550995036 0.99492840467539068
0.27914267744108995 0.23904291296505686 0.20208805934616905 0.016947285123767808 -0.45576069584220114 0.88994099672526961
0.62143156860357518 0.21286187811595883 0.19108301501710812 0.014972947539500417 -0.50140325538208919 0.86508414985723947
0.40026323424036753 0.41832064249354106 0.027154794340928053 0.032967762950176206 -0.10243896637340126 0.9941928307800304
0.24138132090714295 0.5313754022975008 0.028869407614148055 -0.092929587307588268 0.037734034981910358 -0.99495740331273741
0.73748820739372711 0.541833323511973 0.031676199553683018 0.073993946904866312 -0.20493512541929768 0.97597463603867107
0.75163564912723391 0.0031278309724167954 0.0048819354368792017 -0.066849323845212374 0.07105790114352592 -0.99522959290131385
0.35308566697101895 0.59294814539253693 0.02285058557987436 -0.037892213169461939 0.017302954863849151 -0.99913201727004008
0.59217827701214876 0.21344876985772127 0.19101291707472026 0.012163214010321581 -0.49741939575533262 0.86742492525367221
0.58763755229346892 0.21352419488249172 0.1907070640388864 -0.013896133202559495 0.50579880200663063 -0.86253954655463416
0.58226640347449976 0.21324279370430221 0.19084032979294263 0.011746042257506518 -0.49571842109932956 0.86840386772173739
0.36792985452444821 0.41223588686389112 0.030496560746105489 0.039121644519074787 -0.14623547354861346 0.9884759396192383
0.57271227415101145 0.21310076614470733 0.19074778541115414 0.011423835668577256 -0.49338937643254455 0.86973353344695303
0.56796478720379695 0.21291427923722259 0.19032881247781361 -0.012241518146743109 0.50527786723733992 -0.86286987553949757
0.22799009614552873 0.11075232531430182 0.12937571885599453 0.034171193738964815 -0.52324704988740778 0.85149565724234832
0.5518694696100529 0.2131010759577367 0.19089130493729353 0.010704647734348054 -0.48776478546121455 0.87290945955514698
0.54695674859148846 0.21307629780734771 0.19075724153296286 -0.01114520386653931 0.50258195612855483 -0.86445772702010648
0.19816074270316331 0.10795289768233604 0.13219242929918112 -0.063765708034432184 0.50329795798666321 -0.86175698428578029
0.53749260608412852 0.21304619031959537 0.19105244606367397 0.0098318637543419289 -0.48430335473235836 0.87484489771050256
0.4116733411512109 0.42703415319629523 0.02611865489155097 0.029575081123076715 -0.080790952048036116 0.99629219441072381
0.52727752960359286 0.2130110360226885 0.19118347715620973 0.0091078923776304697 -0.48256557414685936 0.87581248731948869
0.52215349858945082 0.21309637842709755 0.1911819639365582 -0.0088425318694670251 0.49818797700396672 -0.8670239611445768
0.51700856928159 0.21334357554677869 0.19140162814784617 -0.0080978679140415993 0.49722882462772583 -0.86758165062118331
0.6610656953672841 0.41506342564500831 0.045542940864934212 0.093436573583921295 -0.044478782033695104 0.99463121038186586
0.70633635931572603 0.1239743219273864 0.11835649268591447 0.93644830449542948 -0.17105760872139775 0.30627417048480005
0.31254201664349551 0.40555037490185575 0.0333614833132009 0.039787415934800584 -0.16616196900519434 0.98529546918147759
0.70965854191402367 0.27653512295734894 0.031964741885845284 -0.29239067910967143 0.06074552748482951 -0.95436768158837759
0.71837583112346481 0.5355701717406598 0.031934212369286126 0.072540451627382319 -0.19922224812732398 0.97726576668211929
0.40608300127183949 0.43157725166509547 0.026803393556192795 0.030509090362716398 -0.083412789642928462 0.99604794158174137
0.23866808284622235 0.52719227497302645 0.028943842426918245 -0.093191953573977859 0.037937776641053765 -0.994925115218527
0.18420417286435681 0.18695716252684222 0.18013851808721904 -0.067371565870974981 0.48576460611929073 -0.87148942595642731
0.7060205159029268 0.24348788551951117 0.030279097649673872 -0.28005092891413441 0.049990401786588964 -0.95868265705787425
0.45928943807115619 0.4596312403894065 0.022438303425277178 0.018443998739982963 -0.031464445301034795 0.99933468247248269
0.44245311182237018 0.21255086835076448 0.19123426281739869 -0.0038995296070558592 -0.47241653820950269 0.88136678408877711
0.43766876141930061 0.21278335902963863 0.19071240250521621 0.0079972428192681307 0.47470857744593553 -0.88010670410271619
0.43262403092236329 0.21250528955085818 0.19103386309427436 -0.0055296669746692489 -0.47054628710013802 0.88235798544549016
0.2385365275697966 0.10730956269756345 0.12637918859239061 0.029896455489258903 -0.526170483548273 0.84985341335535936
0.41274136307231901 0.43432353781823735 0.02608972098579028 0.028722934228079262 -0.073812269982039533 0.99685843621320069
0.72019548166353375 0.032260802664928895 0.0097126330574087288 -0.070504926334151688 0.075897189527254924 -0.9946198630554689
0.23312407418377645 0.51737583213286176 0.029045119649090977 -0.093833286866593604 0.038419744804873847 -0.99484633862971017
0.40311741212120888 0.46278056141020796 0.026020558130079044 0.027611027678654844 -0.053496483702953394 0.99818623381709093
0.21755454618040473 0.097812734898156339 0.12152299801863926 0.032743797816364023 -0.52595353777309595 0.84988276827367526
0.78756816619542136 0.052658408993558878 0.0091737488798821643 -0.016311889961330386 -0.021817780591349301 0.99962888448461573
0.69346930569620646 0.38335135021218403 0.044056325655992788 -0.33277360030296477 0.043713298893968376 -0.94199303524028732
0.52773043117043306 0.45825951579150809 0.020020475656203622 0.010376810391319541 -0.032093206281844186 0.99943101208470297
0.69047582037141864 0.27360448232265638 0.038027114932635005 -0.29989106127711762 0.05850187125971662 -0.95217796783227215
0.21699779515585674 0.14697474134908722 0.15387238925851274 0.046811108618072035 -0.50685439080819239 0.86075974965631574
0.71367955510809133 0.014266469395131131 0.009100898756734789 -0.075717298975305367 0.079445552777931833 -0.99395940298368979
0.5944057759570136 0.48127224147841408 0.036824837932768147 -0.11839349623664039 0.67654787805180294 -0.72681906190775381
0.22349933681950915 0.11400652794343613 0.13187578921949958 0.036386877126873919 -0.52123783993784834 0.85263539065058735
0.68255088480264714 0.46376074486444047 0.038865324071110839 0.086336080281671265 -0.058862327064834609 0.99452566970094314
0.69894397236560468 0.46026535834139404 0.037996256002523765 0.091169392667314317 -0.053929704491025701 0.99437403868674279
0.75252962712524529 0.14226621439219986 0.012614671073153241 -0.070510666715055029 0.045922640575221531 -0.99645338925711802
0.69120428746867779 0.13769950401450318 0.028118453142831096 -0.23692430166716369 0.028478822944183999 -0.97111061775847163
0.29856187161675185 0.54701322034316802 0.029988771501576358 0.030839422322005879 -0.035537501484976614 0.99889239461468038
0.71294323426199768 0.43245828022636373 0.038515121201991138 0.10146043136333144 -0.040558598731232853 0.99401246518166242
0.32099290144651543 0.54698334022775774 0.027799662322116975 0.029685833734399189 -0.029273672865122391 0.99913052368170574
0.68723561236984354 0.229983087968163 0.03539226775912474 -0.28568618763536635 0.043152886952370392 -0.95735115320453135
0.72188202733123441 0.22832628613836181 0.024176885038134442 -0.25776784823535953 0.045787261388517089 -0.96512137221732497
0.21186055721810029 0.50826724595555983 0.03749378265968021 0.026794932370849116 -0.071340664831109665 0.99709204246182648
0.76726195422177168 0.036968097951635262 0.0085256335735761878 -0.013147717430478868 -0.023315482550843335 0.99964169870998765
0.67463775136692716 0.43620509947113772 0.04202665655867005 0.092190163354396407 -0.045655113749188347 0.99469421651542667
0.39225795828088689 0.23422420405291619 0.20125628771314671 -0.0077483032287491991 -0.45840161479533548 0.88871138360555735
0.37581928712444218 0.23432096194624993 0.20084816454287399 -0.007293444989930239 -0.45559512379522499 0.89015722703025468
0.28789358918952151 0.21369501030941412 0.18903657322156422 0.013639479012788646 -0.45981903869444402 0.88790788726442627
0.28295263681379756 0.21333368181624776 0.18890959632888374 0.015494249700018807 -0.46065793962322754 0.88744250004623748
0.27744759880992181 0.21358049588881023 0.18912603296954844 0.017980966641655632 -0.46122017715921954 0.8871035075005903
0.33724813859622071 0.40375745193510493 0.031833100222202787 0.04061492877937662 -0.16530499318019035 0.98540584876990833
0.26777723862383845 0.21311131702711886 0.18912775366515444 0.022240137838376247 -0.46333325962729976 0.88590499873974715
0.2626030453162041 0.21339365984574618 0.18945716579285449 0.02516092067985725 -0.46403968360247611 0.88545700071356137
0.25767486318061278 0.21372436285666963 0.18984691635861514 0.027995243497308822 -0.46535418296663478 0.88468172284555657
0.31733438935089314 0.025658587755928462 0.070983677959053942 -0.0061442528844992492 -0.55134717584626036 0.83425328278817357
0.67963809232790862 0.43569577297288803 0.041608243545408395 0.093278104518894844 -0.045203218114184415 0.99461342454718737
0.24156925841364146 0.21318323052372495 0.19049862230262216 0.036730547084053343 -0.47034917003631765 0.88171567137998252
0.23718813198652264 0.21334558828451397 0.19087931800756738 0.038757040662873922 -0.4713966613461632 0.88106928187898326
0.2320186410766843 0.21362063271206896 0.19061102902656615 -0.055901158804810905 0.47849905898613532 -0.87630685892195448
0.22639065849597401 0.21281292921342237 0.19060201625296172 -0.057097897962266962 0.47887982236776389 -0.87602165828095224
0.32758967218803409 0.025739732660472758 0.071390150059465335 -0.0068090024404336112 -0.55054499191640616 0.83477772452403787
0.35238457490183744 0.025448789855317629 0.072126760927835806 -0.0070979481467544634 -0.54806745440721771 0.83640401992798818
0.38046389072141479 0.42686601131035135 0.029815066327204171 0.036330501418255778 -0.11661510827621342 0.99251247407195098
0.64588631841421951 0.20949544273733436 0.1894606096653732 0.019004569968285659 -0.50450121194646558 0.86320180344162167
0.65050554472413991 0.39197795250124451 0.05981405984875969 -0.33733801270058439 0.043140236870201194 -0.94039459013225035
0.63158867242251759 0.20937908217109369 0.18974359138757554 -0.03091633211477255 0.50192360033810357 -0.86435923077861831
0.6271538704487869 0.20966051331082619 0.18928723514001466 0.015654437979493705 -0.50293375642660243 0.86418318383209314
0.27378788246240882 0.47681506271326907 0.035299225847961621 0.032691526527051262 -0.081662314354928392 0.9961237526068375
0.61730775480988465 0.20966146766662508 0.1891208177753301 0.014329595360659626 -0.50182924481514468 0.86484800499571102
0.61231320042835247 0.20979113907818073 0.18911867856984574 -0.019737940755175973 0.50483680978352663 -0.86298911301495373
0.6071405818004213 0.20960959525881637 0.18895072104691729 -0.018669623943911664 0.50542276162860966 -0.86266985409802199
0.60204860073883504 0.20926602396981928 0.18866296505774791 0.012761947813123649 -0.49941266753949043 0.86627023508204726
0.71982452799700236 0.21211771091404188 0.023830788860909988 -0.25308060930497883 0.040017834354438432 -0.96661718282234221
0.65018780978593183 0.38174867590616235 0.059645024362852274 -0.33806007842935537 0.04423929829762268 -0.94008418126169535
0.25522429433744037 0.56454714205557599 0.028887996776475293 -0.089682030747144856 0.035704157537525483 -0.9953302700589407
0.2471454391245034 0.40733659610074291 0.035081839103662693 0.033091980661420987 -0.14690507245705919 0.98859689484758673
0.64403472335540213 0.37678282869560398 0.046540573697358166 0.091112107128577702 -0.053500026347440013 0.9944024995520746
0.69878007591311142 0.43142527085532595 0.040317280312971111 0.098860865308477999 -0.041065842440177691 0.99425355211592659
0.71321757650044815 0.34358679961257016 0.03578778320234681 -0.32666088132912957 0.05406201016569484 -0.94359417530319711
0.5627028316166337 0.20963289739035343 0.18848469225721659 -0.012131869747617185 0.50515610805965983 -0.86294271201884787
0.52711230864081449 0.42137884715577528 0.019609241590448186 0.0122606451915432 -0.033454531190804347 0.99936503387015219
0.51114968307714015 0.42232613235575789 0.020173686795123175 0.01393732843777523 -0.033438633652704615 0.99934358888995622
0.73039558434361751 0.10191980265578311 0.012587865091410565 -0.075172362039591004 0.05002324350034093 -0.99591505214807063
0.54241026132700354 0.20927080905597029 0.18862522190786329 -0.010986174493440555 0.50237051627189866 -0.86458265559211034
0.53743477605767953 0.20916502818525423 0.18864785218374344 -0.010748461985118089 0.50192329632627297 -0.86484534754482134
0.60339905444595487 0.42903555832793205 0.061818194401801557 0.010602025243548968 -0.86427470677672058 0.50290836967259622
0.52720502282806003 0.20880086631100561 0.18886782416578113 0.0093599116545076584 -0.48356484829693003 0.87525849298672143
0.70812285704128008 0.17710951366086455 0.025981105245117 -0.25750457300730967 0.030083725683215955 -0.96580865823895989
0.70918519533449631 0.1727551697439508 0.0254112416594055 -0.25385026328681187 0.02968009941453896 -0.96678805098530229
0.18822031053678626 0.20807966885766294 0.19135732876409148 0.048947344774257731 -0.48159803301073623 0.87502428082867501
0.50924723632314051 0.20822567347900087 0.18883539568540539 0.0073525020728828026 -0.48092471887388316 0.87673106223593145
0.50183059785121209 0.2083685595719684 0.18875556214977363 -0.0053909453017273968 0.49322985734712665 -0.86988231705793784
0.49613687479399499 0.20852224331374955 0.18916660534955868 0.0055379415669222333 -0.47984711216981168 0.87733464547200768
0.49197764430061863 0.20935683128493018 0.18965736809797434 0.0049016262416680945 -0.47929315594920779 0.87764118221539456
0.7107871220111649 0.16719757114164596 0.024468712330339946 -0.24549027148524519 0.029526240388866774 -0.96894929058986334
0.48272653326055603 0.20881842385051735 0.18911130925631345 -0.0012915204771304601 0.48729401586731874 -0.8732370091073548
0.47813497196291105 0.2084969514492559 0.18892209434321894 -4.9872601281409834e-05 0.48543551529665557 -0.87427247354665927
0.4725764679127557 0.20796367032687918 0.18903292178497588 0.0015384847802832715 -0.47895717587375253 0.87783691921883755
0.46729323228995923 0.20823856288621262 0.18917939555110289 0.00041929199860737883 -0.4783671210723397 0.8781598497262223
0.46210292600887104 0.20821765731317504 0.1891556061036356 -0.00029641466951038615 -0.47793172008276602 0.87839693936003227
0.45695967490472467 0.20814178646293466 0.18854852962190113 0.0046915794833765718 0.4794463983506192 -0.87755862493087633
0.45201489626920816 0.20802928808521756 0.18897053988573964 -0.0022000751724997741 -0.4760394431158268 0.87942117797288055
0.24813586899335521 0.23884136193164493 0.20331248127026577 0.029968990755755886 -0.46250917239142353 0.88610785181425966
0.26649609674154789 0.40689567852546943 0.034876481227117929 0.035333111002108689 -0.155168197955137 0.98725599598597935
0.17487442556921323 0.49595710223641204 0.039628416168364072 0.025440127564566872 -0.084316073039696279 0.99611425034313372
0.40604232843703791 0.20996059149316443 0.18923559739179582 -0.0077292940318376326 -0.46791665407776495 0.88373879786418719
0.61103832954526915 0.56017216938527581 0.028181130973255784 0.50776499736195368 0.59829955456906503 -0.61984865125002364
0.39797286564330653 0.21028072979227647 0.18921280160562431 -0.0081197767791596036 -0.46585549696202799 0.88482355595639439
0.38760820439863047 0.21035465309934079 0.18899005603807439 -0.0082280748668921433 -0.46272805061210415 0.88646209730631287
0.72312299856512974 0.27906407786316184 0.027964226715592358 -0.28939410505789021 0.061758968941863959 -0.95521562053443232
0.37214160947241787 0.21068578285596315 0.18793133156841976 0.0092884108486058683 0.47144915207569549 -0.88184433004414986
0.36725830731394787 0.21044954541241007 0.18768891465782131 0.0089133580429400835 0.47158007473332808 -0.88177819499174914
0.36263320904944685 0.20958171232115358 0.18809853471501439 -0.007002115310116068 -0.46089854404272651 0.88742520951372506
0.21244261086484395 0.49662887652419446 0.03779728223245192 0.026872121274192095 -0.078060310773513927 0.99658641219924704
0.35277634637993111 0.21045705927124239 0.18828640703451255 -0.005646159356147892 -0.45905067261003185 0.88839214362847807
0.34718282324037586 0.21081678799499542 0.18729702054980765 0.0047398833345935858 0.47381380009062946 -0.88061229627438853
0.34222918398620861 0.20981234685016317 0.18772603264734339 -0.0039259936162831287 -0.45884699490666653 0.88850662453312435
0.30706892242085565 0.42387126278286164 0.035841771468183486 0.039227710502337046 -0.15527229083879104 0.9870925500815102
0.33245656936020868 0.21039382831869441 0.18664658224903466 -3.0180974211802243e-06 0.47609255519971799 -0.87939517787755384
0.3271026146716603 0.21069203582507695 0.18655703395320733 -0.0035903619983922315 0.47676850117945768 -0.87902156150108957
0.32243825606457249 0.21031175357069132 0.18755975237137681 0.00068681569176016729 -0.45753460420991177 0.88919155092403168
0.72694204803451323 0.47747935585004542 0.02817162402978882 -0.27056199194696634 0.031341844565203808 -0.96219223510322516
0.31262321682683464 0.2106957886091792 0.18620958225896578 -0.011364748060467611 0.47884273867373184 -0.87782713225381803
0.30729309796169491 0.21004214327135881 0.18718436773902555 0.005927059252722907 -0.45906960127465773 0.8883805328541039
0.30232420823717748 0.21083570686485151 0.1861008743534707 -0.018706797561841564 0.47879603835468298 -0.87772684212164842
0.2971544900921208 0.2105336408252842 0.18737958878616573 0.0096305701877836131 -0.45937848311339763 0.88818841546728799
0.29704693940059723 0.4230864477805118 0.036130519913520807 0.038388511507361299 -0.15486101020092713 0.98719014870682209
0.28763094489915392 0.21051155633636578 0.18740174499064929 0.013378391100429019 -0.46064853097834424 0.88748180238191787
0.28243303585533469 0.21111649132675489 0.18637661158439781 -0.033587323120593766 0.47874154432711796 -0.87731318550497062
0.27750022775617866 0.21020045458898085 0.18737395577480026 0.0183345015895417 -0.46260484592110246 0.88637497853999458
0.57251793745062352 0.63701188171430689 0.0289238281585915 0.0017504576767523327 0.027430987293021201 -0.99962216703815254
0.26746217224462004 0.20994268224326196 0.18748575569722983 0.022679589006291419 -0.46428833344723497 0.88539368625899684
0.26224985706856185 0.21023134071150751 0.18672939817753068 -0.046346003861449644 0.4780704656865632 -0.87709787239754899
0.25739771617657198 0.21042960932639565 0.18710841679468895 -0.047454482938959798 0.47803940837824938 -0.8770555262275983
0.25253811931406112 0.20953168316017554 0.18793027311537971 0.031771548832402914 -0.46893643879475377 0.88266028859085111
0.25729230211224513 0.52416009361196314 0.027376985172266593 -0.088485029970039611 0.034864181282409784 -0.99546717089751813
0.73155987420701862 0.4676800525611427 0.028200489817644694 -0.28215850106424151 0.031380449234022986 -0.95885444551456889
0.52375915926007766 0.41557486752118378 0.042312692780912591 0.020588012194662605 -0.79536115641148342 0.60578607166693788
0.26687651808997015 0.42338101033577918 0.036695485883268653 0.034857170976436085 -0.14596065050736307 0.98867611791475318
0.60592878545407736 0.50645548588412426 0.025771528842090406 -0.080751567284659459 0.075319513369756452 -0.99388437722242839
0.19961024202949137 0.4294783733616126 0.037218792539467853 0.02819042392286453 -0.12060839067020947 0.99229981159878855
0.21734804604173041 0.20922543043574399 0.18944951474823254 -0.06033441315607823 0.47993076078632302 -0.87522924050797846
0.60243246238120129 0.20657224283861408 0.18711407062973109 0.012863433251138652 -0.50017496353870783 0.86582881560620628
0.59750536082793915 0.20634905597263531 0.18692943271024007 0.012508556386237301 -0.49939084208725953 0.86628651314476213
0.59275467982190377 0.20658549928048259 0.18702174100652907 0.012239844910164164 -0.49879288729406573 0.86663477992832971
0.56169655662424278 0.20589303569579478 0.18670218841437675 0.011506541443477115 -0.49255321505737892 0.87020625706820165
0.61436792542184715 0.62243969769024043 0.034790200214560973 0.035471709022690777 -0.12678648298075149 0.99129558941436902
0.55244959945098993 0.20552633976363743 0.18662069763509656 0.011312397387344564 -0.49052791200575085 0.87135205124486226
0.54805761183609425 0.20609613220122314 0.18700393913708496 0.011108647712710858 -0.48925513558075789 0.87206995720174252
0.5422542148206273 0.20660897332755818 0.1870836228030206 -0.011065826982968497 0.50277584497165795 -0.86434599390881572
0.53676869730021692 0.20596184263645434 0.18713389672866426 0.01040653869851583 -0.48683458740370084 0.8734321888159291
0.26637190694139806 0.50795769703942928 0.026167004485581694 -0.085500103074937467 0.033096697653716416 -0.99578830128626916
0.52748969794843958 0.20520058700575439 0.1868780735918921 0.0096906188213663827 -0.48496516075113072 0.87447977950578637
0.52258629097167419 0.20531460175838315 0.18670679579194605 -0.0090128273474015252 0.49885499196903299 -0.86663860168514406
0.51728332106507624 0.20551626624441247 0.18693005310678859 -0.008088801899916823 0.49749216884979586 -0.86743075413369464
0.66996576103092254 0.3917651913878214 0.052701266329473549 -0.33520372275055055 0.042597458135850065 -0.94118219320944263
0.50727117342668193 0.20560517339357573 0.18743270633028397 0.0074280958621917442 -0.48183743183337624 0.87622914393215567
0.5022511861724176 0.20527447767762008 0.18699990084313425 -0.0055298380353895468 0.49363997936261322 -0.8696487748891395
0.49725144998040077 0.20557237317074223 0.18755166316912547 0.0058961284538092485 -0.48084197029255915 0.87678745159498372
0.55757219060076058 0.47432288384115617 0.020316901055409044 0.0081597948329921108 -0.045315541635467839 0.99893939727821712
0.60867876592407166 0.60541821276359187 0.033136024613573636 0.033403531578525485 -0.12653679409201635 0.99139933620060339
0.56744864340256895 0.47380050584603906 0.0243333013552193 -0.066831356211592197 0.072239251583059341 -0.99514574829903113
0.58918425623961357 0.47547453685953389 0.022543506006390084 0.012597231582464742 -0.059932988860080964 0.99812291157089228
0.62747015939156126 0.38136375581337384 0.067828140875440007 -0.33819633191674453 0.044869768984155699 -0.94000528983052412
0.66342059933768716 0.29896676191768379 0.050120112370028599 -0.32209923603248997 0.057760134349932581 -0.94494224639771718
0.20885436006483946 0.51098330478313725 0.037673091966868799 0.026678013806561183 -0.070892388867214565 0.99712714975575534
0.35673520789265867 0.029165943877264882 0.07479816016875962 -0.0070773042505393223 -0.54726813467339042 0.8369274165276539
0.59515651738415387 0.47935311517349766 0.023545615974606051 0.014776888570361059 -0.064001690982102552 0.99784038158194943
0.37995344718831731 0.57148318080608684 0.021982377259030777 -0.022558999064520156 0.015473195110334599 -0.99962576587155072
0.66303617551748373 0.31641568325730385 0.051828527209146956 -0.329127069337254 0.055908987262943549 -0.94262906669203783
0.27170827817695664 0.47795460330178319 0.035363739104676134 0.032444799015566149 -0.081031387606756933 0.99618334117739749
0.37307421062373108 0.091496384200892802 0.11644597121810829 -0.0081879091646849689 -0.53830276535516852 0.84271174843744134
0.48722996326011186 0.20491042853422009 0.18730194830136718 0.0042755491235250001 -0.4806298795072943 0.87691313059190534
0.48247671048480967 0.20507850482424139 0.18702921129816347 -0.0014555235470534267 0.48778948878785783 -0.87296007702487999
0.47752263254093019 0.20536430180643447 0.18718962537277778 -2.8573017079068952e-05 0.48579471174385158 -0.87407293587279711
0.47268943738965746 0.20473303694292549 0.18728986105725592 0.0016499921405982282 -0.4801273391798242 0.87719725016557026
0.63604588525112771 0.34897501763181565 0.045928278458830872 0.088886299185773704 -0.06076503356485289 0.99418651998149687
0.46270204480019828 0.20491768210577133 0.18737800311551359 -5.0686702293889508e-05 -0.47886833669496415 0.87788673161282971
0.45759085132512439 0.2049512790633474 0.18681137394238381 0.0046553660045408358 0.47957364230431032 -0.87748928721343444
0.45175818834111037 0.20492833447856437 0.18731153345433701 -0.0021914682861637431 -0.47718717692536905 0.87879895063930713
0.2572390507803009 0.42303247401024913 0.036675066885365877 0.033690521391165539 -0.14236064482694741 0.98924132322343228
0.44247678985424482 0.20520892800502644 0.18736778444096033 -0.0038820726219670103 -0.4764038522727625 0.87921800428098018
0.43758289025816915 0.20521940227292554 0.18665153833299936 0.0078882966171162222 0.47524811243180104 -0.87981646177284656
0.43239771634978236 0.20537733124755908 0.18661956565804952 0.0087972188322602771 0.47399001843052246 -0.8804862698356235
0.46350626436607284 0.62121112312876103 0.02677309305108734 0.011843874849598424 -0.037302171431892232 0.99923384181832664
0.42308100748819039 0.20460755398004851 0.18673319645784808 -0.0064936955443875514 -0.47283639961247759 0.88112630826669003
0.41791753932333692 0.2042469916473876 0.18645626454221265 -0.0069534525931450675 -0.47216000261508784 0.88148544028109455
0.25273384975688906 0.42183297819275939 0.036565243403619004 0.033228162609637193 -0.14129469130220898 0.98940977325848201
0.19110973981012752 0.48502651841446381 0.03889210613158138 0.026150961370097595 -0.087648604002550271 0.9958081388680371
0.66291326010081808 0.32634137087645942 0.052613675484331449 -0.33248653370439113 0.053917481976015279 -0.94156551022358759
0.62864053914762008 0.34137473054123674 0.045959111001464534 0.084283249655914314 -0.063875238288583991 0.9943924214116957
0.31186734063446003 0.20689974992882149 0.1856264949025144 0.0043588423631243066 -0.45980644414244493 0.88800846528528898
0.47617782067873871 0.032652127665893704 0.078375123391795559 0.013893601824575597 -0.54628761277297966 0.83748242486582325
0.24182066634292265 0.049187966678946225 0.086551627612054968 0.0056984617873490264 -0.54675728698358372 0.83727175795174713
0.297224635596749 0.20691898317093815 0.18552465965842507 0.0094905850335639582 -0.46101362640083632 0.88734230433833761
0.3384494846280815 0.54202432999774397 0.022951885983854871 -0.054323480948818802 0.019609302612255613 -0.99833082426050745
0.28698996757878054 0.20643884401667631 0.18529398222848431 0.013746651242189788 -0.46228965864648491 0.88662241178990175
0.28219272777547005 0.20669130521952214 0.18396849102192778 -0.033734985420886515 0.47971977383500869 -0.87677299761702332
0.27762338146023852 0.20615528944686937 0.18526044371709535 0.018081987904010277 -0.46419909740802745 0.88554629448663602
0.66875448808678584 0.33592041719062299 0.051099993831272381 -0.3335157407499989 0.052712092638999855 -0.9412697200917477
0.26777693565019084 0.20623309969687587 0.18553386428388632 0.022817043952811367 -0.46525920690194733 0.88488036078230747
0.26238433045115767 0.20664266663991529 0.18476424386063897 -0.046292045283600959 0.47825167807724289 -0.8770019264287634
0.25769946609184785 0.20676902870152006 0.185096030157026 -0.047424911497670599 0.47809963052341908 -0.87702429901503198
0.25229207246589636 0.20571509839068719 0.18593827412302472 0.032768271054721944 -0.47055540355510567 0.88176178903214897
0.65820027850417961 0.33118673971834489 0.05462665488915093 -0.33422659706926544 0.052692671190228468 -0.94101863117280382
0.24194449735031492 0.20567403544991733 0.18551638771690157 -0.052725740397755183 0.47834754860113171 -0.87658634431914151
0.23623262940676457 0.20578847299650749 0.1860151367997874 -0.054790745250728343 0.47864468882881545 -0.87629745868103281
0.23164644920266575 0.20535057529558787 0.18616220902502084 -0.056878109351464499 0.47894006331073691 -0.87600302307270039
0.2267473228186879 0.20524371472520356 0.1865105846282136 -0.058470268421706904 0.47935291502322758 -0.87567231917505994
0.2221382466710099 0.20507676476301276 0.1874865456830575 0.044358703071104157 -0.47766018598023591 0.87742410053016895
0.21735129654909524 0.20509743129472127 0.18783179945342521 0.045602216415794906 -0.47888327392903945 0.87669336019441357
0.63311096851459225 0.3463235177365469 0.046001557352529684 0.087657489149495865 -0.061978222715465728 0.99422073228485741
0.2034088915382441 0.10612217839898529 0.12821819297033046 0.038866472684986691 -0.52038245030293384 0.8530483589561273
0.20778259273853458 0.10707847124226356 0.12853708003633049 0.038375699488142255 -0.52062772406948354 0.85292090994360403
0.21772575558238549 0.10228926101631738 0.1246087633144424 0.034882850082589963 -0.52372063519062084 0.85117558884500921
0.20743097637526817 0.10366482225898602 0.12624434060615411 0.037252115636345756 -0.52190707677934323 0.8521885255553826
0.64857795727603651 0.35151274134573623 0.045376584775144467 0.091775397822352112 -0.059662094544908874 0.9939908001732527
0.2105127856944643 0.10602191857236525 0.12760198621664606 0.037420897041214998 -0.52152967288350371 0.85241215193511666
0.63619660127854671 0.35520518252492689 0.046188931981128577 0.08912019934865692 -0.05941517566660795 0.99424716593438767
0.64392744797795165 0.35668626587787278 0.045707548815549344 0.089956094429670216 -0.058244494477865109 0.99424115783746259
0.63282564723795209 0.36095133212064201 0.046779307751066888 0.089442936478400611 -0.058174156977686499 0.99429157120738798
0.63173985319463033 0.36396733903109396 0.047008421694397819 0.089523471149880074 -0.057640756255712217 0.9943153882604584
0.38218152667455274 0.084781472745763586 0.11226027764521516 -0.0068261856758606481 -0.53855511075982532 0.84256263616635119
0.27304984179351344 0.040605335333568304 0.08028519549755804 -0.001733082660011399 -0.55085439134605452 0.83459956623476705
0.65811869798790601 0.31628550622688723 0.053571731869931929 -0.32994762860934951 0.05529279444457854 -0.94237851697583608
0.44742284707933372 0.20067035835503838 0.1849924641339713 -0.0028524288703736735 -0.47925996570469853 0.87766835930337073
0.66985730323905435 0.37645377359612897 0.052394766654519385 -0.33679570312267804 0.045047420927033871 -0.94049953972658784
0.43769647291721064 0.20106104721713444 0.18441535039983292 0.0079321057633788914 0.47572243788678847 -0.87955968745117541
0.43251802472299139 0.20091331732237097 0.18422089909531619 0.0089642218920824579 0.47441133719314282 -0.88025764743538792
0.71096484513529401 0.20077932183941677 0.026046181294452662 -0.26044072070822355 0.03545841997938546 -0.9648385001903409
0.63040988347449389 0.38071218042972849 0.066753457748305906 -0.33827670976956675 0.044872876869598594 -0.93997621914010254
0.71083753473003852 0.19264439520860338 0.02577837626743262 -0.25918752300727532 0.032762335211594058 -0.96527118329971717
0.41386201913773674 0.20186108029270164 0.18431166987900333 0.010690076597720017 0.47253233331661121 -0.88124849857046217
0.73726042222681099 0.090016803144684104 0.011019717621197116 -0.057616632400581361 0.055210018282912207 -0.9968110039280349
0.71524271793638072 0.44301407150068522 0.035846837095151372 -0.3059589277467093 0.032920131908482614 -0.95147538036841084
0.39251276946905977 0.038861086650073463 0.082677120481950875 -0.0034691213975466826 -0.54115540223717162 0.84091545105691456
0.39703209813436946 0.039310149837435138 0.083099439625587398 -0.0027037006790518381 -0.54059499389314114 0.84127863551876358
0.71758275222074119 0.45296453640672307 0.033699258165524139 -0.29415090553719336 0.032146701131435904 -0.95521821296393594
0.71858169601010446 0.0087113660636159978 0.0085256416821924384 -0.0044209620211841201 -0.041227262459361112 0.99914001417464715
0.22570398882001133 0.20153178667826308 0.1853547041310204 0.044132640470691736 -0.47849600219923227 0.87697998034415636
0.73159112956178762 0.45236747246116371 0.029899558598963222 -0.2977666394468742 0.032476948415561049 -0.95408609478082651
0.21793203980908077 0.20086018672434405 0.18550935752051884 0.046030385531887111 -0.48001797944960761 0.87605019434556486
0.71197517952997791 0.15760706458242182 0.023210000931568945 -0.22978637804374336 0.030035864590522595 -0.97277750143793806
0.71202192447729351 0.15247007560745032 0.022689380833250013 -0.22127891966013141 0.030300255949597604 -0.97473972639029849
0.71245894531900777 0.14796400350078334 0.022110841040625467 -0.21342410660030231 0.030877140503522395 -0.97647158326097161
0.73184311597280294 0.45750201365517296 0.029315731633107068 -0.29300056732386032 0.031980212882526386 -0.95557727763477318
0.30197875106146732 0.46275188458401439 0.037089791812326196 0.037489723547474658 -0.11340005876812836 0.9928418541236661
0.73141833252512845 0.4628022061400171 0.028946822360763819 -0.28815790630566623 0.031671603127251612 -0.95705900057879645
0.41561972964837568 0.19830191379812162 0.18326259773540965 -0.0070605284384535928 -0.47490879658529095 0.88000669535184817
0.35809285392557216 0.19310300192977548 0.17948591121149945 -0.0069830817943076643 -0.4701322019154941 0.88256838221791234
0.25211671623333942 0.52231559440798558 0.03412603675219518 0.029450086139442035 -0.05361641083987017 0.99812723282907667
0.71709131580880903 0.47261437810716866 0.030789326916838538 -0.27082142981370594 0.031447222074319409 -0.96211580663528673
0.63882233047290915 0.43272238144881231 0.042990617154938106 0.080351640716452608 -0.053012113991377403 0.99535588088097393
0.1872995201434117 0.14793711045840122 0.15764359128846586 -0.069351588634285852 0.49413572958882346 -0.8666142382269183
0.31201294566936844 0.50398305365461238 0.029886094806083972 0.033555241676468069 -0.044365752480164271 0.99845166420959142
0.31690939507529542 0.22361418687395915 0.19324412853277362 -0.0096296513365394295 0.47696193896242439 -0.87887119568019823
0.72185079287196197 0.27558200640994862 0.028047067343111163 -0.28751048661760886 0.061039440115011293 -0.95583048017697769
0.62574223659309125 0.43100031747541589 0.041268398259775518 0.071095963625051273 -0.054272744330202675 0.99599188409298478
0.45222563840080188 0.23397228099281525 0.20258970000090534 -0.0025311157480417215 -0.4690587431244414 0.88316334216926673
0.28167698937294339 0.22400179604844864 0.19338223431535287 -0.034973295164663687 0.47749278970024794 -0.87793935121373856
0.7091821235453768 0.22019356105740925 0.19128368229710588 -0.21432031268473722 0.49950674238118464 -0.83938061562467203
0.72228989900427976 0.48316358601476994 0.030675130762195937 0.08642104469991449 -0.10490130076982829 0.99072050555632152
0.21204866255526025 0.21866767057864622 0.19533764704811066 0.044120251138246303 -0.47536568119566908 0.87868132595433912
0.70736517259863552 0.48773402672936067 0.0315028711007267 0.082492932944958269 -0.11242897641548122 0.99022959018416823
0.70561112555758954 0.1835147931508207 0.15060570763351075 -0.98603935397575326 0.1291833184632605 -0.10506218464271021
0.69370672769203523 0.49196920546934908 0.032329910597248095 0.077770921887167249 -0.11621182970105669 0.99017498168068896
0.49375365579471819 0.2332494943706212 0.20246032532399155 0.0044300443865055569 -0.47519998581464729 0.87986666500583632
0.71813800083172308 0.13289038349887883 0.018844709794444151 -0.17319080596449926 0.034479350933816801 -0.98428457220894705
0.79646298088575085 0.088034116339288843 0.0083531652827488843 -0.028081010748641624 0.056486241318551837 -0.99800839744815628
0.58259865390657972 0.65531945363750055 0.029355964380749298 0.0013586736588526785 0.026904163076561047 -0.99963709415719393
0.57988463080954034 0.6526213547634524 0.029291924282092183 0.001524428910558973 0.026894790906667861 -0.99963710732374433
0.1642679189944096 0.56172673086000358 0.033721672195690201 -0.61572620614981122 0.40973139698280908 -0.67305380274304671
0.50445682484909926 0.62915147124978787 0.027564542976689189 0.012201205912126182 0.020111807971258513 -0.99972328459149984
0.74429423993437716 0.082371115663138664 0.010035865074872335 -0.049616363696360799 0.057966331558036314 -0.99708481126695259
0.41805172314255096 0.60028170842332573 0.0243863115664767 0.0092832701870258893 -0.022058009877762633 0.99971359153252848
0.75124138569155841 0.12680814155462178 0.011968125027626625 -0.060767747255874124 0.047965967807569419 -0.99699876972127177
0.18359966092631247 0.15322153368718774 0.16115034053355673 -0.070098251163057318 0.49261711883063614 -0.86741835893580443
0.79721934525764038 0.09270124062392085 0.0086596079194475074 -0.025798606045196116 0.055750631261337065 -0.99811136605094675
0.7162433003704588 0.12708006537076796 0.018613065210868987 -0.16407444053654399 0.035674733881878348 -0.98580266348041334
0.24774000761937726 0.10204685207260561 0.12224926271953915 0.024087193614624684 -0.53045381983199813 0.84737155494470873
0.26113121745410589 0.52743983661321792 0.027184833724923883 -0.087372672900108389 0.034213687523765357 -0.99558798687826522
0.27469580153805989 0.5269697596337074 0.03267094264819357 0.031051753780194383 -0.048033462585278366 0.99836294755927446
0.70729067928679767 0.18266395276176631 0.026510949457043829 -0.26073959476619685 0.030835810119938915 -0.96491658527325896
0.76711174892669953 0.11263490558509744 0.010492260749367311 -0.033085946752182675 0.052713001789565991 -0.99806145079841901
0.70857680732281403 0.21297690748469891 0.17146892351471921 0.85281033538418916 -0.27545072227399642 0.44366815466138732
0.46930917648375403 0.5920399501371868 0.025334254569032197 0.008015380288541693 -0.034680008631717094 0.9993663245677904
0.72999327239611977 0.1037637014913293 0.01283398520729747 -0.079010384212713627 0.049331000200542756 -0.99565245523012369
0.37321589536305477 0.59141622831064944 0.024423726181627539 0.01560544295688452 -0.0186904128928925 0.9997035253594001
0.72077888499865672 0.21676898388566385 0.023805891815891222 -0.25393457345637555 0.04185529405601171 -0.96631535575246519
0.17793592806446182 0.4819457804198205 0.039311331927325451 0.02569973845602223 -0.090205193260390212 0.99559155608720773
0.71329054607855213 0.36247397055244007 0.036495746624834603 -0.32928676331889617 0.049090531567340265 -0.94295299310909508
0.62255682403734525 0.36756569425875057 0.069147594503174648 -0.33867828950605106 0.046386400040363887 -0.93975811680908128
0.71301518204748149 0.36757519305986935 0.036758371060672076 -0.32940185404166561 0.047853652636579154 -0.94297637641843968
0.6228862782465201 0.37099761498779044 0.069147161743662089 -0.33856846925102935 0.046043846902206545 -0.9398145326560241
0.64431798701364307 0.37183608816947489 0.046315612119984806 0.090760998978750923 -0.054766398652204937 0.99436566847566044
0.71320136072493878 0.37217580426380115 0.036818316452572539 -0.3291490776736013 0.046656865640472209 -0.94312460552952626
0.29653212973446208 0.58179273026705547 0.025923885589488927 -0.07124152658686933 0.027010830269549198 -0.99709330553249731
0.71334801524487002 0.3759756433373011 0.036885492944081714 -0.32904748446468696 0.045917982696280786 -0.94319631669794268
0.29690876375996117 0.57288812002215972 0.025690405902467794 -0.071962436950263706 0.02715562815394764 -0.99703760186250945
0.25282934921869349 0.57373167648437184 0.034272584442411679 0.029483029116566358 -0.043770487705137674 0.99860647674655401
0.74458636628311314 0.075928067841396121 0.0096997701830037909 -0.051653950039476218 0.059474248858991254 -0.99689251334734075
0.33947453509749925 0.56429959391059681 0.026100128912553509 0.024706210589948832 -0.023409269013784973 0.99942063681040993
0.720203509405974 0.20847084914930969 0.023482349873683434 -0.24988012033473989 0.038863478731478163 -0.96749654029478782
0.71161380082520687 0.39156071903459405 0.037809891218902582 -0.32726386743011548 0.042204843078155335 -0.94398999586618082
0.71261833851636225 0.39737654503662884 0.037522201357514016 -0.3256693255873393 0.040893132100030795 -0.94459898481765103
0.34755074106543066 0.025302295103159018 0.071839227441170495 -0.0070965065088323676 -0.548600073665514 0.83605478215818052
0.32803827450199663 0.40359801372529969 0.03234419206671299 0.040456895219580055 -0.16692422704267243 0.98513935159214827
0.38853052799603877 0.098329663227303174 0.12117437180754594 -0.006300162344903667 -0.5355210536972751 0.84449837714550291
0.33199207179943208 0.40364282726283801 0.032128282722439852 0.040541613123049783 -0.16638658432816128 0.98522681762170317
0.71920332863976599 0.20434545959850911 0.014108807862540505 -0.053092325786953373 -0.03646657959517681 0.99792354091641744
0.32312811629376764 0.025960105459702017 0.071389684133621858 -0.0065735828104937803 -0.55086130921376009 0.83457091131930539
0.73683579431403456 0.55110483285580225 0.033396073901929169 0.072217912841864532 -0.21437103467086377 0.97407886362394092
0.39819305854711173 0.55129543703211259 0.023248231592468666 0.016556454472438392 -0.019294962897211658 0.99967674186313715
0.30768935493058031 0.02599483802444515 0.070965827619730831 -0.0055165300384909617 -0.55174617307853679 0.83399384193741133
0.30239768624887231 0.026393503686511683 0.071142090184577372 -0.0051492959642297758 -0.55177256862081081 0.83397872710799137
0.29731948366106503 0.025793128754377719 0.070663609853138229 -0.0047737897707439822 -0.55182233963485861 0.83394802980229865
0.64808371701205714 0.40210587096787159 0.047107906911650441 0.092230231654458261 -0.049347563800574458 0.99451415390426356
0.38786660049277871 0.5528074403962846 0.023471076877990955 0.017769967556779953 -0.018984495567187242 0.99966185141831354
0.49811371985936298 0.41087711926536269 0.03815120988092191 0.026315283917540198 -0.74032654784294571 0.67173217013277386
0.34477734924490561 0.061266434759374773 0.095495617566132993 -0.0083774249649545291 -0.54737128752336328 0.83684795055372652
0.38779179787397483 0.54781948670713054 0.023439679168163551 0.018636276092639861 -0.019279762401943061 0.99964042534059394
0.41755631432998358 0.47272928411370008 0.023562765714063998 0.0227474489251277 -0.032106768014228272 0.99922555462471996
0.65245028276361694 0.40031067029125444 0.046746812610055435 0.092506497037526683 -0.049291239159036243 0.99449128791961416
0.67286432654554662 0.23444734704991274 0.20379481341753725 0.022091265702107243 -0.50294699050947345 0.86403489554365942
0.71142714663459916 0.41158658376295043 0.038005497528423159 -0.321764875886489 0.038047404772248335 -0.94605483965563486
0.22158692944256633 0.47126743977566277 0.03803113002876151 0.028147957126463983 -0.0948374726994268 0.99509474236456119
0.34197009637163983 0.54594550783024476 0.022829938139324258 -0.052484004147859843 0.019317132008907216 -0.99843491411286178
0.29476793004487462 0.54536032958663871 0.030499682150596199 0.031044677477424794 -0.037428747045727281 0.99881695865404174
0.66115887489511904 0.43316977155096548 0.042888962754469941 0.088173898748412666 -0.047925251815461201 0.99495152335072545
0.27743355201108105 0.22074215986948845 0.19175091323594681 -0.037522423762098883 0.47760451236786239 -0.8777733178223599
0.28584971873848219 0.54583417437184856 0.031418486452184216 0.031008114398155706 -0.040196136808308892 0.99871055237599171
0.26732950148874218 0.22015208445841872 0.19278909665068955 0.022995580558053615 -0.46117483561611083 0.88701125938132896
0.26265417812254754 0.22072095734134764 0.19242186040463963 -0.045385451198776391 0.47791846007136224 -0.87723093102244243
0.25797460224357965 0.2204420351440689 0.19252890288551225 -0.047034961548586947 0.47790564309514949 -0.87715101817756247
0.2626115412046095 0.54644242828344414 0.033472659404218841 0.030055470680723961 -0.046320896311731377 0.99847435783150584
0.24762971965065686 0.21989969664820969 0.19285765549843117 -0.049936764263447959 0.47777191516977424 -0.87706346215647524
0.66777986738461881 0.46825258717624091 0.038489257511325342 0.079750548664045018 -0.068161780291834367 0.99448168494710421
0.42342654091860443 0.46837280320070007 0.023755861260043278 0.02234108401658658 -0.035593896266253471 0.99911658504578482
0.23288788914999053 0.21912160447710355 0.19416280868379876 0.038967266458610719 -0.4707993234665398 0.88137934464576151
0.61768109470636401 0.53302608108477567 0.030758212098449936 0.030283255925137954 -0.14229525461102782 0.98936089720877651
0.22575543147907212 0.21899227857143694 0.19459675424120612 0.041324040986802507 -0.47285237629436311 0.88017211604850054
0.66173043454244473 0.23377079371649312 0.2034951922374334 0.020888844750481212 -0.50197892770097785 0.8646275569915447
0.70778534851584118 0.13727397434218586 0.12141290951529095 0.93578506133823558 -0.17212761967689821 0.30769855625361642
0.64249240401855301 0.23366528562698285 0.20339255240725501 0.018240413053723398 -0.5003572035368149 0.86562691513171419
0.34357407509424825 0.46747391670158756 0.033382382137882513 0.03783890511980989 -0.094705249975960679 0.99478597340650354
0.16012991040104188 0.54748644587702311 0.02883585916726529 -0.61579539335977551 0.40978145641904257 -0.67296002220931939
0.63272343490438898 0.47876780738092506 0.032458526451105932 0.048219639621049082 -0.086017874236163375 0.99512601798300293
0.18416515392325428 0.53815199824148163 0.034310484113454845 -0.10089049307272903 0.043655757357274276 -0.99393927543744054
0.50219061863379355 0.45952818002960766 0.020758448993155973 0.012878098230465781 -0.028478161848157959 0.99951145510380046
0.57248383286502191 0.40515389245812167 0.02324608456606107 0.013221552124603997 -0.84895115866360926 0.52830589696039898
0.75521485803074417 0.1695195353612875 0.012216348370314704 -0.06169434481740476 -0.026966620448654388 0.99773072980595778
0.75078501688919408 0.36517913453648421 0.023867539894359323 -0.32165488186391383 0.050437042472658927 -0.94551268723361015
0.45274977973017777 0.038883690699541874 0.08298706200878106 0.0098683441232868315 -0.54116179503831752 0.84086058735986102
0.71577119385510624 0.56576307679512328 0.03786999514278331 0.067878890088890698 -0.22435691837720401 0.97214012850853182
0.52399632264169427 0.64235604292182946 0.030963481498069108 0.031060776653921859 -0.072895633054959344 0.99685578437162714
0.52529004622071984 0.64279630327305903 0.03099960033740734 0.031258296304457686 -0.073275817046151409 0.99682173609345104
0.70337066895824829 0.12346864170893071 0.0079830176460213113 -0.044236702069728011 -0.019220336804816055 0.99883616917045182
0.68493856276873299 0.16736444216586649 0.033040320797246878 -0.27267056709330456 0.028024671410974419 -0.96169921474093067
0.68529638667124493 0.17268823700281721 0.03325432950506893 -0.27514794419143485 0.02848263626064498 -0.96097988961209324
0.24797655773999974 0.53700927886359329 0.034601260223272021 0.02909872409448647 -0.051869454057525161 0.99822984527204317
0.62764382935732477 0.42366314011207029 0.052063648770526584 0.010559816112796548 -0.86445999780169813 0.50259069080550212
0.75613116349689335 0.32274805043228771 0.020504746271843836 -0.30643163498234138 0.060352801690700029 -0.94997746942237116
0.72079511833912369 0.21596323708241727 0.023764453121650271 -0.25387399622898787 0.041534102144697112 -0.96634513109848996
0.70849307357444602 0.14848350508347236 0.1256383125565837 0.93489026594601599 -0.17354178954187416 0.30961821316258409
0.39281596445891398 0.54364431005343294 0.02136801842893404 -0.021166057652852812 0.017127272829683494 -0.99962925853981177
0.74377995963832888 0.16839075363214109 0.015025778253449411 -0.13935987026811159 0.039557216306325103 -0.98945139001213689
0.70617508618351921 0.22275259511738754 0.028868104760279484 -0.27409974010492855 0.042068434544686638 -0.9607807134249573
0.38813301545676326 0.54373531897926952 0.023415575746565193 0.019364277976059472 -0.019630772413270495 0.99961975646388879
0.70871229999680541 0.15679501402076618 0.13013047511283513 0.93127369096686619 -0.17922018636466064 0.31718990733055513
0.2975542345751509 0.54213528970155522 0.030373422422131813 0.031239622877467916 -0.037710395780605331 0.99880028634985063
0.78575765638003114 0.16735694472193841 0.011924756704484925 -0.051666083067167391 0.049275662932330162 -0.99744800611514384
0.75985621758164912 0.30915617658646743 0.018654982669658135 -0.29878128042467406 0.061900005871426696 -0.95231199495801255
0.28253139281501782 0.54280263052943301 0.026085109069934199 -0.081010011701458107 0.030604948109196364 -0.99624330118468707
