# .PCD v0.7 - Point Cloud Data file format
VERSION 0.7
FIELDS x y z rgb
SIZE 4 4 4 4
TYPE F F F U
COUNT 1 1 1 1
WIDTH 1098
HEIGHT 1
VIEWPOINT 0 0 0 1 0 0 0
POINTS 1098
DATA ascii
-0.20306073 0.0045390166 0.49075001 2634794
-0.20260486 0.0045528905 0.49225003 2635048
-0.20204006 0.004564452 0.49350002 2635561
-0.20146981 0.0045760134 0.49475002 2635056
-0.20089409 0.0045875749 0.49600002 2437679
-0.20021218 0.0045968238 0.49700001 2240814
-0.19942573 0.0046037608 0.49775001 2502957
-0.198636 0.0046106977 0.49850002 2106397
-0.197843 0.0046176347 0.49925002 2040858
-0.19704671 0.0046245712 0.5 2765351
-0.19624715 0.0046315081 0.50075001 2569255
-0.19554175 0.0046407576 0.50175005 2372137
-0.19473507 0.0046476941 0.5025 2569003
-0.19392511 0.004654631 0.50325 2634796
-0.19320768 0.0046638804 0.50425005 2502440
-0.19267634 0.0046777539 0.50575 527367
-0.19204375 0.0046893153 0.50700003 395528
-0.19149986 0.0047031892 0.50850004 2371624
-0.19085577 0.0047147502 0.50975001 2437930
-0.19011319 0.0047239996 0.51075 2503210
-0.1892737 0.0047309361 0.5115 2567980
-0.18852293 0.004740186 0.51250005 2502957
-0.18758491 0.0047448101 0.51300001 2569003
-0.18673559 0.004751747 0.51375002 2699819
-0.185883 0.004758684 0.51450002 2568750
-0.18502712 0.0047656209 0.51525003 2502959
-0.18416797 0.0047725579 0.51600003 2568750
-0.18357158 0.0047864318 0.51750004 2503210
-0.18367369 0.0048188036 0.52100003 2437930
-0.18297221 0.0048303646 0.52225 2437417
-0.18200415 0.0048349896 0.52275002 2765097
-0.18094738 0.0048373016 0.523 2765097
-0.17988954 0.004839614 0.52325004 2568233
-0.17891599 0.0048442385 0.52375001 2699819
-0.17802513 0.0048511755 0.52450001 2633773
-0.17721529 0.0048604244 0.5255 2634026
-0.17648484 0.0048719859 0.52675003 2634024
-0.17574891 0.0048835473 0.528 2700071
-0.17509019 0.0048974208 0.52950001 2371622
-0.17426068 0.0049066707 0.53050005 2569003
-0.17350833 0.0049182316 0.53175002 2569003
-0.17275055 0.0049297935 0.53300005 2503210
-0.17206776 0.0049436665 0.5345 2568233
-0.17129849 0.0049552284 0.53575003 2634024
-0.17052375 0.0049667894 0.537 2568231
-0.16966471 0.0049760388 0.53800005 2569003
-0.16880128 0.0049852883 0.53900003 2503210
-0.1680112 0.0049968492 0.54025 2634026
-0.16729289 0.0050107231 0.54175001 2699306
-0.16656803 0.005024597 0.54325002 2699306
-0.16576049 0.0050361585 0.54450005 2568233
-0.16494747 0.0050477195 0.54575002 2569003
-0.16412899 0.0050592814 0.54700005 2502440
-0.16337949 0.0050731548 0.5485 2503210
-0.16284521 0.0050939652 0.55075002 2568750
-0.16244781 0.0051194001 0.5535 2568750
-0.16167428 0.005133274 0.55500001 2437677
-0.16067734 0.005140211 0.55575001 2437417
-0.15967713 0.0051471479 0.55650002 2699819
-0.15867363 0.0051540849 0.55725002 2699304
-0.15766685 0.0051610218 0.55800003 1843995
-0.15658671 0.0051656463 0.55850005 396549
-0.15564346 0.0051748953 0.55950004 1843227
-0.15462683 0.0051818322 0.56025004 2830122
-0.15367536 0.0051910817 0.56125003 2502440
-0.15265164 0.0051980182 0.56200004 2503721
-0.15162463 0.0052049551 0.56275004 2371622
-0.15059435 0.0052118921 0.56350005 988686
-0.14956078 0.005218829 0.56425005 922642
-0.14852391 0.0052257655 0.565 2568233
-0.14748378 0.0052327025 0.56575 2371624
-0.14644037 0.0052396394 0.56650001 2569003
-0.14539367 0.0052465759 0.56725001 2699817
-0.1443437 0.0052535129 0.56800002 2634024
-0.14335343 0.0052627618 0.56900001 2371624
-0.14229634 0.0052696988 0.56975001 2503210
-0.14129788 0.0052789478 0.57075 2502440
-0.1402337 0.0052858847 0.5715 2042657
-0.13916622 0.0052928217 0.57225001 1516315
-0.13809547 0.0052997586 0.57300001 2370854
-0.13696174 0.0053043836 0.57350004 2372137
-0.13582581 0.0053090076 0.574 2240812
-0.13468771 0.0053136325 0.57450002 2306091
-0.13354741 0.0053182575 0.57500005 923155
-0.13240492 0.0053228815 0.57550001 725265
-0.13126026 0.0053275065 0.57600003 2369571
-0.13011339 0.0053321305 0.5765 2502438
-0.12896435 0.0053367554 0.57700002 2371622
-0.12786846 0.0053436924 0.57775003 2371624
-0.1267145 0.0053483169 0.57825005 1911586
-0.12561259 0.0053552538 0.57900006 1187350
-0.12450738 0.0053621903 0.57975 2305059
-0.1233989 0.0053691273 0.58050001 2502438
-0.12228715 0.0053760642 0.58125001 2502438
-0.12122416 0.0053853132 0.58225 2371876
-0.12005379 0.0053899381 0.58275002 2502692
-0.1189322 0.0053968746 0.58350003 2174497
-0.11775692 0.0054014996 0.58400005 2240036
-0.11652958 0.0054038116 0.58425003 2240036
-0.11530113 0.0054061241 0.58450001 1187350
-0.11407162 0.0054084365 0.58475006 989718
-0.112841 0.0054107485 0.58500004 2042406
-0.11160929 0.0054130605 0.58525002 2304808
-0.11037647 0.005415373 0.5855 2304548
-0.10914258 0.0054176855 0.58575004 2436134
-0.10795362 0.00542231 0.58625001 857102
-0.10676248 0.0054269345 0.58675003 725516
-0.10556915 0.0054315594 0.58725005 2567718
-0.10437363 0.0054361834 0.58775002 2633511
-0.10321978 0.0054431204 0.58850002 2699558
-0.10206264 0.0054500573 0.58925003 2830372
-0.10085947 0.0054546823 0.58975005 2435362
-0.099696323 0.0054616192 0.59050006 2436134
-0.098488227 0.0054662433 0.59100002 2305061
-0.097277947 0.0054708682 0.59150004 2173473
-0.096065469 0.0054754922 0.59200001 1712409
-0.094850823 0.0054801172 0.59250003 2566432
-0.093633987 0.0054847421 0.59300005 2567718
-0.092414953 0.0054893661 0.59350002 2371622
-0.091193751 0.0054939911 0.59400004 2371622
-0.089970335 0.0054986151 0.59450001 2240036
-0.088744752 0.00550324 0.59500003 2240038
-0.087480232 0.005505552 0.59525001 2503210
-0.086250819 0.005510177 0.59575003 2634026
-0.085019216 0.0055148015 0.59625006 2502440
-0.083750322 0.005517114 0.59650004 2371622
-0.08251489 0.005521738 0.597 2175272
-0.081277281 0.0055263629 0.59750003 2503210
-0.080004007 0.0055286749 0.59775001 2634024
-0.078762569 0.0055332999 0.59825003 2437415
-0.077551305 0.0055402368 0.59900004 2306344
-0.076304942 0.0055448608 0.5995 2437417
-0.075056382 0.0055494858 0.60000002 2634024
-0.073805653 0.0055541103 0.60050005 2240036
-0.072582908 0.0055610472 0.60125005 2437415
-0.071297608 0.0055633592 0.60150003 2240290
-0.070040315 0.0055679842 0.60200006 2437415
-0.068723746 0.0055679842 0.60200006 2503721
-0.067435168 0.0055702962 0.60225004 2437417
-0.066118054 0.0055702962 0.60225004 1252373
-0.064827845 0.0055726087 0.60250002 462604
-0.050520975 0.0057437178 0.62100005 988948
-0.047881719 0.0057529667 0.62200004 1974562
-0.046558809 0.0057575912 0.6225 2566697
-0.045215558 0.0057599037 0.62275004 3159087
-0.04387122 0.0057622157 0.62300003 3488050
-0.042508725 0.0057622157 0.62300003 3883062
-0.041146234 0.0057622157 0.62300003 3620660
-0.039783739 0.0057622157 0.62300003 3226161
-0.038421243 0.0057622157 0.62300003 3357236
-0.03707362 0.0057645282 0.62325001 3225397
-0.035710581 0.0057645282 0.62325001 3093811
-0.034333766 0.0057622157 0.62300003 3029303
-0.032971274 0.0057622157 0.62300003 2766644
-0.03158341 0.0057575912 0.6225 2831156
-0.030197738 0.0057529667 0.62200004 2700340
-0.028791068 0.0057437178 0.62100005 2765363
-0.02055094 0.0057182824 0.61825001 2633262
-0.019198835 0.0057182824 0.61825001 2961457
-0.01784673 0.0057182824 0.61825001 3159604
-0.016487956 0.0057159704 0.61800003 3489082
-0.015136397 0.0057159704 0.61800003 3620408
-0.013790415 0.0057182824 0.61825001 3686714
-0.012438309 0.0057182824 0.61825001 3752507
-0.011090688 0.0057205949 0.61850005 3949373
-0.009745908 0.0057252194 0.61900002 3620408
-0.0083955536 0.0057275319 0.61925006 3817785
-0.0070469459 0.0057321563 0.61975002 3751992
-0.0056961523 0.0057367808 0.62025005 3948603
-0.0043431711 0.0057414053 0.62075001 4079419
-0.0029880037 0.0057460298 0.62125003 3882557
-0.0016299933 0.0057483423 0.62150002 3949120
-0.00027088961 0.0057506547 0.62175006 3817534
0.0010893077 0.0057529667 0.62200004 3949373
0.002449614 0.0057529667 0.62200004 4015164
0.00380992 0.0057529667 0.62200004 4015164
0.0051723043 0.0057552792 0.62225002 4015164
0.0065331575 0.0057552792 0.62225002 4015166
0.0078940103 0.0057552792 0.62225002 4015166
0.0092548635 0.0057552792 0.62225002 4080706
0.010615717 0.0057552792 0.62225002 3949633
0.011981381 0.0057575912 0.6225 3950405
0.013348141 0.0057599037 0.62275004 4015426
0.014721896 0.0057645282 0.62325001 4146499
0.016097842 0.0057691527 0.62375003 4277315
0.017475972 0.0057737776 0.62425005 4409671
0.018856289 0.0057784021 0.62475002 4212292
0.020238794 0.0057830266 0.62525004 4278338
0.021623485 0.0057876511 0.62575001 4212545
0.023010366 0.0057922755 0.62625003 4147012
0.024389699 0.005794588 0.62650001 4409924
0.025770128 0.0057969005 0.62675005 4672326
0.027151646 0.0057992125 0.62700003 4738119
0.028522888 0.0057992125 0.62700003 4673096
0.029906048 0.0058015245 0.62725002 4542023
0.031277835 0.0058015245 0.62725002 4607301
0.032649625 0.0058015245 0.62725002 4673607
0.034034975 0.0058038374 0.62750006 4738889
0.03543552 0.0058084615 0.62800002 4673096
0.036823601 0.0058107739 0.62825 4607816
0.038227975 0.0058153984 0.62875003 4673609
0.03961879 0.0058177104 0.62900001 4673356
0.0410107 0.0058200234 0.62925005 4804682
0.042403702 0.0058223354 0.62950003 4804682
0.043780409 0.0058223354 0.62950003 4869703
0.04515712 0.0058223354 0.62950003 4936268
0.046533827 0.0058223354 0.62950003 4936528
0.047891513 0.0058200234 0.62925005 5134160
0.049248096 0.0058177104 0.62900001 5396049
0.050583474 0.0058130864 0.62850004 5396819
0.051916655 0.0058084615 0.62800002 5594196
0.053268872 0.0058061494 0.62775004 5856598
-0.29640365 0.0063461191 0.55500001 1052684
-0.23880444 0.0054713837 0.47850001 3751992
-0.22707501 0.0052255434 0.45700002 4277820
-0.22582822 0.005219826 0.45650002 3556150
-0.22482984 0.005219826 0.45650002 3819068
-0.22383149 0.005219826 0.45650002 3752246
-0.22295517 0.0052226847 0.45675004 3817269
-0.22195627 0.0052226847 0.45675004 3554613
-0.22119923 0.0052284021 0.45725003 3292724
-0.22031961 0.0052312603 0.45750001 3489587
-0.21955878 0.0052369782 0.45800003 3094062
-0.21879573 0.0052426951 0.45850003 3422511
-0.21803051 0.0052484125 0.45900002 3094316
-0.21726307 0.0052541294 0.45950001 2962989
-0.21672881 0.0052655642 0.46050003 2831405
-0.21619014 0.0052769985 0.46150002 3027499
-0.21588024 0.0052941502 0.46300003 2961706
-0.21579583 0.0053170193 0.46500003 2831405
-0.21570265 0.0053398879 0.46700001 2765359
-0.21537089 0.0053570396 0.46850002 2634543
-0.21491818 0.0053713326 0.46975002 2830892
-0.21537066 0.0054084947 0.47300002 2830890
-0.21614878 0.0054542325 0.47700003 2896683
-0.21578202 0.0054713837 0.47850001 2830892
-0.21495993 0.0054771015 0.47900003 2634026
-0.21413566 0.0054828185 0.47950003 2569003
-0.2133092 0.0054885359 0.48000002 2568750
-0.21237001 0.0054913945 0.48025003 2765612
-0.21153972 0.0054971115 0.48075002 2699819
-0.21070722 0.0055028289 0.48125002 2830639
-0.20976365 0.0055056876 0.48150003 2764846
-0.20881897 0.0055085458 0.48175001 2633260
-0.20798104 0.0055142632 0.48225003 1712160
-0.20714091 0.0055199806 0.48275003 1975330
-0.20629859 0.0055256975 0.48325002 2633513
-0.20566642 0.0055371318 0.48425001 2765612
-0.20492429 0.0055457079 0.48500001 2633513
-0.20428392 0.0055571427 0.48600003 2765099
-0.20363919 0.005568577 0.48700002 2371622
-0.20309408 0.00558287 0.48825002 1844508
-0.20254351 0.005597163 0.48950002 1316113
-0.20209037 0.0056143147 0.49100003 2370339
-0.20152831 0.0056286077 0.49225003 2372135
-0.20096079 0.0056429007 0.49350002 2372651
-0.20028654 0.005654335 0.49450001 2503723
-0.19970863 0.005668628 0.49575001 2372137
-0.19902506 0.0056800628 0.49675003 2765097
-0.19823754 0.0056886389 0.49750003 2171674
-0.19744673 0.0056972145 0.49825004 855560
-0.19665262 0.0057057901 0.49900001 1053709
-0.19575728 0.0057115075 0.49950004 2765610
-0.19495717 0.0057200836 0.50025004 2635048
-0.19415379 0.0057286592 0.50100005 2569001
-0.19334713 0.0057372353 0.50175005 2437928
-0.19272873 0.0057515278 0.50300002 2437669
-0.19210489 0.0057658213 0.50425005 2699558
-0.19157027 0.0057829726 0.50575 2304548
-0.19112326 0.0058029834 0.50750005 2437417
-0.19048136 0.005817276 0.50875002 2568231
-0.18974096 0.0058287103 0.50975001 2765099
-0.18899618 0.0058401446 0.51075 2962991
-0.18815507 0.0058487207 0.5115 2832175
-0.18731065 0.0058572963 0.51225001 2568231
-0.18637212 0.0058630141 0.51275003 2371624
-0.18552171 0.0058715898 0.51350003 2437417
-0.18466802 0.0058801658 0.51425004 2437417
-0.18372181 0.0058858828 0.51475 2503210
-0.18295081 0.0058973175 0.51575005 2765097
-0.18270423 0.0059259036 0.51825005 2633511
-0.1824467 0.0059544896 0.52075005 2699304
-0.18156895 0.0059630657 0.52150005 3092776
-0.18051492 0.0059659239 0.52175003 3026983
-0.17954575 0.0059716408 0.52225 2699304
-0.1785744 0.0059773582 0.52275002 2699819
-0.17768572 0.0059859343 0.52350003 2699819
-0.17687806 0.0059973686 0.52450001 2699817
-0.17623356 0.0060145203 0.52600002 2765610
-0.1755825 0.006031672 0.52750003 2502438
-0.17484219 0.006045965 0.52875 2699566
-0.17409642 0.0060602585 0.53000003 2437164
-0.17334518 0.006074551 0.53125 2503470
-0.17250746 0.0060859858 0.53225005 2371624
-0.17174584 0.0061002788 0.53350002 2699306
-0.17097877 0.0061145718 0.53475004 2765099
-0.17012681 0.0061260061 0.53575003 2569003
-0.1692705 0.0061374404 0.53675002 2371624
-0.16840981 0.0061488748 0.53775001 2568750
-0.16762248 0.0061631682 0.53900003 2569003
-0.16690691 0.0061803199 0.54050004 2569001
-0.1662614 0.0062003303 0.54225004 2503721
-0.16553216 0.006217482 0.54375005 2372137
-0.16472077 0.006231775 0.54500002 2503210
-0.16382892 0.0062432094 0.546 2569001
-0.16300717 0.0062575024 0.54725003 2569003
-0.16217993 0.0062717954 0.5485 2371371
-0.16171409 0.0063003814 0.551 2502957
-0.1614558 0.0063375435 0.55425 2437164
-0.16060507 0.0063518365 0.55550003 2634026
-0.1596054 0.0063604126 0.55625004 2699304
-0.15853125 0.0063661295 0.55675 2699304
-0.15752557 0.0063747051 0.5575 2699304
-0.1565166 0.0063832812 0.55825001 2765610
-0.15550436 0.0063918573 0.55900002 2831405
-0.15455782 0.0064032916 0.56 2699053
-0.15353845 0.0064118672 0.56075001 2633773
-0.15258375 0.0064233025 0.56175005 1581085
-0.15162463 0.0064347368 0.56275004 2437928
-0.15059435 0.0064433124 0.56350005 2503462
-0.14956078 0.0064518885 0.56425005 2569001
-0.14852391 0.0064604636 0.565 2503210
-0.14748378 0.0064690397 0.56575 2372137
-0.14644037 0.0064776153 0.56650001 1647901
-0.14539367 0.0064861914 0.56725001 528397
-0.1443437 0.006494767 0.56800002 2239266
-0.14329045 0.0065033431 0.56875002 2372137
-0.14223391 0.0065119192 0.56950003 2371624
-0.14123599 0.006523353 0.57050002 2371624
-0.14017235 0.0065319291 0.57125002 2042659
-0.13904463 0.0065376465 0.57175004 264965
-0.13797498 0.0065462226 0.57250005 922893
-0.13684233 0.0065519395 0.57300001 2371624
-0.13570751 0.0065576569 0.57350004 2175019
-0.13457048 0.0065633738 0.574 2306858
-0.13343129 0.0065690912 0.57450002 2437417
-0.1322899 0.0065748086 0.57500005 1911073
-0.13114631 0.0065805255 0.57550001 2502440
-0.13000055 0.0065862429 0.57600003 2502438
-0.12885259 0.0065919599 0.5765 2174756
-0.12770246 0.0065976772 0.57700002 1583135
-0.12660493 0.0066062533 0.57775003 2174758
-0.12544988 0.0066119707 0.57825005 2371622
-0.12434632 0.0066205463 0.57900006 2240038
-0.12329262 0.0066319807 0.58000004 2567720
-0.12218196 0.0066405567 0.58075005 2238755
-0.12106802 0.0066491328 0.58150005 1536
-0.11995078 0.006657708 0.58225 1712411
-0.11877932 0.0066634254 0.58275002 2567718
-0.11760569 0.0066691427 0.58325005 2567720
-0.11637998 0.0066720014 0.58350003 2371624
-0.11515319 0.0066748597 0.58375001 2174245
-0.11392531 0.0066777188 0.58400005 660753
-0.11269633 0.0066805771 0.58425003 2238502
-0.11146626 0.0066834358 0.58450001 2502187
-0.11028222 0.0066891531 0.58500004 2108712
-0.10904941 0.0066920114 0.58525002 2306091
-0.10786156 0.0066977288 0.58575004 2567720
-0.10662602 0.0067005875 0.58600003 2633513
-0.10547926 0.0067091631 0.58675003 2370854
-0.10428485 0.0067148809 0.58725005 2634026
-0.10313208 0.0067234561 0.588 1645846
-0.10197604 0.0067320317 0.58875 1447697
-0.10077395 0.0067377496 0.58925003 2435364
-0.099611901 0.0067463252 0.59000003 2436134
-0.098404907 0.0067520426 0.59050006 2502438
-0.097195715 0.0067577595 0.59100002 2239266
-0.09598434 0.0067634769 0.59150004 265478
-0.094770774 0.0067691938 0.59200001 1382423
-0.093555033 0.0067749112 0.59250003 2633513
-0.092337109 0.0067806286 0.59300005 2502438
-0.091078602 0.0067834873 0.59325004 2699306
-0.089856826 0.0067892042 0.59375 2699304
-0.088632889 0.0067949216 0.59425002 2633511
-0.087370008 0.0067977798 0.59450001 2568231
-0.086142242 0.0068034972 0.59500003 2568233
-0.08491227 0.0068092151 0.59550005 2568231
-0.083680123 0.0068149315 0.59600002 2634024
-0.082411237 0.0068177907 0.59625006 2634024
-0.08117526 0.0068235076 0.59675002 2371624
-0.079937093 0.006829225 0.59725004 2503210
-0.078696735 0.0068349419 0.59775001 2503210
-0.077454202 0.0068406593 0.59825003 2503210
-0.076209486 0.0068463767 0.59875005 2634026
-0.074962564 0.0068520936 0.59925002 2569001
-0.073744193 0.0068606697 0.60000002 2438182
-0.072492369 0.0068663871 0.60050005 2438182
-0.071238339 0.006872104 0.60100001 2306596
-0.069953054 0.0068749632 0.60125005 2437928
-0.068695202 0.0068806796 0.60175002 2437415
-0.067407183 0.0068835388 0.60200006 2568233
-0.066090614 0.0068835388 0.60200006 2503210
-0.064800948 0.0068863975 0.60225004 2502438
-0.063483827 0.0068863975 0.60225004 1647129
-0.062166717 0.0068863975 0.60225004 791822
-0.060874861 0.0068892557 0.60250002 461323
-0.046540111 0.0071150861 0.62225002 1514781
-0.045197405 0.0071179443 0.6225 1777185
-0.043853614 0.0071208035 0.62275004 2566697
-0.042508725 0.0071236622 0.62300003 2960936
-0.041146234 0.0071236622 0.62300003 3618866
-0.039799701 0.0071265204 0.62325001 3751224
-0.038452081 0.0071293795 0.62350005 3751222
-0.037088495 0.0071293795 0.62350005 3554615
-0.035739232 0.0071322378 0.62375003 3292726
-0.034375098 0.0071322378 0.62375003 3358519
-0.032997735 0.0071293795 0.62350005 3029301
-0.031621464 0.0071265204 0.62325001 2963508
-0.030234149 0.0071208035 0.62275004 2962740
-0.028849021 0.0071150861 0.62225002 3028533
-0.027455036 0.00710651 0.62150002 2634547
-0.02607483 0.0071007935 0.62100005 2569013
-0.017861163 0.0070750657 0.61875004 2370603
-0.015154767 0.0070750657 0.61875004 3160117
-0.013807144 0.007077924 0.61900002 3292473
-0.012453399 0.007077924 0.61900002 3424059
-0.011104137 0.0070807831 0.61925006 3620921
-0.0097537804 0.0070836414 0.61950004 3751994
-0.0084023317 0.0070865001 0.61975002 3948603
-0.0070526316 0.0070922174 0.62025005 3817787
-0.0057007438 0.0070979344 0.62075001 3686199
-0.0043449206 0.0071007935 0.62100005 3751992
-0.0029880037 0.0071036518 0.62125003 3751994
-0.0016299933 0.00710651 0.62150002 3620155
-0.00027088961 0.0071093692 0.62175006 3620921
0.0010893077 0.0071122278 0.62200004 3686712
0.002449614 0.0071122278 0.62200004 3752246
0.00380992 0.0071122278 0.62200004 3884091
0.0051723043 0.0071150861 0.62225002 4080959
0.0065331575 0.0071150861 0.62225002 4080959
0.0078940103 0.0071150861 0.62225002 4015166
0.0092548635 0.0071150861 0.62225002 3817787
0.010615717 0.0071150861 0.62225002 4015679
0.011981381 0.0071179443 0.6225 4015426
0.013348141 0.0071208035 0.62275004 4081219
0.014715992 0.0071236622 0.62300003 4080706
0.01609139 0.0071293795 0.62350005 4080706
0.017468972 0.0071350965 0.62400001 4146499
0.018848743 0.0071408139 0.62450004 4212292
0.020230701 0.0071465308 0.625 4408901
0.021623485 0.0071551064 0.62575001 4278085
0.023010366 0.0071608238 0.62625003 4344644
0.024399433 0.0071665416 0.62675005 4410435
0.025780406 0.0071693999 0.62700003 4541508
0.027162472 0.0071722581 0.62725002 4541510
0.02853426 0.0071722581 0.62725002 4279621
0.029906048 0.0071722581 0.62725002 4411207
0.031290304 0.0071751173 0.62750006 4411205
0.032662638 0.0071751173 0.62750006 4542021
0.034048531 0.007177976 0.62775004 4673094
0.035449624 0.0071836924 0.62825 4804682
0.036838256 0.0071865516 0.62850004 4738889
0.038243175 0.0071922685 0.62900001 4607816
0.039634541 0.0071951277 0.62925005 4673609
0.041026991 0.0071979859 0.62950003 4673607
0.042403702 0.0071979859 0.62950003 4607816
0.043780409 0.0071979859 0.62950003 4673609
0.04515712 0.0071979859 0.62950003 4870988
0.046515349 0.0071951277 0.62925005 4804682
0.04787248 0.0071922685 0.62900001 5067084
0.049228523 0.0071894098 0.62875003 5132624
0.05056335 0.0071836924 0.62825 5199187
0.051916655 0.0071808342 0.62800002 5528405
0.05324766 0.0071751173 0.62750006 5725784
-0.29586959 0.0075453455 0.55400002 1052941
-0.22807446 0.006224229 0.45700002 4540992
-0.22670235 0.0062140138 0.45625001 4213310
-0.22558087 0.0062106093 0.45600003 4278590
-0.2245836 0.0062106093 0.45600003 4474172
-0.22358632 0.0062106093 0.45600003 4474427
-0.22258906 0.0062106093 0.45600003 4342839
-0.22171327 0.0062140138 0.45625001 4146232
-0.22083642 0.0062174192 0.45650002 3817267
-0.22007884 0.006224229 0.45700002 3751476
-0.21919924 0.0062276339 0.45725003 3751476
-0.21843784 0.0062344437 0.45775002 3685681
-0.21767424 0.0062412536 0.45825002 3159855
-0.21690845 0.0062480634 0.45875001 3029552
-0.21614051 0.0062548737 0.45925003 2963759
-0.21548747 0.006265088 0.46000001 2896683
-0.21483114 0.0062753027 0.46075001 2896937
-0.21440358 0.0062923278 0.46200001 2831405
-0.21431699 0.0063195671 0.46400002 2699306
-0.21433656 0.0063502118 0.46625003 2830892
-0.21388878 0.0063672364 0.46750003 2568233
-0.21343552 0.006384261 0.46875003 2437417
-0.21263693 0.0063910708 0.46925002 2569003
-0.21307629 0.0064353351 0.47250003 2765612
-0.21383803 0.0064898143 0.47650003 2699306
-0.21346578 0.0065102438 0.47800002 2765612
-0.2127537 0.0065204585 0.47875002 2633773
-0.21192779 0.0065272683 0.47925001 2699819
-0.21098968 0.0065306737 0.47950003 2699817
-0.21015993 0.0065374831 0.48000002 2699306
-0.20921908 0.0065408885 0.48025003 2764846
-0.20827715 0.0065442929 0.48050001 2699819
-0.20733413 0.0065476983 0.48075002 725516
-0.20649727 0.0065545081 0.48125002 512
-0.20576496 0.0065647229 0.48200002 1185044
-0.20513554 0.0065783425 0.48300001 2895662
-0.20460738 0.0065953671 0.48425001 2830892
-0.20396866 0.0066089872 0.48525003 2633513
-0.20332558 0.0066226069 0.48625001 2896683
-0.20267813 0.0066362265 0.48725003 2174245
-0.20212974 0.0066532511 0.48850003 987918
-0.20157589 0.0066702762 0.48975003 1382676
-0.20101656 0.0066873007 0.49100003 2372137
-0.20045178 0.0067043253 0.49225003 2241065
-0.19978026 0.006717945 0.49325001 2437930
-0.19920507 0.0067349696 0.49450001 2569516
-0.19852425 0.0067485897 0.49550003 2568233
-0.19783907 0.0067622093 0.49650002 2765097
-0.19705044 0.0067724241 0.49725002 2568233
-0.19616 0.0067792339 0.49775001 2699566
-0.19526739 0.0067860442 0.49825004 2569003
-0.19437259 0.0067928541 0.49875003 2437415
-0.19357249 0.0068030688 0.49950004 2699558
-0.1927691 0.0068132835 0.50025004 2040858
-0.19205819 0.0068269032 0.50125003 2633511
-0.19143817 0.0068439273 0.5025 2437928
-0.1910968 0.0068711676 0.50450003 2372649
-0.1906525 0.006895002 0.50625002 2241063
-0.19010696 0.0069154319 0.50775003 2569001
-0.1894618 0.006932456 0.509 2437415
-0.18862614 0.0069426708 0.50975001 1185814
-0.18787917 0.0069562905 0.51075 1317400
-0.18694499 0.0069631007 0.51125002 2634026
-0.18609951 0.0069733155 0.51200002 2503210
-0.18516043 0.0069801258 0.51250005 2634796
-0.18421914 0.0069869352 0.51300001 2503208
-0.18327568 0.0069937455 0.51350003 2437928
-0.1824187 0.0070039602 0.51425004 2437415
-0.18191099 0.0070277946 0.51600003 2896937
-0.18183358 0.0070686541 0.51900005 2699304
-0.18104669 0.0070822737 0.52000004 2830890
-0.18008243 0.0070890831 0.5205 2699304
-0.17920195 0.0070992983 0.52125001 2634026
-0.1782328 0.0071061081 0.52175003 2634796
-0.17743115 0.0071197278 0.52275002 2699053
-0.17662513 0.0071333474 0.52375001 2699306
-0.17589852 0.0071503725 0.52500004 2502957
-0.17524964 0.0071708024 0.52650005 2568750
-0.17459418 0.0071912315 0.528 2699819
-0.17393216 0.007211661 0.52950001 2765612
-0.17318204 0.007228686 0.53075004 2699819
-0.1723454 0.0072423057 0.53175002 2568750
-0.17150439 0.0072559253 0.53275001 2699566
-0.17065901 0.007269545 0.53375 2961708
-0.16980927 0.0072831651 0.53475004 2699306
-0.16887631 0.0072933803 0.53550005 2699566
-0.16801834 0.007307 0.53650004 2567980
-0.167156 0.0073206192 0.53750002 2634026
-0.16644371 0.0073410491 0.53900003 2633773
-0.16587813 0.0073682885 0.54100001 2699566
-0.16522773 0.0073921229 0.54275 2699819
-0.1644941 0.0074125524 0.54425001 2699304
-0.16360389 0.007426172 0.54525 2503210
-0.16270931 0.0074397926 0.54625005 2503210
-0.16181034 0.0074534123 0.54725003 2503723
-0.16098036 0.0074704364 0.5485 2503210
-0.16080038 0.0075181061 0.55200005 2634026
-0.16038823 0.0075555602 0.55475003 2765097
-0.15946193 0.0075691799 0.55575001 2699304
-0.15838888 0.0075759902 0.55625004 2568233
-0.15731364 0.0075827995 0.55675 2371371
-0.15630633 0.0075930143 0.5575 2239785
-0.15536527 0.0076066344 0.55850005 2633513
-0.15441984 0.0076202541 0.55950004 2633773
-0.15347001 0.0076338737 0.56050003 2437164
-0.15251583 0.0076474934 0.56150001 2041636
-0.15155727 0.007661113 0.5625 328965
-0.15059435 0.0076747332 0.56350005 2107680
-0.14956078 0.0076849484 0.56425005 2437928
-0.14852391 0.0076951622 0.565 2372137
-0.14748378 0.0077053769 0.56575 2437417
-0.14644037 0.0077155922 0.56650001 2108452
-0.14532959 0.0077224025 0.56700003 923155
-0.14428017 0.0077326172 0.56775004 1777951
-0.14329045 0.0077462369 0.56875002 2371624
-0.14217149 0.0077530472 0.56925005 2372137
-0.14111222 0.0077632619 0.57000005 2437677
-0.14004965 0.0077734757 0.57075 2371371
-0.13898382 0.0077836909 0.5715 2634026
-0.13785447 0.0077905008 0.57200003 2568233
-0.13672292 0.0077973111 0.57250005 2371624
-0.13558918 0.0078041204 0.57300001 2371624
-0.13445327 0.0078109307 0.57350004 1449752
-0.13331515 0.0078177406 0.574 1449239
-0.13217486 0.0078245504 0.57450002 2174243
-0.13103238 0.0078313602 0.57500005 2108452
-0.1298877 0.00783817 0.57550001 2437415
-0.12874085 0.0078449799 0.57600003 2108450
-0.1275918 0.0078517897 0.5765 528650
-0.12649535 0.0078620045 0.57725 1185044
-0.1253414 0.0078688143 0.57775003 2566950
-0.12423893 0.007879029 0.57850003 2633511
-0.12313319 0.0078892447 0.57925004 2634024
-0.12202417 0.0078994595 0.58000004 2568231
-0.12091187 0.0079096742 0.58075005 2107682
-0.11979628 0.0079198889 0.58150005 1910303
-0.11862645 0.0079266988 0.58200002 2437415
-0.11745445 0.0079335086 0.58250004 2306342
-0.1162304 0.0079369135 0.58275002 2108712
-0.11500523 0.0079403184 0.583 2042659
-0.113779 0.0079437234 0.58325005 2306342
-0.11255166 0.0079471283 0.58350003 2240036
-0.11137091 0.0079539381 0.58400005 2240036
-0.11014083 0.007957343 0.58425003 1977379
-0.10890967 0.0079607479 0.58450001 2311
-0.10772344 0.0079675578 0.58500004 1448216
-0.10653503 0.0079743676 0.5855 2436134
-0.10534444 0.0079811774 0.58600003 2370852
-0.10419605 0.0079913922 0.58675003 2567720
-0.10304438 0.0080016069 0.58750004 2107169
-0.10184613 0.0080084167 0.588 856332
-0.10068844 0.0080186315 0.58875 2237985
-0.099527478 0.0080288462 0.58950001 2240038
-0.098321579 0.008035657 0.59000003 2174758
-0.09711349 0.0080424668 0.59050006 2108965
-0.095903203 0.0080492767 0.59100002 2370852
-0.09469074 0.0080560865 0.59150004 2502438
-0.093476079 0.0080628954 0.59200001 2240036
-0.092220321 0.0080663012 0.59225005 2305061
-0.091001838 0.0080731111 0.59275001 988437
-0.089743331 0.008076516 0.59300005 1778466
-0.088521026 0.0080833258 0.59350002 2567980
-0.087259784 0.0080867307 0.59375 2437417
-0.086033657 0.0080935406 0.59425002 2437415
-0.084805332 0.0081003504 0.59475005 2634024
-0.083574817 0.0081071602 0.59525001 2502438
-0.082342125 0.00811397 0.59575003 2634024
-0.081073239 0.008117375 0.59600002 2634024
-0.079836711 0.0081241848 0.59650004 2568233
-0.078597993 0.0081309946 0.597 2568233
-0.077357106 0.0081378045 0.59750003 2568233
-0.076114021 0.0081446152 0.59800005 2502440
-0.074900016 0.00815483 0.59875005 2174758
-0.073652014 0.0081616389 0.59925002 2437415
-0.072401822 0.0081684496 0.59975004 2568231
-0.071149439 0.0081752585 0.60025001 2569003
-0.06989488 0.0081820693 0.60075003 2503208
-0.068638124 0.0081888791 0.60125005 2568231
-0.067351192 0.008192284 0.60150003 2568233
-0.066035718 0.008192284 0.60150003 2502187
-0.06474714 0.0081956889 0.60175002 2765359
-0.063457474 0.0081990939 0.60200006 2503210
-0.062140912 0.0081990939 0.60200006 2437415
-0.060824346 0.0081990939 0.60200006 2172960
-0.05953249 0.0082024988 0.60225004 1119504
-0.058263704 0.0082093086 0.60275 199432
-0.041146234 0.0084851086 0.62300003 1909539
-0.039799701 0.0084885135 0.62325001 2830639
-0.038452081 0.0084919184 0.62350005 3422257
-0.037103362 0.0084953234 0.62375003 3620406
-0.035753552 0.0084987283 0.62400001 3751992
-0.034388874 0.0084987283 0.62400001 3882557
-0.033024196 0.0084987283 0.62400001 3554362
-0.031646833 0.0084953234 0.62375003 3423291
-0.030270562 0.0084919184 0.62350005 3160889
-0.028883792 0.0084851086 0.62300003 2898230
-0.027510256 0.0084817037 0.62275004 2832185
-0.026127314 0.0084748939 0.62225002 2634808
-0.024756512 0.008471489 0.62200004 2634806
-0.023396205 0.008471489 0.62200004 2569013
-0.013823873 0.0084408447 0.61975002 2829871
-0.012473517 0.0084442487 0.62 3028533
-0.011122068 0.0084476545 0.62025005 3424059
-0.0097655896 0.0084476545 0.62025005 3620668
-0.0084124999 0.0084510595 0.62050003 3751741
-0.0070583164 0.0084544634 0.62075001 3620921
-0.0057030399 0.0084578693 0.62100005 3620919
-0.0043466697 0.0084612742 0.62125003 3555126
-0.002989206 0.0084646791 0.62150002 3620408
-0.0016306492 0.008468084 0.62175006 3554362
-0.00027088961 0.008468084 0.62175006 3291190
0.0010893077 0.008471489 0.62200004 3291956
0.002449614 0.008471489 0.62200004 3554615
0.00380992 0.008471489 0.62200004 4145982
0.0051723043 0.0084748939 0.62225002 3751994
0.0065331575 0.0084748939 0.62225002 4015166
0.0078940103 0.0084748939 0.62225002 4015166
0.0092548635 0.0084748939 0.62225002 4015166
0.010615717 0.0084748939 0.62225002 4146752
0.011981381 0.0084782988 0.6225 3752507
0.013348141 0.0084817037 0.62275004 4146752
0.014715992 0.0084851086 0.62300003 4212545
0.016084937 0.0084885135 0.62325001 4080959
0.017461974 0.0084953234 0.62375003 3949886
0.0188412 0.0085021332 0.62425005 4212292
0.020230701 0.0085123479 0.625 4473924
0.021614848 0.0085191578 0.62550002 4408901
0.023010366 0.0085293725 0.62625003 4344644
0.024399433 0.0085361833 0.62675005 4344642
0.025790684 0.0085429922 0.62725002 4212545
0.027173299 0.008546398 0.62750006 4541257
0.028545635 0.008546398 0.62750006 4672843
0.02991797 0.008546398 0.62750006 4673096
0.031302769 0.0085498029 0.62775004 4411207
0.03267565 0.0085498029 0.62775004 4542793
0.034062091 0.0085532069 0.62800002 4607303
0.035463735 0.0085600177 0.62850004 4541257
0.036852907 0.0085634226 0.62875003 4607816
0.038258377 0.0085702324 0.62925005 4542023
0.039650284 0.0085736373 0.62950003 4607816
0.041043285 0.0085770413 0.62975001 4542021
0.042420544 0.0085770413 0.62975001 4607816
0.043797795 0.0085770413 0.62975001 4607563
0.04515712 0.0085736373 0.62950003 4673356
0.046515349 0.0085702324 0.62925005 5067084
0.04787248 0.0085668266 0.62900001 5002061
0.04920895 0.0085600177 0.62850004 5067854
0.05056335 0.0085566118 0.62825 5396819
0.051895991 0.0085498029 0.62775004 5331539
-0.22770016 0.0072110607 0.45625001 4673346
-0.22657813 0.0072071096 0.45600003 4607555
-0.22558087 0.0072071096 0.45600003 4804164
-0.22446045 0.007203158 0.45575002 4869187
-0.22346374 0.007203158 0.45575002 4671806
-0.22246702 0.007203158 0.45575002 4343611
-0.2215918 0.0072071096 0.45600003 4080439
-0.22071546 0.0072110607 0.45625001 3949623
-0.21983805 0.0072150119 0.45650002 4081209
-0.21895954 0.0072189635 0.45675004 3883060
-0.21807994 0.0072229146 0.45700002 3751222
-0.21731798 0.0072308169 0.45750001 3751994
-0.21643564 0.0072347685 0.45775002 3291956
-0.21566986 0.0072426707 0.45825002 3555128
-0.21490189 0.007250573 0.45875001 3159855
-0.21413176 0.0072584762 0.45925003 3094829
-0.21347544 0.0072703296 0.46000001 3028782
-0.21270038 0.0072782324 0.46050003 3224878
-0.21203804 0.0072900858 0.46125001 3158315
-0.21148682 0.0073058913 0.46225002 3224880
-0.21058971 0.0073098424 0.46250004 3027499
-0.21025793 0.0073335497 0.46400002 2830890
-0.21059602 0.0073809647 0.46700001 2699304
-0.2111454 0.0074362829 0.47050002 2765097
-0.21212605 0.0075074057 0.47500002 2896685
-0.21208711 0.0075429669 0.47725001 2830892
-0.21126449 0.0075508696 0.47775003 2765610
-0.21043967 0.0075587723 0.47825003 2765610
-0.20961264 0.0075666746 0.47875002 2699819
-0.20867454 0.0075706262 0.47900003 2764846
-0.20773533 0.0075745769 0.47925001 2765099
-0.20679504 0.0075785285 0.47950003 2634794
-0.20585366 0.0075824801 0.47975004 2370601
-0.20512462 0.0075943335 0.48050001 2567982
-0.20460466 0.0076140896 0.48175001 2699053
-0.20418486 0.0076377974 0.48325002 2699817
-0.20365341 0.0076575535 0.48450002 2567718
-0.20301197 0.007673359 0.48550004 2436134
-0.20236616 0.007689164 0.48650002 2699817
-0.2018194 0.0077089202 0.48775002 2962989
-0.20116429 0.0077247252 0.48875001 2634024
-0.20060715 0.0077444813 0.49000001 2503723
-0.20004456 0.0077642384 0.49125004 2372649
-0.19937523 0.0077800429 0.49225003 2174758
-0.19870152 0.007795848 0.49325001 1646880
-0.19802344 0.0078116534 0.49425003 2369318
-0.19734098 0.007827458 0.49525002 2895915
-0.19655509 0.0078393118 0.49600002 2765099
-0.19566739 0.0078472141 0.49650002 2699306
-0.1947775 0.0078551164 0.49700001 2568233
-0.19388545 0.0078630196 0.49750003 2437417
-0.19299118 0.0078709219 0.49800003 2305061
-0.19209473 0.0078788241 0.49850002 527367
-0.19129188 0.007890678 0.49925002 657930
-0.19067624 0.0079104351 0.50050002 2239015
-0.19024453 0.0079380935 0.50225002 2503723
-0.1900876 0.0079776058 0.50475001 2503208
-0.18982616 0.0080131674 0.50700003 2569001
-0.18918262 0.0080329236 0.50825 2503208
-0.18834862 0.0080447774 0.509 2634024
-0.18751132 0.0080566313 0.50975001 2370341
-0.18667075 0.0080684852 0.51050001 2106916
-0.18573605 0.0080763884 0.51100004 2699819
-0.18479912 0.0080842897 0.5115 2371622
-0.18386003 0.0080921929 0.51200002 2437928
-0.18282953 0.0080961436 0.51225001 2634794
-0.18188661 0.0081040468 0.51275003 2634278
-0.18111777 0.0081198514 0.51375002 2831144
-0.18078251 0.008155413 0.51600003 2633511
-0.18052445 0.0081949262 0.51850003 2699819
-0.17973645 0.0082107307 0.51950002 2567980
-0.17877223 0.0082186339 0.52000004 2699819
-0.17789119 0.0082304878 0.52075005 2239785
-0.17709173 0.0082462924 0.52175003 2567980
-0.1762879 0.0082620978 0.52275002 2633260
-0.17564723 0.0082858056 0.52425003 2699819
-0.17491677 0.0083055608 0.5255 2634026
-0.17434619 0.0083332211 0.52725005 2765099
-0.1736858 0.0083569279 0.52875 2699304
-0.17293732 0.008376684 0.53000003 2567718
-0.17218335 0.0083964402 0.53125 2569255
-0.17134345 0.0084122457 0.53225005 2437415
-0.17041923 0.0084240995 0.53300005 2634026
-0.16949171 0.0084359525 0.53375 2634024
-0.16856094 0.0084478064 0.5345 2634024
-0.16762687 0.0084596602 0.53525001 2765359
-0.16668952 0.0084715141 0.53600001 2568233
-0.1659033 0.0084912712 0.53725004 2633513
-0.16534156 0.0085228812 0.53925002 2699819
-0.1648472 0.0085584428 0.54150003 2503210
-0.16419186 0.0085861012 0.54325002 2437417
-0.16337886 0.0086058583 0.54450005 2437930
-0.16248591 0.0086216629 0.54550004 2634794
-0.16158858 0.0086374674 0.54650003 2568485
-0.16068687 0.0086532729 0.54750001 2569001
-0.15985364 0.008673029 0.54875004 2372137
-0.15995455 0.0087441513 0.55325001 2306091
-0.15917499 0.0087678591 0.55475003 2437164
-0.15817533 0.008779713 0.55550003 2567980
-0.15710175 0.0087876162 0.55600005 2634026
-0.15609604 0.0087994691 0.55675 2699819
-0.15508708 0.008811323 0.5575 2568233
-0.15414384 0.0088271294 0.55850005 2503210
-0.1533331 0.0088508362 0.56 2241065
-0.15244792 0.0088705923 0.56125003 2372135
-0.15148991 0.0088863978 0.56225002 2700587
-0.15052752 0.0089022024 0.56325001 2634024
-0.1494945 0.0089140562 0.56400001 2633511
-0.1484582 0.0089259101 0.56475002 2633511
-0.14741862 0.008937764 0.56550002 2370852
-0.14637576 0.0089496179 0.56625003 2503208
-0.14532959 0.0089614717 0.56700003 2371622
-0.14428017 0.0089733256 0.56775004 2174756
-0.14322747 0.0089851795 0.56850004 2306342
-0.14217149 0.0089970334 0.56925005 2502957
-0.14105031 0.0090049356 0.56975001 988948
-0.13998832 0.0090167895 0.57050002 857362
-0.13886224 0.0090246918 0.57100004 2240038
-0.13773397 0.009032594 0.5715 2240038
-0.13660352 0.0090404972 0.57200003 2437417
-0.13547088 0.0090483995 0.57250005 2437417
-0.13433604 0.0090563018 0.57300001 2107169
-0.13319902 0.009064205 0.57350004 461574
-0.13205981 0.0090721063 0.574 1844249
-0.13091844 0.0090800095 0.57450002 2437415
-0.12977485 0.0090879127 0.57500005 2503723
-0.12862909 0.0090958141 0.57550001 2503208
-0.12748115 0.0091037173 0.57600003 2370852
-0.126331 0.0091116196 0.5765 2238753
-0.12523292 0.0091234734 0.57725 2765351
-0.12413155 0.0091353273 0.57800001 2502692
-0.1230269 0.0091471812 0.57875001 1910301
-0.12191897 0.009159035 0.57950002 1910303
-0.12080777 0.0091708889 0.58025002 2568233
-0.11969327 0.0091827428 0.58100003 2437669
-0.11852455 0.0091906451 0.58150005 2437669
-0.11730322 0.0091945967 0.58175004 2307110
-0.11608081 0.0091985473 0.58200002 923408
-0.11490661 0.0092064505 0.58250004 592907
-0.11368146 0.0092104012 0.58275002 2107680
-0.11245521 0.0092143519 0.583 2174756
-0.11122788 0.0092183044 0.58325005 2372135
-0.10999944 0.0092222551 0.58350003 2306342
-0.1088165 0.0092301583 0.58400005 1385754
-0.10758534 0.009234109 0.58425003 1318936
-0.10639858 0.0092420122 0.58475006 2370852
-0.1052096 0.0092499135 0.58525002 2502438
-0.10406286 0.0092617674 0.58600003 2239266
-0.10291284 0.0092736213 0.58675003 2371622
-0.10175953 0.0092854751 0.58750004 2174497
-0.10060293 0.009297329 0.58825004 2370852
-0.099443071 0.0093091829 0.58900005 2240290
-0.098238252 0.0093170851 0.58950001 2107680
-0.097031258 0.0093249884 0.59000003 2306
-0.095822066 0.0093328906 0.59050006 1712671
-0.094610691 0.0093407929 0.59100002 2371624
-0.09335766 0.0093447436 0.59125 2502440
-0.092142463 0.0093526468 0.59175003 2502438
-0.090925083 0.00936055 0.59225005 1581338
-0.089667663 0.0093645006 0.59250003 331790
-0.088409156 0.0093684513 0.59275001 2108201
-0.087186307 0.0093763545 0.59325004 2240038
-0.085925072 0.0093803052 0.59350002 2371624
-0.084698386 0.0093882084 0.59400004 2371622
-0.083469518 0.0093961107 0.59450001 2240290
-0.082238466 0.0094040129 0.59500003 2437928
-0.080971211 0.0094079645 0.59525001 2306344
-0.07973633 0.0094158677 0.59575003 2634026
-0.078499265 0.00942377 0.59625006 2568233
-0.077260002 0.0094316723 0.59675002 2503210
-0.076018564 0.0094395755 0.59725004 2503210
-0.074806198 0.0094514294 0.59800005 2502957
-0.073559828 0.0094593307 0.59850001 2437164
-0.072341464 0.0094711846 0.59925002 2437928
-0.071090177 0.0094790878 0.59975004 2371622
-0.069836698 0.00948699 0.60025001 2699306
-0.068552501 0.0094909417 0.60050005 2699304
-0.067267209 0.0094948923 0.60075003 2765097
-0.065980822 0.0094988439 0.60100001 2633511
-0.064693347 0.0095027955 0.60125005 2699819
-0.063404769 0.0095067462 0.60150003 2634026
-0.062089298 0.0095067462 0.60150003 2568233
-0.060799081 0.0095106978 0.60175002 2502438
-0.05950778 0.0095146494 0.60200006 2699304
-0.05819121 0.0095146494 0.60200006 2765097
-0.056898262 0.0095186001 0.60225004 1712924
-0.05562729 0.0095265023 0.60275 265997
-0.054354139 0.0095344055 0.60325003 199434
-0.039783739 0.0098465551 0.62300003 1383193
-0.038452081 0.0098544583 0.62350005 1974813
-0.037103362 0.0098584089 0.62375003 2566950
-0.035753552 0.0098623596 0.62400001 3224880
-0.034402654 0.0098663121 0.62425005 3817017
-0.033037428 0.0098663121 0.62425005 3751994
-0.031672202 0.0098663121 0.62425005 3884093
-0.030294836 0.0098623596 0.62400001 3358779
-0.028918564 0.0098584089 0.62375003 3358779
-0.027543388 0.0098544583 0.62350005 3160889
-0.026179802 0.0098544583 0.62350005 3160119
-0.024806263 0.0098505057 0.62325001 3029303
-0.023452628 0.0098544583 0.62350005 2831924
-0.022097897 0.0098584089 0.62375003 3093813
-0.020750385 0.0098663121 0.62425005 2830643
-0.0097813336 0.0098188967 0.62125003 2700338
-0.0084226681 0.0098188967 0.62125003 3488569
-0.0070668445 0.0098228473 0.62150002 3554615
-0.005709928 0.0098267989 0.62175006 3555128
-0.0043501682 0.0098267989 0.62175006 3490103
-0.0029916109 0.0098307505 0.62200004 3359030
-0.0016313047 0.0098307505 0.62200004 3029552
-0.00027099851 0.0098307505 0.62200004 3028784
0.0010893077 0.0098307505 0.62200004 3028271
0.002449614 0.0098307505 0.62200004 3159857
0.00380992 0.0098307505 0.62200004 3291443
0.0051723043 0.0098347012 0.62225002 3686201
0.0065331575 0.0098347012 0.62225002 3817787
0.0078940103 0.0098347012 0.62225002 4146752
0.0092548635 0.0098347012 0.62225002 4080957
0.010619981 0.0098386519 0.6225 4147265
0.011981381 0.0098386519 0.6225 4081472
0.013348141 0.0098426044 0.62275004 4146752
0.014715992 0.0098465551 0.62300003 4343361
0.016084937 0.0098505057 0.62325001 3949633
0.017454976 0.0098544583 0.62350005 3753537
0.0188412 0.0098663121 0.62425005 4016196
0.02022261 0.0098742135 0.62475002 4212545
0.021614848 0.0098860674 0.62550002 4212292
0.023010366 0.0098979212 0.62625003 4278085
0.024409164 0.0099097751 0.62700003 4409924
0.025790684 0.0099137267 0.62725002 4475466
0.027184125 0.009921629 0.62775004 4672073
0.028557006 0.009921629 0.62775004 4738119
0.029941807 0.0099255806 0.62800002 4738119
0.031315234 0.0099255806 0.62800002 4607301
0.032688662 0.0099255806 0.62800002 4673096
0.034089211 0.0099334829 0.62850004 4672843
0.035477839 0.0099374345 0.62875003 4673096
0.036882214 0.0099453367 0.62925005 4673094
0.038273577 0.0099492883 0.62950003 4607816
0.039666031 0.009953239 0.62975001 4541770
0.04105958 0.0099571906 0.63000005 4541770
0.042437386 0.0099571906 0.63000005 4542023
0.043797795 0.009953239 0.62975001 4607816
0.04515712 0.0099492883 0.62950003 4673096
0.046515349 0.0099453367 0.62925005 5066831
0.04787248 0.0099413851 0.62900001 4935498
0.04920895 0.0099334829 0.62850004 5264463
0.05054323 0.0099255806 0.62800002 5396049
0.051895991 0.009921629 0.62775004 5133907
-0.23584087 0.0084644705 0.47050002 5330506
-0.22770016 0.0082081072 0.45625001 5068104
-0.22657813 0.0082036098 0.45600003 5068102
-0.22545719 0.0081991116 0.45575002 4871236
-0.22433734 0.0081946151 0.45550004 5000771
-0.22334117 0.0081946151 0.45550004 4737599
-0.22234499 0.0081946151 0.45550004 4804160
-0.22147031 0.0081991116 0.45575002 4409402
-0.22059454 0.0082036098 0.45600003 4540990
-0.21971765 0.0082081072 0.45625001 4277818
-0.21871984 0.0082081072 0.45625001 4277050
-0.21796064 0.0082171028 0.45675004 4474172
-0.21708047 0.0082216002 0.45700002 4079417
-0.21619923 0.0082260976 0.45725003 3882808
-0.21543455 0.0082350932 0.45775002 3751224
-0.21455057 0.0082395906 0.45800003 3751224
-0.21378206 0.0082485853 0.45850003 3816245
-0.21289533 0.0082530826 0.45875001 3750452
-0.21212302 0.0082620783 0.45925003 3553325
-0.21123356 0.0082665756 0.45950001 3553068
-0.21022864 0.0082665756 0.45950001 3355694
-0.20922372 0.0082665756 0.45950001 2830120
-0.20833208 0.0082710739 0.45975003 3027499
-0.20755209 0.0082800686 0.46025002 2765610
-0.20822841 0.0083475327 0.46400002 2896685
-0.20966986 0.0084464801 0.46950004 2830892
-0.21064284 0.0085274363 0.47400004 2831405
-0.21071173 0.0085724127 0.47650003 2699819
-0.21010964 0.008590403 0.47750002 2765612
-0.20928426 0.0085993977 0.47800002 2699819
-0.2083478 0.0086038951 0.47825003 2699306
-0.20730187 0.0086038951 0.47825003 2895915
-0.20636375 0.0086083924 0.47850001 2765359
-0.20542456 0.0086128907 0.47875002 2830639
-0.20459099 0.0086218854 0.47925001 2765099
-0.2039676 0.0086398767 0.48025003 2699817
-0.2036567 0.0086713592 0.48200002 2831144
-0.20323308 0.0086983452 0.48350003 2238237
-0.20269836 0.0087208329 0.48475003 768
-0.20195019 0.0087343259 0.48550004 855560
-0.20140563 0.0087568136 0.48675004 2632223
-0.20075271 0.008774804 0.48775002 2634794
-0.20019776 0.0087972917 0.48900002 2503208
-0.19953553 0.008815282 0.49000001 2569003
-0.1989702 0.0088377707 0.49125004 2372137
-0.19829868 0.008855761 0.49225003 1646365
-0.19762278 0.0088737505 0.49325001 1052690
-0.19684289 0.0088872435 0.49400002 2105629
-0.19615881 0.0089052347 0.49500003 3159085
-0.19527331 0.0089142295 0.49550003 2831144
-0.1943856 0.0089232242 0.49600002 2503721
-0.1933983 0.0089277225 0.49625003 2437928
-0.19240987 0.0089322198 0.49650002 2569001
-0.19151671 0.0089412145 0.49700001 2503208
-0.19071713 0.0089547075 0.49775001 2502440
-0.1899143 0.0089682005 0.49850002 2502187
-0.18939225 0.0089951856 0.5 2699817
-0.18914612 0.0090356646 0.50225002 2699304
-0.18935813 0.0090986304 0.50575 2041889
-0.18890348 0.0091301147 0.50750005 2633513
-0.18816361 0.0091481041 0.50850004 2830892
-0.18723544 0.0091570988 0.509 2634024
-0.18630509 0.0091660945 0.50950003 2699817
-0.18537258 0.0091750901 0.51000005 2568231
-0.18434753 0.0091795875 0.51025003 2306342
-0.18341115 0.0091885822 0.51075 1714207
-0.18238339 0.0091930805 0.51100004 1540
-0.1814432 0.0092020752 0.5115 1776405
-0.18050084 0.0092110708 0.51200002 2830374
-0.17973144 0.0092290603 0.51300001 2830890
-0.17965403 0.0092830323 0.51600003 2634026
-0.17921749 0.0093190121 0.51800001 2699819
-0.17842843 0.0093370033 0.51900005 2634026
-0.17763498 0.0093549937 0.52000004 2502957
-0.17675233 0.0093684867 0.52075005 2372137
-0.17603499 0.0093909744 0.52200001 2699817
-0.17522842 0.0094089638 0.523 2634024
-0.1745007 0.0094314525 0.52425003 2699819
-0.17393285 0.0094629359 0.52600002 2765099
-0.17343944 0.0094989156 0.528 2633513
-0.17277417 0.0095259016 0.52950001 2699817
-0.1720213 0.0095483903 0.53075004 2569001
-0.171102 0.0095618833 0.53150004 2503210
-0.17017943 0.0095753763 0.53225005 2437930
-0.16917416 0.0095843701 0.53275001 2437930
-0.16824557 0.0095978631 0.53350002 2437930
-0.1672354 0.0096068587 0.53400004 2437930
-0.16630079 0.0096203517 0.53475004 2699817
-0.1654401 0.0096383421 0.53575003 2634794
-0.164805 0.0096698245 0.53750002 2437415
-0.16439055 0.0097148009 0.54000002 2699819
-0.16388963 0.0097552799 0.54225004 2568233
-0.16315381 0.0097822649 0.54375005 2437417
-0.1622625 0.0098002553 0.54475003 2569003
-0.16136682 0.0098182457 0.54575002 2765099
-0.16046675 0.009836236 0.54675001 2633260
-0.15956233 0.0098542264 0.54775006 2502957
-0.15901491 0.0098947044 0.55000001 2437677
-0.15881632 0.0099576702 0.5535 2503470
-0.15789059 0.0099756615 0.55450004 2634026
-0.15681918 0.0099846562 0.55500001 2830122
-0.15581568 0.0099981492 0.55575001 2633511
-0.15480891 0.010011642 0.55650002 2699819
-0.15379885 0.010025134 0.55725002 2568233
-0.15305929 0.010056618 0.55900002 2503210
-0.1523121 0.010088101 0.56075001 2831405
-0.15148991 0.010115086 0.56225002 2634026
-0.15046072 0.010128579 0.56300002 2568750
-0.14942825 0.010142072 0.56375003 2437930
-0.1484582 0.010160062 0.56475002 2502440
-0.14741862 0.010173555 0.56550002 528137
-0.14637576 0.010187048 0.56625003 329218
-0.14526552 0.010196044 0.56675005 2829604
-0.14421664 0.010209537 0.56750005 2896165
-0.14316447 0.010223028 0.56825 2634278
-0.14210904 0.010236521 0.56900001 2634796
-0.14098842 0.010245517 0.56950003 1976866
-0.13986564 0.010254513 0.57000005 858385
-0.13874063 0.010263507 0.57050002 2172962
-0.1375532 0.010268005 0.57075 2634026
-0.13642439 0.010277 0.57125002 2371884
-0.13529341 0.010285996 0.57175004 2175019
-0.13416021 0.01029499 0.57225001 2503208
-0.13302483 0.010303985 0.57275003 2699558
-0.13194479 0.010317478 0.57350004 2502438
-0.13080449 0.010326473 0.574 2634024
-0.12966201 0.010335469 0.57450002 1911073
-0.12851734 0.010344464 0.57500005 922895
-0.12737048 0.010353459 0.57550001 2173473
-0.12622145 0.010362455 0.57600003 2634278
-0.12512445 0.010375948 0.57675004 2568485
-0.12397047 0.010384941 0.57725 2437669
-0.12292062 0.010402933 0.57825005 1779485
-0.12181379 0.010416426 0.57900006 200202
-0.12070366 0.010429918 0.57975 1383706
-0.11953876 0.010438913 0.58025002 2502438
