0.43259627066015366 0.24591861652577571 0.15054797437880146 0.0010710147466426868 0.51783782257798916 -0.85547813673705275
0.42127858165456306 0.24560308515136639 0.15068814434730832 0.00093717771773155949 -0.5189888816928363 0.85478047613240704
0.41333064096589506 0.24627438667150608 0.15085187997448238 -0.00157947677906585 0.51689971580210281 -0.85604450179696245
0.40721383104775499 0.24646993423865654 0.15101718127924016 -0.0022460411727684014 0.51671837215965755 -0.85615248593444149
0.40243402025111458 0.24605649800582247 0.15111829842005803 0.0032516896779697865 -0.51894306103869325 0.85480262395130091
0.38702047299995423 0.24547983460402939 0.15060710671364946 -0.0034953449521269485 0.51683391887417551 -0.8560785494712666
0.38249445929283066 0.24546201353765384 0.15096784101142285 0.0050027192622993264 -0.51916393980665165 0.8546600355722842
0.37422850296800914 0.24533642557839672 0.15099229308843629 0.0055565943656046635 -0.51909714691126718 0.85469718399421346
0.34637752680472556 0.24550167394684147 0.15103057749708573 -0.004921339528253639 0.51831777194276185 -0.85517394002947644
0.34214101974725875 0.24529782347997608 0.15094238829110648 -0.0050823059256179465 0.51858834049187119 -0.8550089492352495
0.33258982352504057 0.24481024429628159 0.15112855079240586 0.0065800235311487083 -0.51823753182457089 0.85521141473831275
0.31437749057876652 0.24462750094962507 0.15127315398328292 0.0065125255397442171 -0.51675875652177972 0.85610628695808455
0.28123524517748211 0.24447083629999083 0.15162696417396446 0.0060536045058222189 -0.51425923221534187 0.85761343037161808
0.68253603965329934 0.29613868078696004 0.18477075843284022 0.0029260300254474983 0.51678258185454717 -0.85611167579938907
0.67786125729314906 0.24049708762340311 0.15095252796933842 0.0033947369057171356 0.52112444783501799 -0.85347395134824633
0.642608863840333 0.24052046262121241 0.15075745427675211 0.0064264234889968973 0.52126110799189529 -0.85337304760356814
0.59746174954665798 0.24076684874201218 0.1503160330418318 -0.013125595785954694 -0.51932240057001866 0.85447759654742084
0.69256343761024286 0.29578338382920333 0.18464425459346465 -0.0022045739891334739 -0.51345820488164906 0.85811177109584091
0.71240439875865424 0.29571123870440452 0.18454871920367927 0.0006473680538086027 0.51506891333786053 -0.85714852588542578
0.71747869040108359 0.2958998008427689 0.18464564525425267 -0.00052215650487410505 -0.51739728849220412 0.85574515669882656
0.79238039715345931 0.23709863576047235 0.14829432528223099 -0.0043642686483034935 0.52153977475145397 -0.85321580887332837
0.78249711597331328 0.23712836317251534 0.14807240370869723 0.0053958987842768098 -0.52817582655460704 0.84911788375917951
0.77757850097738068 0.23642459683918901 0.14791221002348709 -0.0044501217734730031 0.52188519123599841 -0.85300412870323594
0.77262055973169586 0.23647777380923965 0.14795883614426353 -0.0044813893890083391 0.52196607614672685 -0.85295447270128866
0.7625058354361659 0.23693373620353067 0.14808122466633902 0.0053134491819335841 -0.52765381278169277 0.8494428886715889
0.75745465476959462 0.2369995382040487 0.1483545359825619 -0.0044062172802565337 0.52199658273188854 -0.85293619507294316
0.75235042418765052 0.23722143210813293 0.14835055163221339 0.0051275675311195749 -0.52709612733501443 0.84979019798985922
0.74747859011928097 0.23694659145920968 0.14822941185009444 0.0050682035337353279 -0.52681854675924578 0.84996266512324936
0.73734832800006755 0.23713665609948018 0.14845543282887808 0.0046815238726278406 -0.52599097633153036 0.85047726374785204
0.73269879745112509 0.23691794818242842 0.14837764282840357 0.0045353233230491924 -0.52564736993437999 0.85069046857445429
0.72742925848672169 0.2368852873655839 0.14841706573951066 0.0042483913342866858 -0.52516804654584737 0.85098794001929856
0.72259328027587133 0.23699895458528838 0.14854319945373753 0.0039427654786956387 -0.52467598394190906 0.85129287937522991
0.71238174050786374 0.23689980582477038 0.14858212180281669 0.0032352046330727611 -0.52391741660464564 0.85176292125760922
0.70751716914612595 0.23711044749913038 0.14876828668915384 0.0027522412394999978 -0.52344932677967371 0.85205236192505562
0.70253590033194846 0.23697785210985486 0.14871579191189815 -0.00060455701046294098 0.52162134974462682 -0.8531768878734437
0.69767089422694617 0.23690482221801962 0.1487390654787091 0.0018795243760799207 -0.52262284108075419 0.85256192348051796
0.68761687805867255 0.23633694262435714 0.14846475398581604 0.00084708778419855457 -0.52208184135743729 0.85289497206110532
0.68264368816107557 0.23634744229645963 0.14850864781066805 0.00013275855239650375 -0.52169189475878686 0.85313395742881659
0.65247176069019652 0.23696677654465406 0.14865791283842619 0.005701431674210453 0.52140054752494636 -0.85329301105631372
0.63695315584749956 0.2369784446527298 0.14871563009591596 -0.0089061888373338227 -0.51939075228205178 0.85449044830488197
0.6274975500992539 0.23699328052084498 0.14856144219907316 -0.010308203849264853 -0.51948167498672293 0.85441941122986598
0.62261551005826943 0.23699990345214744 0.14846943025850351 -0.010975498550230235 -0.51956726855413859 0.85435905325499162
0.60748327005399572 0.23711656698735847 0.14823817979446996 -0.012479272238622182 -0.51982850393768887 0.85417948597370241
0.60238266216954928 0.23727987343843787 0.14823881641628062 -0.012889809419191791 -0.51981775854766488 0.8541799287688856
0.58725055350045341 0.23704817554779639 0.14776008631081575 -0.013831381606329537 -0.52023987208058131 0.8539081732718341
0.58247452383311049 0.23714319264099906 0.14771591459096839 -0.014015875872977108 -0.52032883151149423 0.85385096025090723
0.57742498622224425 0.23708638435345986 0.14757439808551881 -0.014178825927325417 -0.52042159953711742 0.85379173082816318
0.56748756201827721 0.2374939551949376 0.14761033354248568 -0.014326808716733719 -0.52063840395958105 0.85365707100358168
0.55755460794238165 0.23755280543381696 0.14744277630619546 -0.014287343014841742 -0.52080231639660346 0.85355774208046897
0.55250121667449725 0.2374049359702334 0.14723740786528222 -0.014246650290452219 -0.52098537434240355 0.85344670172003545
0.54238013586194067 0.23740574953264695 0.14701850971115957 -0.013932291540855749 -0.52119765143533425 0.85332227170671715
0.56299735371376636 0.16065504634700825 0.10017789545665076 -0.015173617126912693 -0.52597513181570177 0.85036458184401176
0.5323551747232711 0.23791919432981984 0.14712898976511496 -0.013501586500649291 -0.52130197861826866 0.85326546528653291
0.52737387077349407 0.23767254860539946 0.14688092505062136 -0.013226500047760955 -0.52132545566390665 0.85325543008720817
0.51763380438890449 0.2378405399370935 0.14677819450719604 -0.012557931603499451 -0.52141432146113786 0.85321123042835234
0.51249136917444704 0.23788309286764342 0.14670739601081398 -0.012115719758609101 -0.52137492947259534 0.8532416962691034
0.50737521510697425 0.23835654151200658 0.14657068811921975 0.010088581496748855 0.52263920759556382 -0.85249426931051253
0.5025613216542717 0.23804233231970068 0.14662069727628227 -0.011240442622237227 -0.52129548577292972 0.85330221431941766
0.59835625183195618 0.15938630200895909 0.10052684177462642 -0.012702423153734491 -0.52758399989748916 0.84940789465261601
0.49248898480782516 0.23863141477045111 0.14680903223857161 -0.0099895791493387186 -0.52107175010862372 0.85345441562344437
0.48733062064894461 0.2379542085007301 0.1463075980483487 -0.0093986083725400085 -0.52105197697515249 0.85347320019491224
0.61245471342662428 0.15856225936062937 0.10043995045007933 -0.010471506281595246 -0.52863916034252911 0.84878206019480662
0.61750552320118435 0.15850557758951719 0.10053928416490956 -0.0094969927797083908 -0.52903626437498097 0.84854607305926966
0.48249755031366115 0.23798006614537923 0.14624798798675007 -0.0085030904585202717 -0.52091682088073543 0.85356509018127147
0.47764056846017144 0.23790710037516302 0.14613954667086365 -0.0079609263575467701 -0.52085826452769635 0.85360605194944938
0.6312238166579649 0.15841732182568596 0.10077775170967765 -0.0065334405335082807 -0.5301080682870275 0.84790491807265245
0.63884717408550751 0.15871775498953883 0.10107944890596082 -0.0049046870915283583 -0.53073994922509349 0.84752053092599444
0.64298661256224776 0.15820362641018676 0.10080092695799184 -0.0039286385766670916 -0.53103403430714191 0.84734138350868671
0.46775622655338855 0.23808013643182227 0.14613177713348158 -0.0062454745506548151 -0.52061764769134022 0.85376709878044177
0.65251520532244389 0.1579963997716434 0.1007409364555726 -0.0016386712881970569 -0.53193751489587204 0.84678202331108388
0.65768750038162316 0.15871014827624089 0.10058895933987252 -0.00073618463438933997 0.52308116695441853 -0.85228255338812842
0.66257152749075809 0.15853594801092394 0.10042736957331053 -0.0018544120158959856 0.52348385839136136 -0.85203357396276846
0.66738184259592392 0.15818521686479323 0.10083357500324727 0.0012448166377614996 -0.53288686959092457 0.8461855793199996
0.4626937356263679 0.23793353531471514 0.14599722161135714 -0.0054706019170678993 -0.52052112972391384 0.85383126320462499
0.67655028123805661 0.15822794473275287 0.10078447722664731 0.0029242123682478656 -0.53356024339697883 0.84575700744846449
0.45769690906981847 0.23822749009108735 0.14614094361920346 -0.0044980766068152189 -0.52042366733690337 0.85389634838336637
0.68741700346940204 0.15788753717065207 0.10044168060443802 0.0047940293289668321 -0.53460019323571606 0.84509150432076174
0.69244319968473 0.15793485017321302 0.10037294446507543 0.005475421561207775 -0.5346275508878866 0.84507005720848216
0.45238975392530051 0.23809668276010057 0.14603541267354239 -0.0037908140737618191 -0.52036000837367513 0.85393857590227584
0.7022636492921589 0.15874948400966102 0.10068859412518545 0.0068396855564033026 -0.53538789669304154 0.84457860426137399
0.44243047244125749 0.23813669682899585 0.1460461369030866 -0.0020699256215024734 -0.5202511045434639 0.85401083343785944
0.71244668656479981 0.15896852605501066 0.10061435416351498 0.0078293714244351744 -0.53627650103098068 0.84400605174670795
0.43767446134222532 0.23802542947828589 0.14598134438713309 -0.0014429140085015992 -0.52020686357888568 0.85403907234071141
0.43240433905153408 0.23798530809901611 0.14597080089972428 -0.00053244028568585043 -0.52020123586100175 0.85404355317280434
0.42754991957171962 0.23811374750246897 0.14607562742179431 0.00014694319047771066 -0.52003974246404516 0.85414205180732583
0.73102051516812427 0.15955263167017034 0.10014767404990568 -0.0040953437693863571 0.52723061737286048 -0.84971236560617558
0.41254559249802841 0.23842433491256976 0.14612320312329763 -0.0018075215660874834 0.51713640511541059 -0.8559010873752283
0.75934319398758288 0.15921201053408204 0.099911568313147986 0.0091676178725544101 -0.5387456673204768 0.84241857809877208
0.76229606840085751 0.15879103527867974 0.099604636388372692 0.009159302391081205 -0.53884301762125331 0.84235640292012404
0.40776465099506509 0.23845876224808682 0.14642475292273863 0.0026851184858512388 -0.52003918916611047 0.85413818078234349
0.40235953979778666 0.23781352186313498 0.14608536281340836 0.003345377854112029 -0.52016434818768165 0.85405963452296318
0.77791464599901661 0.16033545609123487 0.10039261352891665 0.0090739042411405249 -0.53875774440251456 0.84241186904514676
0.7807065547099501 0.16088662721170263 0.10071317721713398 0.0090661175018406388 -0.53873694740034939 0.84242525307542626
0.39244603369635794 0.23817786385467762 0.14611318066988213 -0.0031097936605952556 0.5170266817771374 -0.85596363212107984
0.38767729956505459 0.23816193417957901 0.146169876883395 -0.003672657919447625 0.51714810838306502 -0.85588804500333127
0.38248033190718572 0.23783421749175343 0.14629818343699538 0.0050115813750344056 -0.52026771754770551 0.85398851639224194
0.37251635412802131 0.23793954927144206 0.14646925019856893 0.0055932771400659083 -0.52025684378204629 0.85399152908490727
0.36755578794502752 0.23814397265550749 0.14632811857514283 -0.0046090057476541237 0.51771712025345795 -0.85553944413012573
0.36283278725016788 0.23810065298137148 0.14635699098967284 -0.0050672251613527296 0.51813531115345868 -0.85528365035529152
0.35772499991742629 0.23782571674096054 0.14655835742919474 0.0061533621464308023 -0.52005551109104309 0.85411029821570994
0.3477224914632458 0.23789689902064695 0.14635347873238641 -0.0054393464321280975 0.51866943360347972 -0.85495756161100578
0.34263902404899704 0.23781866655565861 0.14671385322526462 0.0064952109220018017 -0.51967874023687521 0.85433706415026445
0.33753252883888035 0.23811338063273416 0.14695262411727272 0.0065318834849756313 -0.51943193018591682 0.85448686613749159
0.31228221165646058 0.23746472875497665 0.14687279600778913 0.0065762553291582064 -0.51806411245639794 0.85531650764533385
0.77749354385865876 0.29546621403940421 0.1842875958992789 -0.0018248943086048844 0.51418112728291276 -0.85767968269444006
0.78244755486541762 0.29554104440339873 0.18422360451677447 0.0016714512743284757 -0.52453620820385716 0.85138650008897676
0.78759983340866679 0.29559481434596008 0.18424295215239958 0.0017463914083115518 -0.52472911668443989 0.85126746926017116
0.31230938437673456 0.30094945617233188 0.18521107286038324 0.0050792085181192706 -0.50745204827789159 0.86166502791943567
0.53225055535297894 0.2340510283840225 0.14433032278205929 0.012219758492635497 0.52311305124010632 -0.85217569381240132
0.52774798852777127 0.23423271301082668 0.14434960880058226 0.011729039807220485 0.52306739854895157 -0.8522106114103678
0.5134656001049156 0.23454247500633404 0.14428813897382611 0.010267978500956725 0.52285923571144177 -0.85235719522319442
0.50624119190045425 0.23332509593267894 0.14373130524698746 -0.01148031053774343 -0.52181439693645804 0.85298179207987646
0.50165433558897954 0.23413414932166648 0.14415782047122172 -0.011118110738415992 -0.52171258262743292 0.85304886656147794
0.48588593744104736 0.23506513584715796 0.14425164125302237 0.0077774735847028383 0.52192302094412846 -0.85295713322135602
0.48256932299034833 0.23486076111723736 0.1440951983105587 0.0075810137109920657 0.52182787474922265 -0.85301711434520666
0.42263306724009009 0.16376625984895696 0.10044712875689339 0.0025215661039017893 0.525396034676062 -0.85085407000910207
0.47701336454688353 0.23430097139052863 0.14388168810613955 -0.0076213139901855076 -0.52128466363523496 0.85334882377124244
0.46777874043085871 0.23495387732009271 0.14401580258322208 0.0056986184827684579 0.52081173450024398 -0.85365254228768928
0.4631160490787396 0.23519977697139166 0.14413595703844756 0.0053540219987980569 0.52059402460924731 -0.85378755905060055
0.44279998842923463 0.16359769882712175 0.10040613071201958 0.0042120891574237047 0.5256514707050669 -0.8506895965336182
0.45784084075136039 0.23505435905980324 0.1440180707187898 0.004962508824524414 0.52038230866862223 -0.85391898112811693
0.45069267767975557 0.23507797285154022 0.14417437257355761 -0.0032156411280778322 -0.52067887583190364 0.85374654781999582
0.44211551131922089 0.23484486836379148 0.14403053521212875 -0.0018668440113898972 -0.52064554407591546 0.85377088983364335
0.46255117776856453 0.16397763581254715 0.10066549507321527 0.0061038186626876005 0.52555824815656393 -0.85073572347253446
0.46731491738051495 0.16353096762543659 0.10038513221826885 0.006855614086275514 0.52546835312665485 -0.85078552551031417
0.43765259993839567 0.23472804568176786 0.14396020321331662 -0.0012802723533756361 -0.52063667794669677 0.85377737758699646
0.43187646480524278 0.23447058036575133 0.14363638293743552 0.00067649743914340206 0.51820222012631223 -0.85525785667678955
0.48217249467054896 0.16346164591457235 0.10051681206176631 -0.0077658311579861692 -0.52765764756205213 0.8494216260701789
0.48767996980294975 0.16355948483066327 0.10045377483178708 0.0087006374129538835 0.52493623365305153 -0.85109708582908283
0.49283209154381263 0.16353893074441433 0.10065663955178611 -0.0090730515279440708 -0.5274724694539914 0.8495236745989363
0.42720184151621482 0.23421023996780133 0.14368819128055516 0.00036974025555035005 -0.52056663063001152 0.85382096856815404
0.41790903761733272 0.23434942449327897 0.14383528460973635 0.0015574509512232629 -0.52046729870986941 0.85388018206314287
0.41175982694436397 0.23504552662519457 0.14409213164148243 -0.00188173154070742 0.51730885717244046 -0.85579670797295804
0.40841899847191854 0.23527263971595971 0.14425277959861979 -0.0022444372852853272 0.5172141039640108 -0.85585310256023372
0.40130931141307291 0.23499101300587588 0.14437028611199182 0.0034901918766339171 -0.52063839574760595 0.85377015609238971
0.39206506603151242 0.23495142337298486 0.14417055271954898 -0.0032734597010848107 0.51714905462700633 -0.85588909314231776
0.38346239686030792 0.23497251782186079 0.14454132460171334 0.0049495017518932146 -0.52061288053000021 0.85377850234042763
0.37315843685398659 0.23310523707516501 0.14350146542644507 0.0055347983676749266 -0.52093413974544556 0.85357892901283694
0.36668871617467214 0.23413595084479882 0.14419332947164973 0.0058019790954081558 -0.52072316379441541 0.85370587659129471
0.35292008189598972 0.23482071292648679 0.14475007508679805 0.0062542635952570272 -0.52051472387318409 0.85382978773178442
0.32286837847327415 0.30066238847579474 0.18493589806897709 0.0053214285016940652 -0.50826819937963907 0.86118239641674088
0.32747488945204495 0.30100178995568594 0.18508832203752995 0.0053814806128973406 -0.5085634532651695 0.86100769663773558
0.55756061128872492 0.16288737354104993 0.10136873284700187 -0.015203558088411943 -0.52571944501662493 0.8505221437169429
0.36767620248050287 0.30093240774008906 0.18451748054260539 -0.001354192026812496 0.5147663201295305 -0.8573294593236932
0.37748011250312047 0.30080564349092542 0.18437810488070469 0.0040245068872321651 -0.51189048068432363 0.85904129070091084
0.78755585432689201 0.23022630427673565 0.14400177813179169 -0.0043789795152803599 0.5225014733647696 -0.85262713707109372
0.7817509580865627 0.22979097295074269 0.14374305200958912 -0.0044979404864588001 0.52258553079155856 -0.85257500053583857
0.58261681669761112 0.16292669805753915 0.10215596328439992 -0.014485558123658607 -0.52626515311979327 0.85019712844589557
0.58754712040218815 0.16294684488412076 0.10208933406840116 0.015896896569331496 0.52157293123254866 -0.85305859475475132
0.77851351146859638 0.22934550172293972 0.14346856377593273 -0.0045239458742479385 0.52271865948197815 -0.85249324744721033
0.75910278054394964 0.23017853361136525 0.14408851152693189 -0.0045485054614438263 0.52262149055967289 -0.85255268969328402
0.75296142982712488 0.22846276243628569 0.14305082492629634 -0.0045140846506963352 0.52276780988843097 -0.85246316048508486
0.6074894428249823 0.16232200043503117 0.10257936598478902 -0.01143872275532737 -0.52768400776100355 0.84936372866694265
0.74198467521738043 0.23013493355704323 0.14408352416063169 0.0056038170429766271 -0.52712055520882406 0.84977203855557037
0.73216348822952759 0.23006356439047451 0.1441971070669569 -0.0038741078830174061 0.52246787962999797 -0.8526501662716337
0.72759421895772425 0.23009965799521592 0.14425065417793667 -0.0035067032028812633 0.52250967314081531 -0.85262614580302731
0.62737594182067624 0.16260330886464078 0.1032379517372846 -0.0077555395735163226 -0.52892112976360306 0.8486355460947399
0.72303610243201177 0.23022851504471253 0.14437455348291198 -0.0030366301034141074 0.52247851528031941 -0.8526470430067109
0.71684526234530555 0.23018319515689126 0.14438480991687522 0.0042131075501869626 -0.52513598630662028 0.85100789985201875
0.70736327918456465 0.22954045595556363 0.14406175999113033 -0.0014633091488416023 0.52242503244619187 -0.8526839650186524
0.70283695706786431 0.22990680971902996 0.14432889272333174 -0.00079517595098062179 0.52227462544275038 -0.85277698333963126
0.69743489672840642 0.22978959230026866 0.14432938494823253 0.00252886325606192 -0.52380913495781445 0.85183190535772857
0.68720785071891921 0.22986747235957683 0.14445395408556416 0.0013318577006549385 -0.52323586103731312 0.85218686910771313
0.6823458189944076 0.22990459248276213 0.14443347209441501 0.0024192159072326069 0.52187133078529102 -0.8530207860883483
0.67801075928113264 0.23000017196911049 0.1444875368475371 0.0030179585494170083 0.52188090067764359 -0.85301302301552551
0.67229103315577132 0.22966004580121996 0.1443971427005584 -0.0012489861419560605 -0.52232277543868044 0.85274694856777467
0.66288552189058092 0.22986676341219581 0.14453739244461206 -0.0034083696070642128 -0.52160452536538482 0.85318058002686237
0.65583846553341318 0.22873665396661311 0.14363166998943042 0.0055735062190125197 0.52168225084326103 -0.85312165907538395
0.65256721418757824 0.22904798938261101 0.14379870022603247 0.0058377047804574964 0.52168549314288171 -0.85311790946337807
0.64773603595132789 0.22965162203005096 0.14430457699853114 -0.0066903093935335705 -0.52093009439973759 0.85357312311769717
0.63715583863917835 0.22968872260839504 0.14405089510036248 0.0070677149079622654 0.52171211587466004 -0.85309232534091228
0.6322371431811209 0.23028368983178318 0.14435334578156547 0.0077536167132938316 0.52168687953333803 -0.85310179999261038
0.70769272650956916 0.1624723793430195 0.10222836609858967 -0.004702743073994463 0.52628317108178002 -0.8502963648303371
0.62791138810580316 0.23038668518373209 0.14435879352963929 0.0082158175312424218 0.52171329635381258 -0.85308131895495887
0.62143588405167005 0.2302569219703911 0.14422575900124962 -0.011348719087204577 -0.52075991365444274 0.85362774023909105
0.61158868450384629 0.22950199334459251 0.14352196049822888 0.010550543859254536 0.52190519728933893 -0.85293824575208843
0.72767255233682282 0.16240851808657217 0.10244286266298126 0.0086866726241349463 -0.53653083438864768 0.84383600626480892
0.60828849729425838 0.22959194108484154 0.14350014877022471 0.011042991309496876 0.52194362138192174 -0.85290849945446279
0.60301328933234533 0.2305130670962417 0.14388975773095083 0.01225286394098162 0.52218114632849899 -0.85274657298889123
0.59708038550661513 0.23052892350584939 0.14373809408463956 0.013016182907970844 0.5223146870150549 -0.85265347399214386
0.58666583778843651 0.23063929664100155 0.1435524975048105 0.013824396913722467 0.52241548461964948 -0.85257899779409807
0.5755656465567095 0.22941646169051788 0.14243876002638328 0.014628688744388172 0.52278771724711492 -0.85233737695889555
0.56611712978973538 0.23044675113356466 0.1431439790830896 -0.014604625941300556 -0.52168623602845732 0.85301241259408145
0.56327601949802442 0.23033711223106698 0.14271823458361044 0.014319915691629277 0.52296632570642754 -0.8522330445316606
0.55942249811748113 0.2307334782072972 0.14286418313043489 0.014276037933013248 0.52304221394637629 -0.85218720781938995
0.55016228104538378 0.23007193786881322 0.14254239267736674 -0.014407178419476835 -0.52215672882464181 0.85272784858543171
0.77764211150714391 0.16296301253719972 0.10205972445295723 0.0090479988804567039 -0.53835046848027956 0.84267247896399389
0.5388273586936122 0.23075138033511253 0.14273516501414465 -0.014002086338527191 -0.52222767304145168 0.85269115105522186
0.78652418638652388 0.16338659232469113 0.10223085035593009 0.0090146354116831511 -0.53837791717683725 0.84265530001580413
0.52173822642659951 0.23141450046637288 0.14281411596054175 -0.013002542672465499 -0.52223251411988703 0.85270401375862692
0.50545349407478313 0.23091682929375085 0.14219785132424101 -0.01134875897140881 -0.52208512602635015 0.85281787437404177
0.47653509420660295 0.23151126582062678 0.14213693836117072 -0.0073138082611651188 -0.52155425397912403 0.85318677226325901
0.46749415485459539 0.2317686210181209 0.14221924636046787 -0.005871416308239754 -0.52132624253771886 0.85333725766079072
0.46423778484509703 0.23150782076945517 0.14203554696829154 -0.0053543984292274485 -0.52133344793255099 0.85333625639850741
0.65535749220048023 0.22644814124423779 0.14222104997781185 0.0054730576642420875 0.52179416587256022 -0.85305386354037627
0.65243847560725843 0.22639957136957428 0.14217162689229637 0.0057569723272708345 0.52176309268839671 -0.8530710007835588
0.49237265943993691 0.23558770084802694 0.14463989503454849 0.0083879041924160187 0.52214204187441415 -0.8528172906141599
0.41251067093940497 0.30124585405034354 0.1841829266542982 0.0010854455097246288 0.5148300790979391 -0.85729155569389293
0.78774102449898298 0.23153471577095833 0.14457316614504931 0.0059031076007590912 -0.52877935220413286 0.84873879963345122
0.77234434983925304 0.23124718244471137 0.14450193002313413 0.0059215410577244535 -0.52852145298270103 0.84889929266583575
0.76245683299626088 0.23117482595940506 0.14466780647860716 -0.0045776753882828336 0.5227285287939778 -0.85248690903316693
0.74754030972404972 0.23129479288007609 0.14473516438293241 0.0056082221663738448 -0.52735639791683575 0.84962566899800795
0.6977804285279231 0.23095602433850718 0.14504863698423942 0.0024730151322632427 -0.52366236273866762 0.85192230517055456
0.68753719468098085 0.23108959532890311 0.14521095689053148 0.001245351707338981 -0.52298296695525837 0.85234222315558217
0.68306451923302569 0.23127652635950433 0.14527532845367463 0.0023381952003290697 0.52183836495661706 -0.85304117937096657
0.6772086319268108 0.2309047373942037 0.1451583007543864 -0.00042355672282915093 -0.52235826170557276 0.85272602108041406
0.67246092242785049 0.2308307725779323 0.14512755743404998 -0.0012126595669375881 -0.52207494444083491 0.85289875239906054
0.38754834657094672 0.16763480092966537 0.10281483344864072 0.0024465419956527239 -0.52759907070405421 0.84948998524083963
0.39242922758723642 0.1676911859473347 0.10287312614927781 -0.0017082218302682988 0.52384648329384786 -0.85181097898468483
0.66341272115980476 0.23221888475589092 0.14599640629298485 -0.0033905952920982234 -0.52121228393501973 0.85342032957904479
0.65721628047922465 0.23091267994503167 0.14516618519403876 -0.0046002261306177404 -0.52112938465919278 0.85346529066171062
0.65349140456456445 0.23079244803929852 0.14487814474900676 0.005774503208259652 0.52159596304480782 -0.85317308117875901
0.41081087293732377 0.16742064961888073 0.10266818081475076 0.0008781986491521853 -0.52763400340171462 0.84947135750501446
0.58245493577979857 0.23180455942590567 0.14413846610093686 0.014318743795284051 0.52245890936419592 -0.85254422853134137
0.54247683781335287 0.23180994469505356 0.14314623744602817 0.012971506720927724 0.52314216298266103 -0.85214671114967744
0.53257828700602017 0.23205920112731651 0.14308659690105363 0.012262417148769446 0.52317424633841769 -0.85213751301881924
0.52747786970115973 0.23192148491033096 0.14324322024175329 -0.013383741594643866 -0.52217443104027139 0.85273368587660281
0.5127554221374846 0.23265125748818874 0.14310851355528592 0.010157061155916773 0.52285122100025694 -0.85236344056230817
0.50253957891154999 0.2323020227134136 0.14301169388252197 -0.01115032329466422 -0.52198095542730227 0.85288425502035459
0.49267070474078256 0.23226411667675118 0.14282524210539996 -0.0098553327457777794 -0.52178304896726202 0.85302129060586629
0.48743139292629861 0.23246723560828397 0.1426692955691414 0.0078089504038472216 0.52204503569016236 -0.85288217299041225
0.48230729197181205 0.23266637874838522 0.1427427505651617 0.0074647558891877148 0.52186337676168981 -0.85299642051675773
0.45740093316533792 0.23248705783370169 0.14245149428418294 0.0049352365750407962 0.52047581356499095 -0.85386214984258968
0.45240477499981518 0.23269613261195354 0.14271569304257678 -0.0033761544323140207 -0.52096145588665643 0.853573525281627
0.43250341838735706 0.23252438977200712 0.14263163288441569 -0.00045405160320822455 -0.52081346916515658 0.85367038379769045
0.42754115213192234 0.23260989637653753 0.14270645743937627 0.00028392234858474883 -0.52085768075126437 0.85364348283725211
0.4124530716144823 0.23255827944704643 0.14259029776678595 -0.0018273246078427329 0.51745723244852981 -0.85570711897908491
0.40766912755485235 0.23227935112254736 0.14265785467859959 0.0028047429647900315 -0.52083957979888951 0.85364996663258752
0.41742491163309253 0.301297622770337 0.18439780423426358 -0.00046642899621532493 -0.51246474736383074 0.85870813735128693
0.38233444472148703 0.23250717094374496 0.14303697087359554 0.0049385748897081963 -0.52100137120649848 0.85354155240328344
0.42241254788374116 0.30136887486996966 0.18444297132813847 -0.001165288118149985 -0.51240775673955408 0.85874148201699196
0.44258430313072883 0.30136842061496638 0.18432756870914374 0.006524507607129173 0.51698160796814374 -0.85597163961381162
0.44269983948852071 0.22858733580011117 0.14019547667307344 -0.0015321924755598462 -0.52144106790900269 0.85328592223482558
0.4375470929815054 0.22870758262137469 0.14014300335982952 0.0016313144386323243 0.51897781202662596 -0.85478615421475934
0.52245995699725345 0.16710919811257038 0.10285897337863521 0.012595550216902358 0.5233618301413151 -0.85201745690206765
0.41760924117133419 0.22873855290779477 0.14041218499015701 0.0016412176958226395 -0.52135461555841534 0.85333854433068457
0.78835382108367213 0.2239019115096321 0.13984524598845691 0.0065644636418341982 -0.5295654022850067 0.84824371056896963
0.78251607068611995 0.22506592644375781 0.14060650520889917 0.0065011391168359224 -0.52936655601916383 0.8483683071394128
0.77736952862011255 0.22577973850139937 0.14125243393066905 -0.0044355224476461405 0.52304619417912934 -0.85229279293875571
0.77242778782161869 0.22448433720843847 0.1403198578339554 0.0065480687417027849 -0.52918861301808418 0.84847895356794223
0.76278401054787803 0.22461640512953962 0.14047882757648372 0.0065544972572569053 -0.52896171314010909 0.8486203771991252
0.5575791476805928 0.16636944373948725 0.10346559228881332 -0.015294050483526951 -0.52541808387776401 0.85070672335066577
0.75665861341754614 0.2235540216251993 0.13994781325144071 -0.004598461574664283 0.52329362560488124 -0.85214003283054651
0.56746442833342692 0.16628626014032455 0.10370248294051287 -0.015266097492604538 -0.52554272656303103 0.85063023037277574
0.57316357225739045 0.16607409639468554 0.1037545929975698 -0.015086368673001647 -0.52559334293735482 0.850602162788338
0.75299552789656743 0.22337897038864415 0.13980082130806698 0.0065271195946151475 -0.52859317626541635 0.848850193329445
0.58265747677626234 0.16724522550284082 0.10476014278935342 -0.014619940058598707 -0.52576953264963466 0.85050141439627691
0.58738405211628242 0.16693480601188818 0.10470558843372156 -0.014305451540241512 -0.52589607993939169 0.85042851972438627
0.74720067948870461 0.22383231851399066 0.14014125545064435 0.0063575375843671032 -0.52819049371220961 0.84910210461870572
0.73223300720439666 0.22404575969472651 0.14041814190813084 -0.0040721779594887356 0.52314742567452321 -0.8522324732001153
0.72778230694683566 0.22417362742946106 0.14053064166487708 -0.0038109927268279772 0.5231416723043123 -0.8522372128891601
0.60731933491442347 0.16558753923677416 0.1045569408845618 -0.011639806245426843 -0.52731344564198501 0.8495911045648642
0.72184435089996413 0.22356168255578709 0.14024529946908079 0.0051848751073846015 -0.52627414148894724 0.85029915034074477
0.61756304878797474 0.16606026748885158 0.10511418593096131 -0.010021514093578 -0.52782128127793604 0.84929633478862376
0.71266534761001032 0.2232944315371129 0.14017620996269473 0.0044494939413605552 -0.52556247864300765 0.8507433708506249
0.62729162530619598 0.16663665937746847 0.10567716616184696 -0.0080432235647343916 -0.52821624704312742 0.84907178902279024
0.63274981489075532 0.16636837178290723 0.10523026938708815 0.005690636728076022 0.52199200323579276 -0.85293139537216789
0.63722586015375282 0.16608296901374667 0.10509659242091599 0.0042643030954891059 0.52214626220904437 -0.85284529463451564
0.70760715655244599 0.22351136606843713 0.14037030963899957 0.003921631388247475 -0.52511256630526482 0.85102374438998674
0.64823345388199072 0.1665534287451346 0.10594241722222678 -0.0032606015149185415 -0.5298058768387427 0.84811267019476366
0.7023030472444951 0.22340219195456643 0.14035598717457598 0.0033479095415500041 -0.52473804465861107 0.85125717382560662
0.65746886126362936 0.16616099814610205 0.10515794676241838 0.00050116928071290972 0.5229482205327991 -0.85236430443263589
0.66115464252065725 0.16643821210276252 0.10591405323849938 -0.0005077840593621125 -0.53068794441000444 0.84756713469390321
0.67341135537457708 0.16543374780396694 0.10524825699944142 0.0020780821316463546 -0.53182249646608803 0.84685330124362845
0.69744691106748025 0.22357094273478306 0.1404991709568123 0.0029150648716708767 -0.52447910649590213 0.85141832799514849
0.68244125403748246 0.16572894271077454 0.10463850302014291 -0.0034876560156860501 0.52449224350049417 -0.85140808239253551
0.68734268559641176 0.16625535760316679 0.10489403244509188 -0.0037418703565151095 0.52481186164269578 -0.85121002595444273
0.69262377133752073 0.16599616439545725 0.1053569167530833 0.0051903097246391748 -0.53293412291250553 0.8461408164841363
0.6879888446144975 0.22369801302529602 0.14064549996896106 0.0017929662626154958 -0.52396238773042259 0.85173951506068757
0.70356233162093684 0.16396310277705264 0.10388505728245208 0.0068466806688116839 -0.53420177245730205 0.84532927860526419
0.70780981323546566 0.16549042442741002 0.10476037447169327 0.0071148146188647092 -0.53417413034197037 0.84534453206153692
0.68299252485096751 0.2238624152777394 0.1407772893516889 0.0010620208767213751 -0.52372845952908365 0.85188460063024396
0.67726392321724027 0.22384420361868976 0.14079926698293743 -2.6124326319345313e-05 -0.52331977719636147 0.85213637999599001
0.67194643925530295 0.22374628716278888 0.14074887015541593 -0.0010513258970193909 -0.52302410694911583 0.85231724038877577
0.72820851591869051 0.16606231370290947 0.10470797211449925 0.0086286152153127686 -0.53574987648310235 0.84433264584984902
0.73284002910920543 0.16615223428707776 0.10468301232130056 0.0087881964621679617 -0.53611077713471234 0.84410189091303256
0.73705203128670893 0.16668111174243325 0.10493010929514225 0.0088918105925033901 -0.53622692815400985 0.84402702399088003
0.74265614440068961 0.16716735371763614 0.10514350401068201 0.0090071006006037079 -0.53654433706319793 0.84382406134465271
0.66293366429803557 0.2238365269531451 0.14080299167134971 -0.0029445481352694917 -0.52261271042745161 0.85256512040779131
0.7524060703069354 0.16648193289002894 0.10433823165904874 -0.0027907013758310928 0.52731491268906294 -0.84966534285067596
0.75703874589508791 0.16736072694695295 0.10507001189569332 0.0090508573736520926 -0.53711505682373017 0.84346043043763652
0.76325090832264209 0.16568662750035176 0.10393866087272675 0.0090551956938750445 -0.53745892341745138 0.84324131129226565
0.7679944526142124 0.16596963127097164 0.10406287501070763 0.0090456710613153971 -0.53764480038582951 0.84312291183025734
0.64763096496339378 0.22399374357471788 0.14080321482861735 -0.0062193969927803062 -0.52191192145541254 0.85297670855877739
0.777707823272071 0.16669739709575657 0.10441760451561884 0.009011387092699736 -0.53774134724107192 0.84306170495997657
0.78242064443265413 0.16692716952939432 0.10451183382701706 0.0089898219443080365 -0.53775884867038948 0.84305077176769538
0.63743895384500726 0.2234630333755297 0.14033479815941774 -0.008553880841599493 -0.52162943694679209 0.85312927603799915
0.63310689495244965 0.22373513622079017 0.14034229638015464 0.0076598145214860861 0.52184133121055731 -0.85300817832063602
0.62754936625920421 0.22419745283998171 0.14055331431755536 0.0082287368781102359 0.52187030045149974 -0.85298515660945251
0.62212620405230612 0.2237886603000471 0.14024633200217562 -0.011291710855308534 -0.52137355162478549 0.85325384085400824
0.61238914768680897 0.22403974145248354 0.14019982560212541 -0.012371234539263332 -0.52143470129821767 0.853201503068304
0.60780394270041005 0.22384875165095031 0.13998687921348163 -0.012776616968354264 -0.52145813101228922 0.85318120915782836
0.60257462028785302 0.22432951460902259 0.14016080674733394 -0.013220878101963202 -0.52155248674146282 0.85311676337768039
0.34265632583929151 0.17177878075762448 0.10563938545184792 0.0048608464793218091 -0.52656887658832197 0.85011857430597115
0.34740674122458054 0.1717198997305609 0.10556165820813515 0.0046580717971504279 -0.52671653757038195 0.85002822977651804
0.35237679402384986 0.17150896661615567 0.10539591134906304 0.0044782467334051786 -0.52681579266435863 0.84996768521257215
0.59264958443942028 0.22410113363282869 0.13978250938288636 -0.013982030973327536 -0.52177812640765364 0.85296664038658609
0.58718638058448502 0.22405826246853847 0.13963160290496687 -0.014301056888520488 -0.52185867756994697 0.85291207074165476
0.37381783081941589 0.17101420719204374 0.10496809915614894 0.0033417676343605175 -0.52725034592100273 0.8497034219745504
0.37765770472636645 0.17106546283773333 0.10498421488093422 0.0031280709396159893 -0.5273232355403028 0.84965900244245229
0.58213771593170549 0.22410572855041186 0.13954278858610122 -0.014479631434585954 -0.52197818863838019 0.85283592258963514
0.38727904490869297 0.17109187606123694 0.1049742611279763 0.0025888415157469592 -0.52739698467957263 0.84961504132783627
0.3907929082288023 0.17146337380907062 0.10519977350839226 0.0023963781720501573 -0.52738015094101431 0.8496260552531858
0.39884088645305554 0.17038350875302477 0.10451560574130468 0.0018741906288257005 -0.52746317154632716 0.84957582950068478
0.40261098033393139 0.1704204679184462 0.10453858150198575 0.0015843472475180612 -0.52743326218694342 0.84959498808705214
0.5775415853018534 0.22464738958774527 0.13977868256021342 -0.01460142693897719 -0.5219709533073349 0.85283827437256698
0.41404674550927228 0.17174963911046906 0.10536910324367051 0.00079619300961129001 -0.52722526911303291 0.84972518009376508
0.41786078394028092 0.17124674714333465 0.10506004019165993 0.00046921231000331527 -0.52726736097867655 0.84969930557014717
0.42181281614955146 0.17119702919123739 0.10504753412420226 0.0020283488995082978 0.52489507998405793 -0.85116452041263524
0.5674540374407866 0.22437865699712731 0.13938077619100023 -0.014774163435813423 -0.52221857927585913 0.85268369255772392
0.5621332903870685 0.22497303847550609 0.1393310720648146 0.014593008942002359 0.52311024927698446 -0.85214007721230312
0.55818462887266651 0.22491535508561863 0.13949212749908008 -0.014743226295529335 -0.52244358702089044 0.8525463832889939
0.44289055765764374 0.17160300013090055 0.10532329363914703 -0.0022685103158175276 -0.52700801246136086 0.84985728723267007
0.44718875166785149 0.17136809242433709 0.10518964362883497 -0.0028802437200560727 -0.52704953757711293 0.8498296824281113
0.55260017144351059 0.22497080069251493 0.13939826825982776 -0.014631565549140363 -0.52257079517276084 0.85247034043542513
0.45817110384964616 0.17061621543066346 0.10476930695556212 -0.0043752119841376389 -0.52708308664003489 0.84980249311125666
0.46294691798495385 0.17129776277048284 0.10517868381291168 0.0055604211260335103 0.52502842269242367 -0.85106652917501513
0.46753407561317817 0.17123985862415703 0.10519503198773093 -0.0056069331938852617 -0.52698458041087193 0.84985634921987641
0.47307895795515997 0.17118089747651016 0.10519348548535046 -0.0061899335672079671 -0.52701407479549478 0.84983401302247374
0.54042283081185971 0.22431560034310852 0.13872188137025215 -0.014188370580520639 -0.52281422004455669 0.85232856426349557
0.48234360955278116 0.17098340621370636 0.10512537544510182 -0.0075509644716932863 -0.52695280536156908 0.84986100266874209
0.48758116424996467 0.17070716549334505 0.10498743627793009 -0.0082776377246357013 -0.52689255506408572 0.84989159081128651
0.49302404110383985 0.17099164410234755 0.10519707014236347 -0.0089482186617052782 -0.52673964517101801 0.84997957362979748
0.49740664717265859 0.1713896911627788 0.10547660389033094 -0.0095355796755347139 -0.52663889825201693 0.85003561311756415
0.5328809642875928 0.22479390000295135 0.13886303669173186 -0.013763010365056439 -0.52285258918532307 0.85231200245443872
0.50732769252762644 0.17086503667780886 0.10526472109629056 -0.01096179878746166 -0.52652138602842524 0.8500912121778752
0.51237572688442046 0.17074096546052669 0.10525186974809267 -0.011650380130427797 -0.52636418587357414 0.85017940016943849
0.51783341918057135 0.17132980943908219 0.10568906551908505 -0.012272513005464369 -0.52622363937007055 0.85025764730030429
0.52251031164137463 0.17079179023828911 0.10543273865623418 -0.012916262188406805 -0.52609505855268079 0.8503276777440163
0.52726841864889329 0.2249495300214977 0.13884340105048598 -0.013441674738404899 -0.52290881366413933 0.85228263737599941
0.53242674719640848 0.17096609558152961 0.10569703852104065 -0.013949454906308112 -0.52570435366261914 0.85055296439903427
0.53717202040071443 0.17043279330122016 0.1054620170845833 -0.014381036280750726 -0.52554781814219109 0.85064250813222009
0.54215600502695382 0.16994320841014798 0.10526812214370324 -0.014791481322635481 -0.52543236028496043 0.85070679252352133
0.54739068292119164 0.17028869952207612 0.10559665646536036 -0.015037249198784821 -0.52535120901943788 0.85075260112346907
0.5188083664799148 0.22508800612319638 0.13875939260529083 -0.012733017191450792 -0.52290730559666543 0.85229444444208236
0.55849002926634561 0.1704048725768269 0.10594089510757461 -0.015362662243309289 -0.52523747301594481 0.85081701061310633
0.56152447373617653 0.1700180335196354 0.10557600219614703 0.016618160535988129 0.52204039100939326 -0.85275885623965231
0.573258602398932 0.17046839825941049 0.10641976296592467 -0.015211685137381584 -0.52532053649313126 0.85076844004338203
0.51278050358247051 0.2246810714884504 0.13815736617509311 0.0098334050912967357 0.52303788947238605 -0.8522527033225431
0.58292020795427524 0.17002560798849489 0.1064489376024082 -0.014695908804496425 -0.5255273819839692 0.85064975227733131
0.58691697490085781 0.16987130876780043 0.106258019188481 0.015907743958731822 0.52166877476645857 -0.85299978494475914
0.59863485700996633 0.17033874707047561 0.1071311851677221 -0.013237582083408844 -0.52606122342605899 0.85034366912917225
0.60306091738730749 0.1698141073818725 0.10671233707822063 0.013312208801345565 0.52159380986165127 -0.85309007883742083
0.50802526276575655 0.22583183637421847 0.13880982292818964 0.0095003709793864601 0.52291994319626733 -0.85232885435075267
0.50125946078245576 0.22514559155202829 0.13848798514273808 -0.010768240653487445 -0.52269104331319471 0.85245417368524423
0.49087796328025279 0.22522165567548125 0.13824253484057583 0.0080394659710460396 0.522407654096954 -0.852657967726695
0.48831593724067379 0.22534425005107359 0.13829796111514131 0.0078030944927650111 0.5223229168847553 -0.85271207462621168
0.48430040223248327 0.22593971681729919 0.13863176674075278 0.0075696810758302258 0.52218667303342803 -0.85279761868493165
0.47789930651568818 0.22539915987309189 0.13835522249738577 -0.0072516566874291435 -0.52218226354462594 0.85280308226149049
0.47097045831167744 0.22539514798169724 0.13829552351519631 -0.005968973312686976 -0.52198833741401918 0.85293173640177122
0.46254641460242762 0.22515269902484264 0.1380139806329054 0.0053469270513391773 0.52107489827321929 -0.85349420663567588
0.65753671569238492 0.16938766880699857 0.10713745643130658 0.0008784363761208438 0.52293124588016915 -0.8523744132901615
0.66071694676302006 0.16982128540482258 0.10738458041948175 0.00020113774434279963 0.52311954471748878 -0.85225929239766873
0.67379087075280486 0.16905095445050269 0.10744903605690113 0.0018730558025336929 -0.53090443807504983 0.84742962498025531
0.45728026881946349 0.22587793258116853 0.13853323744122081 -0.0036394066011792548 -0.52180978453179772 0.85305410349313149
0.45271579118826638 0.22551954249613149 0.13830983007617903 -0.0029800907111828361 -0.52177753549173278 0.85307638726876422
0.44728652470587316 0.22570020612589622 0.13842253007213767 -0.0021432852374451438 -0.5217316741982625 0.85310694902026729
0.44268751130303108 0.22564045122500051 0.13839497934815603 -0.0015010009488108337 -0.52172963962304042 0.85310956514094016
0.43560944867281631 0.22529638131587887 0.13820684510458311 -0.0005564268224005982 -0.52177399746822117 0.85308357501198206
0.70464604765902628 0.16990560220422843 0.10691026166133993 -0.0042647404151606415 0.52581292824897419 -0.85058954641791273
0.432014199653104 0.22576426464297294 0.13850309209419148 -0.0001477340766994179 -0.52165294509519788 0.85315777148669802
0.42616833959098499 0.2253721579567578 0.13829511738214531 0.00054573586870688116 -0.52168386768567943 0.85313870171788131
0.41753608614433368 0.22597187729619536 0.13871865239593351 0.0016229312557729172 -0.52172475567308008 0.85311232871879417
0.41225703667537528 0.22505645978820041 0.13820005378980177 0.002273881871718958 -0.52188881117581254 0.85301049127823192
0.73446970944025425 0.16989709804222439 0.10657671714428062 -0.0038052788321743082 0.52694659647726272 -0.8498898777571352
0.73726786650575082 0.17012195451895445 0.10706983017087174 0.0088212815516765571 -0.53548367161503585 0.84449951002085644
0.40763823479936684 0.22519185533004285 0.13831533297666918 0.0027253456435926767 -0.52187072830930148 0.85302023154497464
0.74694002859110498 0.16992316938465199 0.1068010903269868 0.0089592244776947605 -0.53607745150620378 0.84412125804493998
0.35201107055007075 0.22498312160021433 0.13868673383264207 0.0061387649898157759 -0.52184827926305111 0.85301623020584572
0.78640548256055143 0.22092910682216407 0.13802276546785419 0.006857050407977244 -0.5298925467789225 0.84803706860481631
0.78322268547009244 0.22063776697119158 0.13786432035672119 0.0068511449047173869 -0.5298326029044973 0.84807456907570333
0.78350947993215181 0.16982409209983446 0.10637866279943911 -0.0016684120950973438 0.52695027586411891 -0.8498944776663806
0.75624503539145937 0.2198737045338357 0.13763782074999439 -0.0045997644772322113 0.52367963477178614 -0.85190285965715751
0.75255068347650989 0.22056976710995901 0.13809955565047291 -0.0045935337449517742 0.52357360265251507 -0.85196806398667324
0.71771783057527228 0.22063312216805916 0.13848551722247651 0.0050967206341494108 -0.52621865578323845 0.85033402245497569
0.34382948085841214 0.17479991371871417 0.10758910806846154 -0.0070541698678913221 0.52196231107876367 -0.85293937914765716
0.34699739884037389 0.17463918575282855 0.10738854723704473 0.0047918976223523257 -0.52654648014500227 0.85013283783423266
0.71124631006334427 0.22026409351862844 0.13832272081964292 0.0045586317245909771 -0.52577982441785609 0.85060848521039822
0.36970126138661807 0.17463103359983789 0.10726849294990576 -0.0049509801247140601 0.52245265825251119 -0.85265392022830078
0.70784292898565404 0.22029822189644113 0.13837715815122309 0.0042293363224461386 -0.52552925180198218 0.85076501938826821
0.70370864247901166 0.22057735373775841 0.13849849820531843 -0.0015123670432609536 0.52315703764710852 -0.8522349598005402
0.68992480371525933 0.22041484368095993 0.13861313310532361 0.0021335751759302582 -0.52432131893711409 0.85151782269369658
0.67055337579543062 0.22032323828201328 0.13864034318964338 -0.0010961805584813692 -0.52342983329073356 0.85206807709796173
0.66815180345332081 0.2196170070268301 0.13807845226290688 0.0036640957080803821 0.52217154436478108 -0.85283260529739446
0.39878245490415049 0.17451525131127285 0.10709356469615475 -0.0015408128090243841 0.52351283807222859 -0.85201639319290579
0.40334176058997701 0.17428390040185054 0.10694838861324377 0.0016638687063164779 -0.52713435202683456 0.84978032835208506
0.6424131008335382 0.22033737196696024 0.13847915094296698 -0.0074724693285458188 -0.52207274201773823 0.85286822794861694
0.4181898002070078 0.17363340224124235 0.10655848146289239 0.0013898167805584179 0.524534851841573 -0.85138784206309626
0.42221852732211035 0.17405802081089319 0.10681337654310406 0.00015900533987339707 -0.52693092217027093 0.84990809972495829
0.63774825524702716 0.22067414567424351 0.13861817953009123 -0.0083239364759085874 -0.52197439309584803 0.85292053852264937
0.63357991161133342 0.22080037341874709 0.13862885139161302 -0.0091367563028334417 -0.52186997870956875 0.85297611045441168
