0.507097 0.319115 0.19567
0.502629 0.318496 0.195249
0.497809 0.318981 0.195429
0.492203 0.319207 0.195456
0.487421 0.318708 0.195153
0.482674 0.318775 0.195247
0.477348 0.318663 0.195134
0.472591 0.318613 0.195108
0.467506 0.318597 0.195045
0.462733 0.318461 0.194837
0.457544 0.318822 0.195003
0.452645 0.318945 0.194942
0.447542 0.318978 0.194828
0.442991 0.31862 0.194576
0.437389 0.318969 0.194735
0.432725 0.319063 0.194737
0.427427 0.319226 0.194621
0.422547 0.31923 0.194542
0.418035 0.318987 0.1945
0.412586 0.319454 0.194728
0.407822 0.319284 0.194565
0.402134 0.318759 0.194342
0.397418 0.31924 0.194732
0.392375 0.319078 0.195033
0.387048 0.319206 0.195137
0.382728 0.318812 0.194961
0.377662 0.318938 0.194861
0.372666 0.318986 0.194773
0.367089 0.319346 0.195065
0.362728 0.318782 0.194826
0.357812 0.318422 0.194448
0.352608 0.318529 0.194365
0.348853 0.318394 0.194174
0.340755 0.31995 0.194803
0.337203 0.319725 0.19488
0.332244 0.319025 0.194854
0.327134 0.319368 0.195316
0.322411 0.318592 0.194989
0.31744 0.318773 0.1953
0.312564 0.318741 0.195379
0.307509 0.318539 0.19533
0.302756 0.318414 0.195283
0.232456 0.319944 0.193737
0.792668 0.314492 0.194652
0.787502 0.314535 0.194239
0.782694 0.314923 0.194241
0.777364 0.314943 0.194312
0.772171 0.31485 0.194525
0.767508 0.314349 0.19455
0.762498 0.313757 0.194785
0.757371 0.313739 0.194966
0.747647 0.313733 0.195212
0.742441 0.313594 0.195137
0.737368 0.313877 0.194937
0.733028 0.314199 0.1951
0.727232 0.314441 0.195096
0.722756 0.314341 0.195032
0.717144 0.314171 0.19484
0.712573 0.3139 0.194598
0.707683 0.314231 0.194846
0.702467 0.31448 0.194923
0.697497 0.314229 0.194802
0.692757 0.314053 0.19469
0.687224 0.31441 0.194977
0.682852 0.314294 0.194953
0.677465 0.313939 0.19496
0.672213 0.313669 0.19493
0.667568 0.313869 0.194773
0.662998 0.313895 0.194813
0.657734 0.314341 0.195108
0.652663 0.314453 0.195241
0.647292 0.313957 0.195011
0.642645 0.313834 0.194919
0.637925 0.314336 0.195045
0.632271 0.313776 0.194531
0.627474 0.313965 0.194307
0.622442 0.314423 0.194232
0.617446 0.314384 0.194149
0.612554 0.314344 0.194205
0.607518 0.31416 0.194393
0.602221 0.313595 0.194255
0.597477 0.31366 0.19429
0.592494 0.314078 0.194465
0.587876 0.314193 0.194342
0.582577 0.31399 0.193975
0.577822 0.314347 0.193916
0.572559 0.315015 0.193954
0.567427 0.31473 0.193631
0.562387 0.314631 0.193716
0.558109 0.31488 0.193916
0.552395 0.315012 0.194024
0.547235 0.314323 0.19384
0.542628 0.314202 0.193761
0.537889 0.31228 0.192723
0.530477 0.314103 0.193573
0.527537 0.314277 0.193631
0.52346 0.314192 0.193545
0.516936 0.314093 0.193327
0.512482 0.314423 0.193459
0.506324 0.314131 0.193125
0.503147 0.313905 0.192941
0.497196 0.315536 0.193665
0.492539 0.315471 0.193506
0.487418 0.314568 0.192925
0.482894 0.314838 0.193085
0.477557 0.315216 0.193294
0.472401 0.315469 0.193465
0.467093 0.31548 0.193438
0.462555 0.315581 0.193283
0.457819 0.315683 0.19328
0.451908 0.315664 0.193026
0.448679 0.315702 0.192862
0.435924 0.315698 0.192758
0.426299 0.315855 0.192623
0.422715 0.315691 0.192431
0.506924 0.101693 0.0621026
0.512786 0.102346 0.0624862
0.418054 0.315537 0.192443
0.400981 0.315144 0.192356
0.397893 0.315322 0.192559
0.394359 0.315702 0.192978
0.385437 0.315199 0.192993
0.383518 0.315361 0.193108
0.377235 0.314633 0.192665
0.37403 0.315216 0.192935
0.362764 0.31497 0.192824
0.351505 0.315682 0.192855
0.349226 0.315486 0.192709
0.330784 0.315888 0.193128
0.326663 0.313893 0.191955
0.322561 0.314954 0.192747
0.317577 0.315706 0.193385
0.614212 0.103129 0.0643514
0.617373 0.101926 0.0635148
0.622347 0.101218 0.0631466
0.312076 0.315226 0.193315
0.307399 0.315933 0.193806
0.302981 0.316171 0.193997
0.261401 0.315352 0.19401
0.258585 0.314936 0.193943
0.252243 0.315086 0.193996
0.247404 0.314713 0.193623
0.797311 0.311121 0.192554
0.792572 0.311337 0.191996
0.691903 0.102178 0.0639455
0.788565 0.311567 0.191715
0.781995 0.311924 0.191688
0.779101 0.311883 0.19177
0.766062 0.311061 0.192422
0.762377 0.310417 0.192439
0.758902 0.310516 0.192802
0.747541 0.310847 0.19365
0.74134 0.310018 0.192977
0.737796 0.310052 0.192867
0.732499 0.310896 0.193231
0.727519 0.309897 0.192579
0.722641 0.309426 0.192205
0.718229 0.311083 0.193036
0.711931 0.310948 0.192898
0.708824 0.310188 0.192375
0.703986 0.310562 0.19257
0.692221 0.310974 0.192889
0.688938 0.311017 0.192986
0.675997 0.309983 0.192783
0.672773 0.310102 0.192952
0.667352 0.311251 0.193368
0.664519 0.31206 0.193816
0.651075 0.310609 0.193278
0.645859 0.310859 0.193448
0.641662 0.30963 0.192679
0.638338 0.310455 0.193019
0.633097 0.310957 0.193189
0.506539 0.105565 0.0651973
0.629882 0.310757 0.19287
0.612449 0.311139 0.19252
0.608991 0.311433 0.192952
0.603061 0.310825 0.192742
0.598864 0.310499 0.19264
0.590952 0.309915 0.192121
0.541037 0.105024 0.0653491
0.553187 0.105108 0.0663046
0.555084 0.106283 0.066985
0.583559 0.104633 0.0662675
0.586779 0.104568 0.0657988
0.593255 0.104772 0.0660534
0.587924 0.310322 0.192181
0.614618 0.105374 0.0658663
0.617452 0.105068 0.0657244
0.583222 0.310447 0.192008
0.643681 0.104952 0.0668574
0.654627 0.105565 0.0661728
0.578783 0.311232 0.192163
0.545825 0.311385 0.192208
0.544117 0.310476 0.191767
0.693224 0.104206 0.0654408
0.697325 0.104356 0.0653579
0.703532 0.106627 0.0664525
0.70629 0.10681 0.0665929
0.531134 0.311607 0.192224
0.527117 0.311163 0.191928
0.52344 0.310995 0.19174
0.51173 0.311887 0.192094
0.503371 0.311979 0.191801
0.641454 0.30674 0.191078
0.639425 0.306951 0.191164
0.491794 0.10901 0.0665559
0.703695 0.108681 0.0678602
0.706576 0.108133 0.0676766
0.622119 0.31957 0.196503
0.617617 0.319483 0.196348
0.611135 0.319248 0.196446
0.556409 0.319484 0.196195
0.551374 0.319483 0.19619
0.549123 0.319367 0.196174
0.531218 0.320083 0.19653
0.527245 0.320161 0.196493
0.522393 0.320403 0.196552
0.517602 0.320028 0.196363
0.599755 0.101439 0.0636432
0.51294 0.319402 0.196017
0.506757 0.320044 0.196075
0.503247 0.319991 0.19594
0.497062 0.320192 0.196045
0.492128 0.320799 0.196274
0.487845 0.320217 0.196005
0.482652 0.319674 0.195745
0.478005 0.319723 0.195723
0.514062 0.105366 0.0649106
0.473311 0.319536 0.195643
0.538326 0.104263 0.0646761
0.467062 0.320035 0.195739
0.462641 0.320097 0.19567
0.457147 0.320931 0.196113
0.558464 0.104047 0.0661966
0.561163 0.105675 0.0668625
0.452006 0.320891 0.195999
0.447803 0.320382 0.195698
0.593059 0.104226 0.0656737
0.598332 0.104787 0.066014
0.602221 0.104428 0.0655095
0.432351 0.320493 0.195571
0.613821 0.103701 0.0646626
0.61597 0.104029 0.0648631
0.427409 0.320549 0.195469
0.42282 0.320821 0.195531
0.642608 0.104359 0.0662657
0.647495 0.105416 0.0668052
0.651599 0.105278 0.0661194
0.417671 0.321132 0.195733
0.412253 0.321076 0.195621
0.687119 0.104063 0.0658073
0.691226 0.104961 0.0662136
0.697668 0.104259 0.0650218
0.407565 0.320489 0.195272
0.707338 0.106836 0.0663685
0.402975 0.320473 0.195271
0.397344 0.321175 0.195802
0.392567 0.320817 0.195971
0.389658 0.319865 0.19554
0.376474 0.319355 0.195096
0.372795 0.319169 0.194888
0.360936 0.32142 0.196103
0.357877 0.321361 0.19585
0.354903 0.321779 0.196075
0.347496 0.320323 0.195191
0.342396 0.32115 0.195424
0.338165 0.320897 0.195395
0.332519 0.319918 0.195388
0.32107 0.319872 0.195811
0.318786 0.319335 0.195654
0.305454 0.318949 0.195607
0.303095 0.31921 0.195732
0.467337 0.110467 0.0669882
0.235766 0.32238 0.195168
0.232111 0.321713 0.194148
0.483831 0.108193 0.0656689
0.487707 0.10801 0.06582
0.491632 0.108718 0.0663589
0.792843 0.314992 0.195296
0.507424 0.108401 0.0668983
0.51256 0.107955 0.0667809
0.517175 0.107894 0.0666961
0.788005 0.315226 0.194983
0.782213 0.315423 0.19481
0.777372 0.315243 0.194659
0.77273 0.315358 0.194985
0.542631 0.108149 0.0672804
0.767621 0.315031 0.195191
0.553108 0.10798 0.0675142
0.557396 0.108166 0.0678978
0.561559 0.108073 0.0678519
0.762675 0.314952 0.195611
0.757567 0.315013 0.195803
0.747461 0.314782 0.19609
0.582357 0.10728 0.0679965
0.587547 0.107855 0.0680198
0.592544 0.107732 0.0680896
0.597423 0.107694 0.0678874
0.602687 0.107617 0.0674855
0.742597 0.314978 0.195949
0.614358 0.107072 0.0670405
0.617222 0.107636 0.0674558
0.73753 0.315124 0.195618
0.732201 0.315297 0.195668
0.637336 0.106824 0.0684909
0.642521 0.106953 0.0683997
0.647448 0.107236 0.0681303
0.652582 0.107487 0.0676484
0.657316 0.108197 0.0676964
0.727738 0.31532 0.195622
0.722309 0.315579 0.19564
0.717504 0.315443 0.19556
0.712415 0.315403 0.195525
0.6828 0.10749 0.0686977
0.687588 0.107236 0.068237
0.692414 0.107814 0.0678143
0.69664 0.107803 0.0674193
0.702268 0.106349 0.0662974
0.707678 0.108118 0.0674372
0.712522 0.107978 0.0674684
0.707361 0.315345 0.195507
0.702243 0.315403 0.195506
0.697619 0.315341 0.195471
0.692316 0.315374 0.195487
0.687388 0.315651 0.195683
0.677463 0.315156 0.195672
0.672267 0.315241 0.195685
0.667254 0.315299 0.195611
0.662701 0.315216 0.195588
0.652384 0.315149 0.195638
0.647778 0.314997 0.195596
0.642312 0.315142 0.195567
0.637406 0.315401 0.195553
0.63225 0.315979 0.195546
0.627054 0.31604 0.195255
0.622556 0.316225 0.195089
0.617426 0.31619 0.194959
0.6125 0.316435 0.195193
0.607339 0.316001 0.195293
0.602471 0.315695 0.195301
0.462462 0.112586 0.0681179
0.467176 0.112852 0.0684318
0.47255 0.112419 0.0682878
0.476574 0.112059 0.0680294
0.48447 0.111708 0.0678401
0.48753 0.111961 0.0681567
0.492225 0.111884 0.0683882
0.496449 0.113082 0.0693927
0.504746 0.11387 0.0702746
0.507809 0.111589 0.068837
0.512514 0.112156 0.0693498
0.517287 0.111616 0.0691591
0.597567 0.315666 0.195323
0.592547 0.315847 0.195391
0.587289 0.316185 0.195346
0.582443 0.316128 0.195086
0.542632 0.11177 0.0693928
0.547306 0.11192 0.0694654
0.552926 0.111293 0.0691353
0.557185 0.111574 0.0695036
0.561459 0.112038 0.0698352
0.57747 0.316287 0.194916
0.572331 0.316401 0.194719
0.567357 0.316497 0.194649
0.582047 0.109826 0.0696004
0.562525 0.316443 0.194664
0.592347 0.110975 0.070136
0.597646 0.111247 0.0701415
0.602137 0.11129 0.0699246
0.557476 0.31633 0.194723
0.612858 0.112918 0.0710221
0.618185 0.111166 0.0699888
0.620361 0.111363 0.0702082
0.629436 0.111812 0.0715138
0.632644 0.109927 0.0705464
0.637882 0.109811 0.0705945
0.643351 0.110862 0.0711793
0.647063 0.110395 0.0703205
0.652111 0.109898 0.0694079
0.656806 0.112121 0.0702174
0.552481 0.31637 0.194743
0.547401 0.316484 0.194938
0.674276 0.109832 0.0702944
0.677281 0.110019 0.070875
0.682601 0.109868 0.0703909
0.687754 0.110639 0.0703882
0.692296 0.111058 0.0701211
0.6965 0.110944 0.0695754
0.707404 0.110801 0.0693539
0.711964 0.111386 0.0698317
0.718883 0.110497 0.0694629
0.723381 0.111796 0.0705788
0.542578 0.316179 0.194888
0.537298 0.316426 0.194874
0.532424 0.316504 0.194845
0.527603 0.316508 0.194816
0.522393 0.316381 0.194717
0.517289 0.316338 0.194606
0.512441 0.316754 0.194748
0.507571 0.316517 0.194484
0.502467 0.316686 0.194405
0.497496 0.316605 0.194239
0.492558 0.316603 0.194186
0.48748 0.316796 0.194216
0.482483 0.316763 0.194268
0.477523 0.316665 0.194173
0.472474 0.316731 0.194175
0.46718 0.11606 0.0702671
0.472666 0.115948 0.0703886
0.476833 0.116027 0.0702695
0.467541 0.316823 0.194145
0.487951 0.115803 0.070585
0.491901 0.115464 0.0706801
0.496692 0.114679 0.070441
0.462591 0.316967 0.194087
0.457461 0.316941 0.19403
0.539373 0.114465 0.07095
0.543262 0.115499 0.0716732
0.546944 0.115485 0.0716529
0.55332 0.114469 0.0709999
0.557484 0.114465 0.0710715
0.560516 0.114486 0.0711743
0.452472 0.316978 0.19388
0.447502 0.317222 0.193792
0.59798 0.114237 0.0720126
0.60083 0.114758 0.0722254
0.60951 0.114953 0.072259
0.613248 0.114554 0.0722045
0.616055 0.114284 0.0721119
0.693958 0.114226 0.0722802
0.703694 0.115118 0.0725258
0.707911 0.114404 0.0719834
0.712657 0.113079 0.0711308
0.719052 0.114925 0.0724358
0.722499 0.11486 0.0724377
0.726195 0.113191 0.0715361
0.442494 0.317039 0.19369
0.437401 0.316897 0.193565
0.476574 0.119265 0.0721167
0.488809 0.118393 0.072313
0.490915 0.118242 0.072374
0.546349 0.117788 0.0730998
0.723297 0.118311 0.0745661
0.733108 0.118944 0.0749264
0.432479 0.317082 0.193623
0.506586 0.107618 0.066503
0.558036 0.106351 0.0670612
0.561388 0.106192 0.0670425
0.614139 0.107411 0.0671102
0.638199 0.106487 0.0681382
0.642544 0.106187 0.0677507
0.647775 0.106426 0.0674863
0.651028 0.106811 0.0672762
0.687418 0.106035 0.0673844
0.690286 0.106315 0.0671024
0.70973 0.10692 0.0665333
0.71068 0.107228 0.06676
0.427696 0.317088 0.193486
0.469147 0.111039 0.0673743
0.471438 0.11096 0.0673623
0.489224 0.111228 0.0677226
0.503321 0.110299 0.0681265
0.507163 0.110196 0.0680203
0.42266 0.317015 0.193324
0.417447 0.317232 0.193575
0.541744 0.110731 0.0686893
0.557045 0.107711 0.0676203
0.563441 0.109394 0.0685353
0.566937 0.109619 0.068844
0.412526 0.317247 0.193436
0.407392 0.317237 0.193342
0.582878 0.109837 0.0695783
0.589154 0.110141 0.069552
0.592698 0.11012 0.0695075
0.59664 0.109686 0.0690888
0.60098 0.108389 0.0680359
0.614358 0.109588 0.0687261
0.61566 0.109746 0.0688671
0.402534 0.317262 0.193517
0.397612 0.317235 0.19367
0.63791 0.108312 0.0695522
0.642818 0.10868 0.0696566
0.647658 0.108794 0.069204
0.651533 0.109186 0.0689394
0.657603 0.10998 0.0688619
0.392521 0.316984 0.19385
0.387645 0.31672 0.193805
0.680174 0.109134 0.0700316
0.688369 0.10877 0.0690118
0.691924 0.109188 0.0687153
0.696957 0.109783 0.0687242
0.702916 0.109932 0.0685807
0.711523 0.107246 0.0668297
0.718703 0.110345 0.0693157
0.72123 0.110626 0.0696949
0.382312 0.316668 0.193776
0.377459 0.316777 0.19376
0.37245 0.317014 0.193836
0.367478 0.316898 0.193856
0.36243 0.317029 0.193935
0.468714 0.113427 0.0686999
0.471384 0.113947 0.069146
0.489091 0.113147 0.0689447
0.491243 0.113773 0.0695197
0.498209 0.115201 0.070796
0.502938 0.114181 0.0704399
0.507243 0.113819 0.0702654
0.512145 0.114154 0.0705557
0.357603 0.31726 0.193876
0.352553 0.317046 0.193645
0.347428 0.317381 0.19365
0.538068 0.114211 0.0706966
0.542571 0.113474 0.0704059
0.547051 0.113923 0.0706375
0.552122 0.112913 0.0699935
0.557884 0.112397 0.0698719
0.563115 0.112643 0.070297
0.566308 0.111673 0.0699071
0.342473 0.31747 0.193561
0.337733 0.317263 0.193578
0.332571 0.316968 0.193714
0.327518 0.316969 0.193887
0.59315 0.111837 0.070591
0.596963 0.112601 0.0709719
0.601986 0.113388 0.0713058
0.609287 0.113791 0.0715003
0.612997 0.113038 0.0710687
0.616758 0.113225 0.0713544
0.622786 0.114176 0.0723619
0.322685 0.316983 0.194016
0.631907 0.112361 0.0720874
0.638033 0.1125 0.0724114
0.642344 0.112707 0.0723603
0.64728 0.11199 0.0711855
0.652032 0.111386 0.0702388
0.657331 0.113265 0.0710059
0.662688 0.113599 0.0714309
0.666455 0.114272 0.0723878
0.674694 0.111825 0.0717875
0.677604 0.112446 0.0724317
0.681584 0.112577 0.0723763
0.68955 0.115084 0.0730542
0.69208 0.112861 0.0714252
0.696124 0.112666 0.0707998
0.70269 0.113642 0.0712988
0.707387 0.114147 0.0716942
0.711719 0.113158 0.0710831
0.718053 0.11321 0.0711595
0.721944 0.11248 0.0708891
0.317623 0.316819 0.194083
0.312692 0.31669 0.194191
0.307506 0.316703 0.194299
0.303041 0.316336 0.194124
0.231926 0.317875 0.192998
0.797067 0.312568 0.193639
0.792383 0.312527 0.193085
0.787527 0.312833 0.192712
0.782421 0.313053 0.192625
0.777527 0.313006 0.192663
0.772479 0.312576 0.192717
0.767644 0.312648 0.193347
0.762315 0.31228 0.193753
0.757608 0.312174 0.194133
0.467916 0.117746 0.0713008
0.472502 0.118192 0.0715925
0.752631 0.311984 0.194208
0.482162 0.118757 0.0720844
0.487956 0.118176 0.0720941
0.492199 0.116953 0.0715988
0.497759 0.117892 0.0724776
0.502625 0.117587 0.0726108
0.507428 0.117052 0.0723656
0.512016 0.116591 0.0722056
0.747375 0.31189 0.194332
0.742349 0.311854 0.194278
0.737414 0.311952 0.193979
0.732344 0.311915 0.193838
0.537413 0.117551 0.0728746
0.542246 0.117158 0.0726802
0.546955 0.117013 0.0726098
0.550032 0.115663 0.0717255
0.559249 0.119156 0.0740995
0.727542 0.312027 0.193818
0.594594 0.116545 0.0735288
0.597576 0.116614 0.0734346
0.602442 0.116847 0.0734746
0.607253 0.116856 0.0734968
0.612 0.115284 0.0724886
0.61765 0.116425 0.0735446
0.6227 0.116259 0.0738162
0.627633 0.116401 0.0746258
0.631892 0.116172 0.0747521
0.638576 0.116719 0.075106
0.642345 0.115958 0.0744036
0.647017 0.117372 0.0745981
0.654067 0.117783 0.0742265
0.657444 0.116606 0.073413
0.662812 0.11711 0.0740364
0.666385 0.116876 0.0742087
0.671624 0.116118 0.0743423
0.679256 0.115719 0.0743916
0.682139 0.116643 0.0747684
0.687719 0.116681 0.0742192
0.692635 0.116882 0.0739993
0.697436 0.116923 0.0737203
0.702861 0.116709 0.0736185
0.706927 0.116888 0.0736776
0.710184 0.116044 0.0730145
0.719077 0.116772 0.0736099
0.72054 0.115864 0.073045
0.729133 0.118482 0.0747099
0.732063 0.117942 0.0742905
0.722397 0.31199 0.193703
0.717472 0.311979 0.193599
0.712391 0.312079 0.193602
0.707441 0.312156 0.193626
0.702512 0.311953 0.193486
0.69738 0.311923 0.193444
0.692456 0.3119 0.193447
0.687461 0.311824 0.193529
0.682586 0.311717 0.193605
0.677584 0.311635 0.193746
0.414148 0.123281 0.0749955
0.672498 0.311691 0.193881
0.667442 0.311679 0.193676
0.662403 0.311673 0.193668
0.657506 0.311742 0.193808
0.652458 0.311769 0.193903
0.647398 0.311682 0.193917
0.642477 0.311828 0.193946
0.637609 0.311864 0.193828
0.632582 0.311825 0.193615
0.627481 0.311947 0.193368
0.476743 0.121478 0.0734473
0.483145 0.121227 0.0736578
0.487581 0.121485 0.0741683
0.49247 0.12191 0.0747474
0.497464 0.121373 0.0747217
0.502293 0.121022 0.0747575
0.507265 0.120917 0.0748915
0.512115 0.121844 0.0755756
0.622478 0.312168 0.193257
0.617555 0.312128 0.193065
0.612181 0.312195 0.193176
0.53434 0.121024 0.0751329
0.537382 0.121209 0.0752368
0.541891 0.120553 0.0748401
0.546606 0.120261 0.0746144
0.558141 0.121667 0.0755573
0.607513 0.312062 0.193334
0.602488 0.311738 0.19331
0.597509 0.311675 0.193362
0.593476 0.120352 0.0760486
0.597689 0.119586 0.075415
0.602154 0.119833 0.0754598
0.607304 0.119497 0.0752485
0.612511 0.121426 0.0767269
0.615436 0.12221 0.0775491
0.628152 0.119205 0.076617
0.631607 0.119369 0.0769086
0.639292 0.119904 0.0771331
0.640865 0.120039 0.0770353
0.648393 0.120601 0.0762374
0.65267 0.120645 0.0762229
0.656927 0.120389 0.0761996
0.663959 0.119935 0.0762937
0.666452 0.120242 0.0767354
0.684078 0.119726 0.0764152
0.687335 0.119556 0.0759853
0.692889 0.120412 0.0760717
0.592577 0.311765 0.193313
0.587475 0.312037 0.193212
0.582491 0.312068 0.192944
0.718142 0.119896 0.0756016
0.72134 0.119702 0.0754932
0.728587 0.121614 0.0764785
0.732113 0.119994 0.0755568
0.744036 0.122681 0.0759841
0.577388 0.312387 0.192827
0.572486 0.312223 0.192387
0.567482 0.312178 0.192249
0.56246 0.312207 0.192371
0.557393 0.312162 0.1925
0.552468 0.312154 0.192553
0.547496 0.312069 0.192593
0.542562 0.312282 0.192775
0.792045 0.120389 0.0750806
0.537118 0.312343 0.192767
0.53243 0.312272 0.192607
0.527486 0.312457 0.192647
0.522553 0.312486 0.192601
0.51724 0.31234 0.192481
0.512641 0.312459 0.192499
0.507503 0.312685 0.192446
0.502253 0.31292 0.192356
0.383897 0.12725 0.0776142
0.386381 0.126786 0.0772999
0.497508 0.312911 0.19226
0.492623 0.312483 0.191922
0.487681 0.312901 0.19206
0.413316 0.125878 0.0765936
0.417172 0.125301 0.0763287
0.432841 0.125258 0.0773595
0.482461 0.312917 0.19206
0.477468 0.312919 0.192029
0.472535 0.313138 0.192186
0.476607 0.124273 0.0752209
0.488173 0.124772 0.0764185
0.492266 0.12449 0.0764773
0.495794 0.123836 0.0762621
0.46756 0.313077 0.19209
0.509107 0.124078 0.0768929
0.517404 0.124734 0.0772995
0.520559 0.124192 0.0768122
0.534237 0.124357 0.0772229
0.558085 0.123087 0.0764292
0.561212 0.122635 0.07636
0.614107 0.123255 0.0782281
0.61511 0.123505 0.0784111
0.65225 0.123358 0.0780172
0.657096 0.123346 0.0781009
0.663143 0.122999 0.0782633
0.667182 0.123278 0.0787314
0.692028 0.123403 0.0779202
0.718304 0.123548 0.0779845
0.722625 0.123952 0.0780346
0.727475 0.123914 0.0778778
0.73051 0.123231 0.0773569
0.740162 0.124364 0.077377
0.742774 0.124032 0.0770362
0.747526 0.124602 0.0767717
0.462541 0.312901 0.191886
0.457403 0.31283 0.1917
0.452461 0.312852 0.191527
0.447396 0.313063 0.191336
0.44262 0.313205 0.191389
0.43743 0.312954 0.191179
0.432509 0.313254 0.191358
0.412434 0.128812 0.0781529
0.415452 0.128199 0.0779824
0.503455 0.115737 0.0714055
0.593174 0.116143 0.0732105
0.595488 0.116 0.0730635
0.603642 0.117155 0.0735672
0.617565 0.116122 0.0732913
0.629354 0.115559 0.0740421
0.632867 0.11528 0.0741176
0.636612 0.115445 0.074268
0.642851 0.11588 0.0742101
0.64541 0.11543 0.0736431
0.651646 0.116238 0.0731472
0.663229 0.115828 0.0730297
0.667752 0.115434 0.073363
0.672561 0.115259 0.073815
0.676199 0.116141 0.0745172
0.687582 0.116196 0.0738523
0.700602 0.116275 0.0731727
0.717523 0.116086 0.0729668
0.728603 0.117024 0.0737639
0.732539 0.11639 0.0732428
0.735685 0.115929 0.0728627
0.427431 0.313221 0.191162
0.422344 0.313196 0.191037
0.417566 0.313483 0.191272
0.412564 0.313402 0.191168
0.407541 0.313298 0.191118
0.473366 0.121308 0.073211
0.486801 0.12198 0.0743374
0.496536 0.118736 0.0729203
0.502609 0.118451 0.0731576
0.506195 0.117616 0.0727415
0.40245 0.313203 0.191151
0.533164 0.12032 0.0746219
0.536611 0.120283 0.0746481
0.543312 0.119829 0.0743694
0.547635 0.119754 0.0741528
0.552087 0.120566 0.0746755
0.557824 0.120396 0.0747332
0.397567 0.313224 0.19145
0.58422 0.121284 0.0769163
0.392581 0.313167 0.191644
0.592547 0.118902 0.0751216
0.596241 0.119217 0.07521
0.603442 0.119186 0.0749344
0.608117 0.119377 0.0750981
0.612302 0.119102 0.0750368
0.618226 0.117972 0.0746754
0.622072 0.119274 0.0759416
0.627548 0.117983 0.0756481
0.632719 0.118249 0.0760667
0.637721 0.118811 0.0764157
0.64245 0.118341 0.0758522
0.647299 0.118684 0.0750519
0.651399 0.118347 0.0746403
0.659302 0.119094 0.0752721
0.66293 0.118459 0.0750676
0.667672 0.118239 0.075331
0.672531 0.118394 0.0756797
0.677215 0.118667 0.0759846
0.682367 0.119013 0.0760997
0.687025 0.118966 0.0755728
0.691196 0.119221 0.0754892
0.7024 0.117719 0.0742011
0.387449 0.313026 0.191732
0.718123 0.1188 0.0747798
0.722335 0.119689 0.0753565
0.727822 0.119419 0.0751943
0.732145 0.118791 0.0747046
0.736231 0.118851 0.0744451
0.382588 0.312885 0.191704
0.377747 0.312864 0.191663
0.372385 0.313014 0.19173
0.367465 0.313141 0.191885
0.362533 0.312743 0.19168
0.35757 0.312838 0.191612
0.352441 0.312994 0.191602
0.34744 0.312947 0.191368
0.342652 0.312791 0.191238
0.337432 0.31293 0.191241
0.332202 0.31286 0.191339
0.327257 0.312891 0.191394
0.413067 0.123594 0.0751381
0.416399 0.122796 0.0747879
0.322486 0.312824 0.191445
0.317512 0.312821 0.191525
0.312744 0.312593 0.191608
0.307844 0.312619 0.191783
0.302464 0.312838 0.191952
0.297309 0.312691 0.192023
0.476445 0.124552 0.0753755
0.484691 0.123212 0.0750501
0.487388 0.123645 0.0755039
0.491953 0.124265 0.0762843
0.292562 0.312668 0.192172
0.272621 0.312579 0.192045
0.508976 0.123377 0.0764833
0.511479 0.124881 0.0772662
0.517429 0.123539 0.0765929
0.523052 0.123149 0.0761328
0.5279 0.12345 0.0762339
0.53246 0.123371 0.0765176
0.537399 0.123056 0.076438
0.54239 0.123106 0.0764337
0.267234 0.312588 0.192045
0.552429 0.123152 0.0763252
0.55725 0.121452 0.075361
0.262704 0.312638 0.192322
0.251656 0.31245 0.192592
0.552532 0.318591 0.195707
0.797778 0.308615 0.190821
0.582396 0.123257 0.0782609
0.587898 0.12228 0.0776703
0.592536 0.122265 0.0772313
0.597493 0.122953 0.0775345
0.602162 0.122191 0.0770716
0.607752 0.121923 0.0768371
0.611995 0.122065 0.077169
0.61833 0.122851 0.078121
0.622407 0.122726 0.0784748
0.627699 0.12204 0.0784858
0.632582 0.121876 0.0783469
0.63719 0.121891 0.0784072
0.641858 0.12144 0.0777342
0.648275 0.122408 0.0774227
0.651732 0.122035 0.0771277
0.658198 0.122011 0.0772739
0.662484 0.121355 0.0771094
0.668306 0.120959 0.0771549
0.672805 0.122076 0.0778914
0.677936 0.122166 0.0780104
0.682323 0.122351 0.0779361
0.687069 0.12227 0.0774352
0.692573 0.121839 0.0769109
0.697579 0.123331 0.0775651
0.703007 0.123868 0.0781055
0.706559 0.123712 0.0779634
0.716749 0.122235 0.0769562
0.727389 0.122266 0.0767498
0.739025 0.122999 0.0765913
0.74242 0.123656 0.0766761
0.746675 0.123531 0.0760892
0.792736 0.308766 0.190176
0.787541 0.308995 0.189688
0.782523 0.308925 0.18954
0.777366 0.308826 0.189708
0.772367 0.308575 0.190059
0.767388 0.308653 0.190689
0.762613 0.307937 0.190824
0.792656 0.122254 0.0765997
0.757327 0.307885 0.191349
0.747477 0.307793 0.191756
0.742753 0.307937 0.191781
0.737442 0.307856 0.191591
0.732469 0.307935 0.191509
0.727483 0.307857 0.191413
0.372826 0.128287 0.0770143
0.722619 0.307772 0.191261
0.382074 0.128236 0.0781918
0.387703 0.128282 0.0784569
0.392599 0.127544 0.0778572
0.397294 0.127797 0.0776884
0.717512 0.308142 0.191268
0.712538 0.308189 0.191209
0.412477 0.126986 0.0771019
0.417476 0.127622 0.0776445
0.707659 0.307982 0.191064
0.702336 0.308017 0.191075
0.432035 0.127002 0.0783658
0.697278 0.308062 0.191103
0.692364 0.307966 0.191161
0.687439 0.307813 0.19122
0.682695 0.30797 0.191476
0.677596 0.30766 0.191475
0.672481 0.307614 0.191609
0.667451 0.3079 0.191606
0.66268 0.307823 0.191558
0.477242 0.127773 0.0776599
0.482733 0.128405 0.0784404
0.48758 0.126988 0.0778457
0.4923 0.126793 0.0779539
0.495131 0.126798 0.0781531
0.508729 0.127002 0.07839
0.512671 0.127049 0.0784811
0.517177 0.12671 0.0783402
0.523093 0.127036 0.078274
0.527052 0.127173 0.0785242
0.532992 0.127033 0.0788215
0.537314 0.126739 0.078825
0.657315 0.307919 0.191759
0.652457 0.307826 0.191823
0.551846 0.127088 0.0787498
0.557736 0.126783 0.0786759
0.562542 0.12692 0.0792849
0.647368 0.307852 0.19187
0.642622 0.307829 0.191766
0.578617 0.126058 0.0799018
0.583597 0.126516 0.0804467
0.587218 0.126385 0.0804843
0.592395 0.126442 0.0801678
0.59782 0.126261 0.0796652
0.602053 0.126823 0.0800508
0.605188 0.127823 0.0808112
0.612861 0.12516 0.0793646
0.619126 0.125095 0.0797618
0.622538 0.125213 0.080143
0.627395 0.124875 0.0801652
0.634051 0.124882 0.0802129
0.638147 0.125556 0.0804009
0.64218 0.125687 0.0801026
0.649826 0.12523 0.0791971
0.652788 0.125887 0.0797849
0.657792 0.125713 0.0797676
0.662183 0.125933 0.080044
0.666675 0.125158 0.0798103
0.679033 0.126442 0.0803889
0.682598 0.126548 0.0801632
0.687242 0.126343 0.0797857
0.692667 0.126429 0.0795162
0.697533 0.126667 0.0795283
0.702394 0.126358 0.0796702
0.707474 0.126611 0.0799725
0.712313 0.126969 0.0799284
0.716235 0.126229 0.0795627
0.722926 0.126926 0.0797466
0.727761 0.126215 0.0791312
0.73097 0.127436 0.0797675
0.738993 0.127948 0.0796604
0.74277 0.126978 0.0788392
0.747413 0.126977 0.0783237
0.637681 0.307749 0.191607
0.632693 0.308061 0.191613
0.627415 0.308261 0.191328
0.622756 0.308097 0.191097
0.617379 0.308037 0.190807
0.61257 0.308155 0.190904
0.607558 0.308187 0.191177
0.602225 0.308281 0.191464
0.597888 0.30805 0.191359
0.592375 0.308384 0.191388
0.587666 0.308433 0.191145
0.582331 0.308329 0.190775
0.577613 0.308443 0.190572
0.572489 0.308675 0.190315
0.567588 0.308834 0.190252
0.562623 0.308911 0.190388
0.557487 0.30853 0.190393
0.372854 0.130753 0.0789303
0.552999 0.308324 0.190334
0.547224 0.308819 0.190758
0.387497 0.130082 0.0797624
0.392456 0.130879 0.0803102
0.542788 0.308644 0.190701
0.536856 0.30852 0.190607
0.532272 0.308366 0.190389
0.527775 0.30883 0.190587
0.522606 0.309008 0.190632
0.42967 0.129847 0.0798192
0.432597 0.130681 0.0803775
0.43655 0.132145 0.0811899
0.442518 0.13291 0.0813807
0.517367 0.308847 0.190512
0.512521 0.308536 0.190318
0.507594 0.308698 0.190245
0.502813 0.309564 0.190509
0.472751 0.131553 0.079879
0.476947 0.13145 0.080045
0.483035 0.131117 0.0803166
0.486779 0.130414 0.0800575
0.490971 0.130103 0.0801316
0.508374 0.130435 0.080478
0.512257 0.130367 0.0804711
0.515959 0.13006 0.080206
0.523722 0.131216 0.0810484
0.527916 0.13044 0.0806184
0.532602 0.130909 0.0813609
0.537175 0.130832 0.0814964
0.540115 0.13045 0.0812224
0.552976 0.130592 0.0809785
0.498011 0.309729 0.190496
0.588111 0.128796 0.0819112
0.591537 0.129522 0.0821509
0.595423 0.12928 0.0817424
0.60325 0.129754 0.0819704
0.606325 0.129582 0.0820245
0.614247 0.129521 0.0825446
0.61634 0.129657 0.0827988
0.638935 0.129277 0.0827087
0.642755 0.129382 0.0823859
0.645325 0.129594 0.08221
0.653644 0.129199 0.0821376
0.65742 0.128788 0.081982
0.662422 0.129101 0.082393
0.665591 0.129021 0.0823979
0.679388 0.129239 0.0820259
0.682774 0.129741 0.0820044
0.687419 0.129955 0.0817577
0.692518 0.129848 0.0815602
0.696662 0.129836 0.0815988
0.70246 0.129406 0.081746
0.707713 0.128953 0.081475
0.712686 0.129415 0.0814955
0.717795 0.130408 0.0820707
0.72252 0.130189 0.0817413
0.727468 0.130444 0.0817982
0.73148 0.130783 0.0818921
0.738846 0.130641 0.0815171
0.742222 0.13057 0.0813815
0.747999 0.129811 0.0800051
0.491671 0.30947 0.190192
0.487159 0.309206 0.18996
0.482484 0.30855 0.189576
0.477393 0.308744 0.1896
0.472545 0.308809 0.189712
0.467548 0.308731 0.189672
0.462603 0.308986 0.189684
0.458308 0.309078 0.189598
0.452631 0.309716 0.189737
0.446718 0.309678 0.189366
0.442855 0.309061 0.188815
0.436647 0.309739 0.189267
0.434123 0.309957 0.189306
0.426359 0.309926 0.189144
0.433502 0.134152 0.0823769
0.436746 0.134045 0.0822953
0.441309 0.134662 0.0825338
0.445154 0.134012 0.0818449
0.465714 0.134699 0.0818697
0.474409 0.13426 0.0818908
0.476096 0.134212 0.0819329
0.483277 0.133432 0.0819538
0.728115 0.133236 0.0834973
0.731765 0.132587 0.083154
0.422052 0.30978 0.188989
0.41748 0.309189 0.188695
0.675766 0.117646 0.0753494
0.731993 0.118049 0.0742528
0.58431 0.121758 0.0772219
0.586501 0.121801 0.0772329
0.634287 0.121145 0.0779053
0.641575 0.120893 0.0772674
0.673878 0.120404 0.0769286
0.675375 0.119216 0.0761614
0.714314 0.122575 0.0771208
0.717764 0.121565 0.0765863
0.722384 0.121744 0.0765666
0.72546 0.121581 0.0763963
0.73234 0.118579 0.0745604
0.392814 0.126678 0.0771645
0.412967 0.309095 0.188678
0.485066 0.124143 0.0755837
0.512615 0.126542 0.0780725
0.52802 0.126041 0.0777798
0.530122 0.125919 0.0778612
0.553211 0.12597 0.0780317
0.556061 0.125934 0.0781382
0.578281 0.123896 0.0784617
0.583209 0.124152 0.0788668
0.586341 0.123984 0.0787736
0.596168 0.124371 0.0785061
0.603861 0.125516 0.0791496
0.607692 0.124914 0.0788951
0.612568 0.124999 0.0791401
0.617119 0.125603 0.0799184
0.622235 0.124707 0.0797129
0.628117 0.124541 0.0799603
0.63312 0.12489 0.0801392
0.637703 0.123945 0.0794489
0.641858 0.124477 0.0792708
0.647431 0.125037 0.0790722
0.65286 0.125154 0.0791564
0.656172 0.124113 0.0785212
0.668342 0.124978 0.0796535
0.672774 0.124712 0.0795103
0.677121 0.124366 0.079201
0.683778 0.125728 0.0795645
0.686541 0.125418 0.0792026
0.708543 0.12665 0.0797887
0.713324 0.125468 0.0789273
0.717778 0.124811 0.0785624
0.721971 0.124107 0.0780494
0.725645 0.123308 0.0774012
0.734438 0.126838 0.0791951
0.737987 0.126634 0.0788201
0.740844 0.125629 0.0780104
0.407279 0.310088 0.189277
0.402015 0.309763 0.189287
0.388787 0.129144 0.079011
0.39193 0.128835 0.0788255
0.42964 0.128247 0.0789253
0.430891 0.129465 0.0795868
0.397799 0.310072 0.189624
0.446738 0.130028 0.0791634
0.392488 0.309735 0.189604
0.386965 0.308898 0.189224
0.479186 0.130163 0.0793203
0.482554 0.12916 0.0789261
0.487179 0.129044 0.0791233
0.491265 0.1296 0.0797036
0.382617 0.309052 0.189413
0.378002 0.308925 0.189393
0.371766 0.308964 0.189448
0.511494 0.128713 0.0794555
0.518826 0.130345 0.080287
0.52288 0.129694 0.0799929
0.527433 0.129044 0.0797041
0.531479 0.128942 0.0798544
0.538693 0.129098 0.0803284
0.367408 0.30915 0.189618
0.547056 0.12926 0.0802092
0.552665 0.128801 0.0798021
0.55717 0.128788 0.0799384
0.362458 0.309046 0.189674
0.357887 0.308794 0.189503
0.352523 0.308911 0.189515
0.577664 0.128496 0.0813959
0.582705 0.128039 0.081306
0.587383 0.12853 0.0816981
0.592385 0.128717 0.0815724
0.59756 0.128411 0.0809996
0.602207 0.127985 0.0807591
0.607097 0.128006 0.0809282
0.613083 0.127867 0.0811364
0.617583 0.127903 0.0816113
0.622317 0.128124 0.0821236
0.627367 0.127645 0.0818887
0.632598 0.127713 0.0819457
0.637078 0.127773 0.0817207
0.641393 0.128524 0.0817686
0.648809 0.127152 0.0805011
0.652497 0.128196 0.0813246
0.656085 0.126941 0.0805642
0.668182 0.12746 0.0813983
0.67272 0.128442 0.0819576
0.677359 0.128853 0.0818839
0.682554 0.128645 0.0812762
0.687304 0.12834 0.0807049
0.692703 0.128749 0.0807766
0.698061 0.129189 0.0812269
0.703713 0.128991 0.0814696
0.708202 0.129814 0.0818911
0.712543 0.129346 0.0813437
0.716565 0.128505 0.0809126
0.727558 0.129031 0.0808675
0.733576 0.128943 0.0806242
0.737499 0.129395 0.0807307
0.74081 0.127975 0.079587
0.746154 0.130242 0.0805548
0.347459 0.308619 0.189143
0.342431 0.30887 0.189221
0.337116 0.309642 0.189474
0.333894 0.309218 0.189195
0.326935 0.310164 0.189816
0.32161 0.309039 0.189206
0.317478 0.309637 0.189543
0.312557 0.309497 0.189569
0.387927 0.131229 0.0805742
0.392553 0.131392 0.0805876
0.308591 0.308897 0.18937
0.301226 0.310761 0.190746
0.292186 0.308758 0.189859
0.42728 0.13513 0.0825661
0.432335 0.13341 0.0818519
0.438383 0.13407 0.0822204
0.44244 0.13329 0.0815271
0.447476 0.133286 0.0811375
0.289339 0.31076 0.191044
0.268107 0.310074 0.190591
0.466923 0.133074 0.0807667
0.472963 0.13436 0.0818124
0.477699 0.133053 0.0811854
0.482246 0.132783 0.0813434
0.487186 0.132885 0.0817197
0.492588 0.133185 0.0822711
0.497815 0.133368 0.0825097
0.792901 0.305392 0.188129
0.50731 0.132945 0.0820332
0.512377 0.13293 0.0820371
0.517738 0.133031 0.0819861
0.522654 0.132837 0.0820573
0.527575 0.132709 0.0821411
0.532045 0.13215 0.0820931
0.538093 0.132373 0.0824829
0.542204 0.132341 0.0825608
0.547893 0.13262 0.082415
0.552615 0.13237 0.0821221
0.557527 0.132516 0.0823167
0.562317 0.132698 0.0827597
0.786741 0.305301 0.187439
0.572805 0.133034 0.0837223
0.57745 0.132257 0.0837018
0.582466 0.131829 0.0835243
0.587306 0.132038 0.0838402
0.592601 0.131928 0.0834606
0.596917 0.131603 0.0830136
0.602051 0.131632 0.0830777
0.607149 0.131677 0.0834294
0.612983 0.131775 0.0839527
0.617677 0.131463 0.0839834
0.622484 0.131266 0.0840902
0.627205 0.131626 0.0843253
0.632541 0.131587 0.0842443
0.637649 0.131106 0.0838019
0.642174 0.132305 0.0842878
0.648257 0.131682 0.0836726
0.652383 0.131204 0.0833259
0.656178 0.131398 0.0835672
0.782369 0.304723 0.187119
0.673699 0.132737 0.0845923
0.677627 0.132392 0.0840603
0.682654 0.132221 0.0834579
0.687485 0.131915 0.0829584
0.692481 0.132075 0.0828174
0.697394 0.132066 0.083042
0.702865 0.132185 0.0834832
0.707407 0.132145 0.0834012
0.712343 0.132159 0.0832879
0.716588 0.132025 0.0831497
0.723455 0.132888 0.0833836
0.726316 0.13203 0.0827813
0.733299 0.131893 0.0825233
0.737373 0.132033 0.0826129
0.742581 0.132706 0.0828037
0.747359 0.132939 0.0822847
0.752489 0.133981 0.08249
0.778045 0.305084 0.187537
0.771956 0.305138 0.188178
0.767628 0.30457 0.188343
0.762664 0.304431 0.188867
0.747481 0.304002 0.189523
0.74246 0.305135 0.190131
0.787584 0.132859 0.082744
0.738437 0.305226 0.189986
0.730974 0.304864 0.189599
0.727544 0.303851 0.188983
0.722834 0.30424 0.189158
0.717322 0.304791 0.189329
0.712259 0.30429 0.188949
0.707785 0.30413 0.188837
0.409309 0.138784 0.0842219
0.702728 0.304208 0.188753
0.697575 0.30455 0.189
0.422969 0.137531 0.0836876
0.426139 0.137782 0.0840041
0.432587 0.136996 0.0837901
0.438063 0.136946 0.0838148
0.441948 0.136107 0.0832049
0.447908 0.1371 0.0835836
0.692494 0.304137 0.188819
0.687368 0.304184 0.188978
0.467297 0.136708 0.0832273
0.472881 0.136848 0.0836504
0.477424 0.136587 0.0837167
0.48199 0.135612 0.0832395
0.486175 0.135375 0.0832607
0.493168 0.138093 0.0853664
0.498452 0.137517 0.0850935
0.503063 0.136915 0.0847003
0.507082 0.136444 0.0842782
0.512826 0.136523 0.084295
0.517502 0.136725 0.0844497
0.522553 0.136874 0.0847599
0.527151 0.1364 0.0846087
0.531734 0.135299 0.084065
0.537822 0.135112 0.0842646
0.54239 0.135895 0.0847878
0.547313 0.13635 0.0847763
0.552361 0.136285 0.0845093
0.557563 0.136874 0.0850453
0.562367 0.13622 0.0847532
0.566418 0.135085 0.084407
0.578049 0.135457 0.0853922
0.58238 0.134939 0.0852333
0.587005 0.135234 0.0854143
0.592252 0.135565 0.0855058
0.596394 0.135159 0.0852209
0.604051 0.133875 0.0846753
0.607865 0.134331 0.0852375
0.612634 0.135174 0.0861342
0.616607 0.135106 0.0862727
0.627052 0.135007 0.0862646
0.634022 0.135536 0.086494
0.63739 0.136299 0.0869051
0.6427 0.135558 0.0864019
0.647014 0.135816 0.0864758
0.650878 0.135287 0.0861611
0.669384 0.13555 0.0866724
0.672834 0.135504 0.0863679
0.677631 0.13585 0.0861212
0.682515 0.135465 0.0854422
0.687337 0.135856 0.085363
0.692717 0.135872 0.0851227
0.696998 0.135486 0.0851846
0.702584 0.135496 0.0854384
0.707197 0.135257 0.0853363
0.71279 0.135571 0.0852865
0.717297 0.135429 0.0849298
0.722768 0.135684 0.0850283
0.726856 0.135168 0.0846443
0.733048 0.136181 0.0853084
0.737051 0.13581 0.0851198
0.742558 0.135747 0.0849174
0.747382 0.136087 0.084636
0.75223 0.136627 0.0848038
0.682554 0.304601 0.189496
0.677813 0.304076 0.189295
0.673184 0.301704 0.187946
0.667407 0.302989 0.188676
0.662727 0.304768 0.189811
0.787897 0.135736 0.0845482
0.657425 0.304096 0.189426
0.652799 0.30425 0.18967
0.399062 0.141927 0.0867584
0.400982 0.142077 0.0866928
0.40774 0.142741 0.0866998
0.413126 0.141629 0.0860224
0.417087 0.141427 0.0859617
0.422951 0.140703 0.0856056
0.427451 0.14049 0.0856446
0.432538 0.140222 0.0855523
0.437173 0.140156 0.0857494
0.44434 0.141213 0.0863585
0.447869 0.140474 0.0858636
0.646881 0.304757 0.190075
0.464482 0.141527 0.086476
0.4681 0.140638 0.0859476
0.472374 0.140401 0.0859817
0.477813 0.140168 0.0861631
0.489062 0.140225 0.086511
0.492655 0.14009 0.0865494
0.496545 0.139687 0.0863897
0.502877 0.139341 0.0861612
0.505831 0.141143 0.0873543
0.518733 0.139623 0.086466
0.522684 0.139651 0.0866542
0.526172 0.139482 0.0866223
0.542073 0.139212 0.0867884
0.549909 0.139347 0.0864718
0.552674 0.139928 0.0867885
0.558656 0.140342 0.0870376
0.562312 0.140258 0.0871033
0.567508 0.140995 0.0877647
0.584329 0.139814 0.0878165
0.585859 0.14074 0.0883505
0.614175 0.137942 0.0878772
0.615821 0.138373 0.0881914
0.634409 0.138685 0.0882096
0.636656 0.138846 0.0883812
0.642718 0.138178 0.0879573
0.647019 0.138559 0.0883018
0.674636 0.138397 0.0881682
0.678368 0.138579 0.0878286
0.682644 0.138805 0.0874807
0.685685 0.138748 0.087229
0.692023 0.139019 0.0870837
0.714842 0.139855 0.0877717
0.71589 0.138748 0.0870305
0.722991 0.139367 0.0872027
0.728801 0.140962 0.0883405
0.732677 0.13885 0.0870355
0.75218 0.13912 0.0868616
0.759845 0.140171 0.0869279
0.762574 0.139454 0.0862978
0.642143 0.304566 0.189882
0.409377 0.143913 0.0873797
0.413013 0.143627 0.0872404
0.506854 0.14355 0.0889676
0.619135 0.127324 0.0812487
0.642697 0.127544 0.0809714
0.667839 0.127418 0.0813131
0.699669 0.128999 0.0809879
0.703206 0.128119 0.0806626
0.707052 0.127485 0.0803848
0.711236 0.127153 0.0800321
0.553599 0.131495 0.0815136
0.573459 0.131699 0.0829813
0.575575 0.13096 0.0826819
0.60446 0.131165 0.0828327
0.607765 0.130701 0.0827618
0.612761 0.130556 0.0828674
0.617074 0.130223 0.0830738
0.628055 0.130477 0.0835425
0.633655 0.130808 0.0837712
0.637865 0.130446 0.0833071
0.642111 0.130421 0.0829016
0.646281 0.131249 0.0832065
0.664792 0.129675 0.0827288
0.666579 0.129378 0.0825615
0.671361 0.130049 0.0830075
0.69961 0.1302 0.0817702
0.702769 0.130295 0.0821364
0.706731 0.129214 0.0815299
0.710756 0.127936 0.0805288
0.737569 0.12941 0.0806745
0.740206 0.130031 0.0809531
0.424367 0.135486 0.0825716
0.427622 0.135534 0.08281
0.432492 0.135535 0.0829692
0.43639 0.135419 0.0830042
0.443234 0.135692 0.0828759
0.44539 0.135471 0.0826414
0.473953 0.136181 0.0831419
0.477747 0.135374 0.082839
0.481545 0.135241 0.0829299
0.487845 0.135577 0.0835004
0.492759 0.135231 0.0834711
0.497087 0.134853 0.0834508
0.502309 0.135409 0.0836981
0.512889 0.135702 0.0837232
0.517312 0.13508 0.0832971
0.522434 0.135484 0.0837466
0.529503 0.135501 0.0840641
0.538806 0.135 0.0841726
0.542988 0.134419 0.083855
0.546716 0.134925 0.0839566
0.553218 0.133546 0.0828663
0.557419 0.135169 0.0840266
0.568686 0.134921 0.0843782
0.572894 0.134415 0.08449
0.577032 0.133865 0.0844701
0.582806 0.134583 0.0850294
0.587891 0.134065 0.0848594
0.592336 0.134138 0.0846891
0.596008 0.134972 0.0850698
0.603348 0.134392 0.0848969
0.607554 0.134193 0.0850552
0.612779 0.134246 0.085389
0.617379 0.134107 0.0855808
0.62232 0.133973 0.0856654
0.627144 0.133947 0.085648
0.633259 0.133661 0.0853678
0.637236 0.133953 0.0854451
0.642129 0.134418 0.0855545
0.646813 0.133522 0.0848497
0.651922 0.134715 0.0856868
0.65701 0.1352 0.0861708
0.667852 0.134306 0.0858572
0.671958 0.133065 0.0848793
0.676239 0.131925 0.0838491
0.681744 0.134703 0.0849534
0.698102 0.134485 0.0845546
0.701932 0.13377 0.0843263
0.705711 0.134097 0.0845727
0.71368 0.134038 0.0842921
0.722248 0.135585 0.0848652
0.728365 0.136105 0.0851349
0.730983 0.135986 0.0850617
0.738504 0.134501 0.0842106
0.742471 0.134831 0.0841565
0.746973 0.13489 0.0837027
0.752216 0.135334 0.0835803
0.757864 0.135493 0.0830344
0.638077 0.303985 0.189408
0.632827 0.303171 0.188756
0.627286 0.303862 0.188843
0.622609 0.304342 0.188952
0.791223 0.135016 0.0843561
0.617749 0.30431 0.188727
0.613007 0.305122 0.189312
0.403801 0.140607 0.0854837
0.406815 0.140723 0.0854692
0.413169 0.139124 0.0842962
0.417422 0.139252 0.0844423
0.422201 0.138924 0.0844372
0.427938 0.138203 0.0843458
0.432751 0.139203 0.0849351
0.436363 0.138461 0.0846609
0.443936 0.138166 0.0843619
0.446874 0.138527 0.0845807
0.450233 0.139342 0.0850831
0.606853 0.304165 0.188897
0.602149 0.30406 0.188962
0.468021 0.139478 0.0851395
0.472585 0.138806 0.084907
0.477475 0.138427 0.0849577
0.482625 0.138532 0.0851741
0.487561 0.139185 0.0857383
0.492288 0.138164 0.0852692
0.497624 0.138123 0.0854703
0.502349 0.138337 0.0855371
0.507628 0.138623 0.0855743
0.512021 0.138429 0.0854597
0.517569 0.138086 0.0853788
0.522382 0.1381 0.0855835
0.527541 0.138598 0.0860162
0.532302 0.139383 0.0865816
0.537701 0.138732 0.0864277
0.542662 0.137727 0.085891
0.547485 0.138649 0.086114
0.552299 0.138821 0.086091
0.557815 0.138248 0.0858813
0.562649 0.138187 0.0859274
0.567845 0.138164 0.086206
0.572548 0.137988 0.0863902
0.577456 0.137766 0.0865814
0.582537 0.137863 0.0866693
0.587372 0.137861 0.0867603
0.592609 0.137839 0.0867298
0.596988 0.138078 0.0867566
0.60303 0.138111 0.08709
0.607617 0.138062 0.0874673
0.612578 0.13793 0.0877628
0.617317 0.137719 0.0877517
0.622382 0.137689 0.0877804
0.627662 0.137916 0.0876969
0.632735 0.137117 0.0873332
0.637122 0.137442 0.0875167
0.642704 0.137869 0.0877035
0.646804 0.137805 0.0877575
0.652137 0.138114 0.0880964
0.657033 0.137569 0.0879366
0.664324 0.138337 0.0885859
0.668522 0.137513 0.0879729
0.672353 0.13744 0.0877543
0.677484 0.137345 0.0870113
0.682647 0.138368 0.0871548
0.686722 0.139257 0.0873811
0.692379 0.138724 0.0867391
0.697809 0.137427 0.0864571
0.597689 0.303949 0.188925
0.707636 0.137481 0.0866334
0.712287 0.138084 0.0868262
0.717616 0.138583 0.0866635
0.722516 0.138702 0.0867496
0.727032 0.138702 0.0868138
0.731785 0.138348 0.0866062
0.738135 0.138377 0.0868719
0.74292 0.137955 0.0863306
0.747524 0.138437 0.0864478
0.752497 0.13799 0.0859597
0.757474 0.138072 0.0853823
0.760919 0.137865 0.0850652
0.592602 0.304354 0.188991
0.587448 0.304659 0.188937
0.582456 0.30499 0.188782
0.57729 0.305044 0.18846
0.572804 0.304848 0.188034
0.567439 0.304952 0.187942
0.562832 0.304901 0.18789
0.3825 0.144145 0.0881641
0.38785 0.143445 0.0878924
0.393221 0.143571 0.0878977
0.397509 0.142919 0.0873655
0.402597 0.143014 0.0871951
0.407505 0.143125 0.0869017
0.412366 0.142633 0.0865184
0.41755 0.14289 0.0868838
0.4225 0.142624 0.086757
0.427475 0.142785 0.0868608
0.432359 0.143007 0.0870814
0.436072 0.142345 0.0869018
0.44394 0.142756 0.0873271
0.4475 0.142192 0.0869936
0.557737 0.305439 0.188453
0.552428 0.305568 0.188592
0.547126 0.305116 0.188429
0.467678 0.142066 0.0868931
0.472585 0.142433 0.0872477
0.477145 0.14237 0.0874158
0.482582 0.142515 0.0876056
0.487863 0.142651 0.0878348
0.492294 0.142203 0.0878177
0.497524 0.142125 0.0878687
0.502743 0.142057 0.0878288
0.507463 0.142144 0.0879317
0.512373 0.14218 0.0878558
0.51739 0.141667 0.0876874
0.522307 0.141258 0.0876901
0.527616 0.142105 0.0882581
0.532221 0.142232 0.088354
0.537704 0.141529 0.0880212
0.542734 0.141437 0.0880249
0.547787 0.142264 0.0882411
0.552343 0.142305 0.0881839
0.557274 0.142004 0.0879006
0.562226 0.142202 0.0880941
0.567148 0.141685 0.0880487
0.572571 0.141742 0.088445
0.577922 0.141799 0.0886521
0.582564 0.141353 0.0885574
0.587364 0.141232 0.0886348
0.591945 0.141247 0.088667
0.597876 0.142534 0.0893839
0.602284 0.142488 0.0896717
0.607794 0.141852 0.08981
0.611457 0.141403 0.0896422
0.618189 0.141132 0.089709
0.622603 0.141468 0.0899036
0.627517 0.14151 0.0897779
0.632702 0.141096 0.0895873
0.637526 0.141259 0.0896793
0.642724 0.141399 0.0898476
0.646497 0.140775 0.0895654
0.658721 0.142092 0.0912466
0.662741 0.141636 0.0908937
0.668347 0.14119 0.090326
0.672628 0.141063 0.0900811
0.676456 0.140349 0.089215
0.683352 0.141994 0.0893004
0.687376 0.142628 0.0895851
0.692657 0.141933 0.0890285
0.697525 0.14145 0.0888333
0.702486 0.141609 0.0889734
0.707397 0.141345 0.0888277
0.712507 0.141568 0.0887764
0.717158 0.141947 0.0886795
0.72295 0.14179 0.0886298
0.726618 0.140839 0.0881622
0.732932 0.140781 0.0882736
0.737397 0.141568 0.0890503
0.742574 0.141509 0.0890659
0.747478 0.141656 0.0890134
0.543574 0.305316 0.188648
0.536576 0.305109 0.188505
0.762356 0.141899 0.0880596
0.531931 0.305119 0.188452
0.527766 0.305611 0.188667
0.523611 0.306391 0.189065
0.51552 0.304455 0.187851
0.51329 0.305228 0.188307
0.507101 0.305239 0.188137
0.497993 0.303631 0.186794
0.485883 0.305227 0.187581
0.484732 0.305235 0.187546
0.475615 0.305788 0.187979
0.471773 0.305422 0.18781
0.468216 0.305203 0.187613
0.463193 0.305695 0.187792
0.377196 0.147634 0.0901667
0.38333 0.146779 0.0895646
0.387318 0.147633 0.0901247
0.391793 0.147787 0.0902112
0.397685 0.146423 0.089376
0.402518 0.146131 0.0891877
0.407005 0.145994 0.0887462
0.412836 0.145939 0.0886777
0.448006 0.305479 0.186942
0.422295 0.146134 0.0889432
0.427331 0.14648 0.0892027
0.432088 0.14621 0.0889649
0.437209 0.146247 0.0891818
0.442509 0.14528 0.0888819
0.447297 0.145248 0.0890714
0.451049 0.145315 0.0892258
0.463228 0.146911 0.0902257
0.467555 0.146737 0.0901409
0.472959 0.146165 0.0898055
0.477379 0.146109 0.0896973
0.481056 0.14702 0.0902454
0.48788 0.146294 0.0900313
0.492619 0.145997 0.0900877
0.497585 0.1461 0.0904175
0.502722 0.145729 0.0901837
0.506491 0.145329 0.0899369
0.512483 0.145855 0.0900702
0.517582 0.145778 0.0902634
0.521905 0.14563 0.0903019
0.527151 0.145126 0.0900852
0.53305 0.144692 0.0899244
0.535239 0.144219 0.0896382
0.54419 0.146325 0.0908421
0.547805 0.145743 0.0904243
0.552151 0.145938 0.0903914
0.557804 0.145433 0.0899091
0.562659 0.145304 0.0899232
0.56616 0.144838 0.0898356
0.573983 0.145046 0.090417
0.578305 0.145483 0.090848
0.581945 0.145014 0.0906823
0.585757 0.142629 0.0894196
0.594182 0.146084 0.0915537
0.597467 0.145793 0.0912946
0.600789 0.144857 0.0910645
0.612247 0.144349 0.0914123
0.61622 0.144571 0.0916511
0.623111 0.144126 0.0914745
0.628715 0.144244 0.0913261
0.632771 0.14519 0.0918304
0.637431 0.144553 0.091586
0.641538 0.144228 0.0914974
0.646758 0.143697 0.0913956
0.658746 0.14389 0.0924063
0.661325 0.144022 0.0924308
0.669968 0.143797 0.0919845
0.672346 0.1441 0.0920666
0.687672 0.144816 0.0910107
0.692725 0.144771 0.0908658
0.69816 0.14514 0.0912407
0.701894 0.14554 0.0913997
0.707926 0.144812 0.0908368
0.711187 0.144745 0.0906242
0.718713 0.146288 0.0912887
0.723557 0.144593 0.0904064
0.725345 0.144285 0.0902824
0.734254 0.146298 0.0922172
0.736792 0.144508 0.0911802
0.742268 0.144556 0.0912697
0.746493 0.144225 0.0908013
0.385602 0.305213 0.187026
0.383137 0.305352 0.187114
0.366752 0.306028 0.187817
0.363014 0.305807 0.187805
0.355519 0.30628 0.188128
0.354213 0.306056 0.188001
0.781342 0.302077 0.185826
0.75768 0.300537 0.187053
0.747394 0.300971 0.187738
0.730792 0.300834 0.1872
0.727713 0.300254 0.186866
0.364883 0.149241 0.0920949
0.367601 0.149065 0.0917586
0.372821 0.149158 0.0915271
0.377717 0.149985 0.091553
0.382892 0.150119 0.0914282
0.387818 0.14994 0.0913885
0.391259 0.149806 0.0913712
