0.46750599999999998 0.31859700000000002 0.195045 -0.011012883476751495 -0.45995387260627246 0.88787451335874079
0.46273300000000001 0.31846099999999999 0.19483700000000001 -0.013896215999188596 -0.46239086022463999 0.8865673057143606
0.45754400000000001 0.31882199999999999 0.19500300000000001 -0.014508503782017229 -0.46836524993909678 0.88341581147695936
0.45264500000000002 0.31894499999999998 0.194942 -0.014320172709884284 -0.47188160429150999 0.88154562229349742
0.276777 0.277277 0.17069699999999999 0.0022981970015983964 -0.49286752979282566 0.87010132534461748
0.44299100000000002 0.31862000000000001 0.194576 -0.012641513099658545 -0.48610420855514735 0.8738094131854639
0.43738899999999997 0.318969 0.19473499999999999 -0.013288358230623874 -0.48929655909070036 0.87201622507699683
0.43272500000000003 0.31906299999999999 0.19473699999999999 -0.012072704793297626 -0.49047734641021828 0.87137031304570201
0.427427 0.31922600000000001 0.19462099999999999 -0.010731905373385182 -0.49214628405934241 0.8704463575049517
0.28739500000000001 0.23421600000000001 0.14505499999999999 -0.034861218696300017 -0.54799894631554569 0.83575226608610553
0.41803499999999999 0.31898700000000002 0.19450000000000001 -0.0066855040396249987 -0.49955455399340087 0.86625663150142207
0.41258600000000001 0.31945400000000002 0.19472800000000001 -0.0018058368533323556 -0.4989409785068426 0.86663408594394298
0.40782200000000002 0.31928400000000001 0.19456499999999999 0.0083415669417088185 -0.48699538145775545 0.87336471001510729
0.40213399999999999 0.31875900000000001 0.19434199999999999 0.020129805869743247 -0.48920120219945362 0.87193863011238137
0.58743199999999995 0.098000000000000004 0.061531500000000003 -0.0014940366965920486 -0.5634263726765707 0.82616492931307095
0.39237499999999997 0.31907799999999997 0.19503300000000001 0.020189775783336899 -0.47641787883041237 0.87898713169451392
0.387048 0.31920599999999999 0.195137 0.009496915705619835 -0.47077469932367616 0.88220235267697056
0.38272800000000001 0.31881199999999998 0.194961 0.00099605104508609433 -0.46345344525391052 0.88612070959017575
0.482514 0.104614 0.062963699999999997 -0.028138279984632933 -0.58762713924668042 0.80864243174611417
0.372666 0.31898599999999999 0.194773 -0.0080547827134739135 -0.45277391979666043 0.89158897370223555
0.367089 0.31934600000000002 0.19506499999999999 -0.0078096563628524285 -0.44317376071084591 0.89640171077753983
0.36272799999999999 0.31878200000000001 0.194826 -0.0088894948122492032 -0.44166635011192357 0.89713533653557231
0.35781200000000002 0.31842199999999998 0.19444800000000001 -0.015593835822317452 -0.44975560971214856 0.89301552271883833
0.26344499999999998 0.29359299999999999 0.180422 -0.031477354109196304 0.52432994418004431 -0.850933185282156
0.34885300000000002 0.31839400000000001 0.19417400000000001 -0.012447417772511654 -0.45767126013976911 0.88903435222317051
0.34075499999999997 0.31995000000000001 0.194803 0.014470622957938977 -0.47080590165395603 0.8821181349677687
0.33720299999999997 0.31972499999999998 0.19488 0.023105499944236416 -0.47710970583135387 0.8785399617967562
0.33224399999999998 0.319025 0.194854 0.039354049853562438 -0.47777939963035498 0.87759791707192469
0.32713399999999998 0.31936799999999999 0.19531599999999999 0.036844926530343221 -0.48796595315035957 0.87208467476216711
0.322411 0.31859199999999999 0.194989 0.030669486326323884 -0.50191009012970089 0.86437586965074098
0.31744 0.31877299999999997 0.1953 0.022806168454585541 -0.50112694739016395 0.86507321151439953
0.31256400000000001 0.318741 0.195379 0.017441659833287198 -0.49482292959203755 0.86881877100590632
0.30750899999999998 0.31853900000000002 0.19533 0.014924150666375034 -0.49116031192581594 0.87094133999703038
0.47738799999999998 0.106185 0.064114599999999994 -0.024158352912487829 -0.58288026481632327 0.81219884934183983
0.232456 0.31994400000000001 0.19373699999999999 -0.22150551408237171 -0.28348273626562581 0.9330449321819706
0.79266800000000004 0.31449199999999999 0.19465199999999999 -0.11243197550107063 -0.68725744148700763 0.71766026781873549
0.78750200000000004 0.31453500000000001 0.19423899999999999 -0.065628891852350199 -0.67996835106796272 0.7302984938366972
0.782694 0.31492300000000001 0.194241 -0.02477565420087928 -0.68101614866253357 0.73184914580791072
0.77736400000000005 0.31494299999999997 0.19431200000000001 0.015180274783368759 -0.66376411283058645 0.74778791229580976
0.77217100000000005 0.31485000000000002 0.194525 0.040207173292337098 -0.63775281567332121 0.76919095764094259
0.76750799999999997 0.31434899999999999 0.19455 0.056256726666512755 -0.59760630337778053 0.79981365759026202
0.76249800000000001 0.31375700000000001 0.19478500000000001 0.053901675632127444 -0.55585475833298625 0.82953004587092949
0.75737100000000002 0.31373899999999999 0.194966 0.04476073165342534 -0.5405624411902894 0.84011232824917226
0.74764699999999995 0.31373299999999998 0.195212 -0.002063841273460354 -0.51537579730060534 0.85696180084993501
0.25920100000000001 0.28455000000000003 0.17516999999999999 0.027591595982833082 -0.52184693662661608 0.85259279762647333
0.73736800000000002 0.31387700000000002 0.194937 -0.020982472425303076 -0.48722895814833467 0.87302215217748635
0.73302800000000001 0.31419900000000001 0.1951 -0.020385495628174627 -0.48421597111694731 0.8747109950625207
0.72723199999999999 0.31444100000000003 0.19509599999999999 -0.011503336848601019 -0.48059976113655634 0.87686460918253095
0.72275599999999995 0.31434099999999998 0.19503200000000001 -0.0099116835189405009 -0.48346833928181643 0.87530573141154655
0.717144 0.31417099999999998 0.19484000000000001 -0.0079016743221384123 -0.50310794471785258 0.86418745622965687
0.71257300000000001 0.31390000000000001 0.19459799999999999 -0.0059054864455113446 -0.50728750170152415 0.86175664537459074
0.70768299999999995 0.31423099999999998 0.19484599999999999 -0.002581956770165963 -0.51348620198595385 0.85809396564087148
0.70246699999999995 0.31447999999999998 0.19492300000000001 -0.00019566467251015172 -0.51300272256389201 0.85838695723861658
0.69749700000000003 0.31422899999999998 0.194802 0.0028441355878631768 -0.5032418476091004 0.86414093393828795
0.29497800000000002 0.21972 0.135433 -0.0094395031383429917 0.51915753432879408 -0.85462643905401614
0.68722399999999995 0.31441000000000002 0.19497700000000001 0.011731407733622232 -0.48903348329511409 0.87218611906452337
0.68285200000000001 0.31429400000000002 0.19495299999999999 0.015833386853417081 -0.48159687245455757 0.8762498252797194
0.67746499999999998 0.31393900000000002 0.19495999999999999 0.012834966360547904 -0.47227072736197234 0.88136009877661092
0.67221299999999995 0.31366899999999998 0.19492999999999999 0.0042367537609459983 -0.47131982160903074 0.88195219579974959
0.56753600000000004 0.123109 0.077292799999999995 0.066309441142129694 0.52873045062308976 -0.84619570348668327
0.66299799999999998 0.31389499999999998 0.19481299999999999 -0.00029556602134346035 -0.450680570417821 0.89268523908967734
0.65773400000000004 0.31434099999999998 0.195108 0.003980517619633913 -0.44565293128627148 0.89519697291458367
0.65266299999999999 0.31445299999999998 0.195241 0.0044256987504098398 -0.44185159428274795 0.89707724406561795
0.64729199999999998 0.31395699999999999 0.19501099999999999 -0.0045545097159702969 -0.44555961102891178 0.89524068800575218
0.64264500000000002 0.313834 0.19491900000000001 -0.017968704582394489 -0.44332426510036482 0.89618118794630597
0.63792499999999996 0.314336 0.195045 -0.033023038956179251 -0.42269920130802857 0.90566818654055292
0.63227100000000003 0.313776 0.19453100000000001 -0.041536342261420403 -0.42219257027456469 0.90555406568382157
0.62747399999999998 0.31396499999999999 0.19430700000000001 -0.037117927331473059 -0.41593068585692156 0.9086385001931222
0.62244200000000005 0.31442300000000001 0.19423199999999999 -0.026749456207380513 -0.41756680037501248 0.90825240644722993
0.79581000000000002 0.132132 0.082596900000000001 0.037568274701906053 0.51055207022323157 -0.85902573205154586
0.61255400000000004 0.31434400000000001 0.19420499999999999 0.020721741780494456 -0.42541967668175618 0.90475892264711744
0.607518 0.31415999999999999 0.19439300000000001 0.022003524407519862 -0.42565820228133794 0.90461646002284701
0.60222100000000001 0.31359500000000001 0.19425500000000001 0.018360283810739505 -0.43784893647277129 0.89886106201573301
0.59747700000000004 0.31365999999999999 0.19428999999999999 -0.0021566466818524017 -0.43849844222567963 0.8987293613990488
0.30127599999999999 0.18477199999999999 0.11503099999999999 0.033680178055172948 0.53621064473992308 -0.84341199308153547
0.58787599999999995 0.314193 0.19434199999999999 -0.034242072554058908 -0.44788459759563792 0.89343543006968107
0.58257700000000001 0.31398999999999999 0.19397500000000001 -0.039938534127621654 -0.45499443346580482 0.88959821211986945
0.57782199999999995 0.31434699999999999 0.19391600000000001 -0.042785763572067037 -0.45784053100007205 0.88800418163943751
0.57255900000000004 0.31501499999999999 0.19395399999999999 -0.030054415943934241 -0.45595687854152589 0.88949427035419248
0.56742700000000001 0.31473000000000001 0.193631 -0.010029353605149336 -0.46516861092849116 0.88516528144359607
0.56238699999999997 0.31463099999999999 0.193716 -0.0091258010964113921 0.46131593225356071 -0.88718900489319474
0.55810899999999997 0.31487999999999999 0.19391600000000001 0.014561947696954243 -0.45467714323697311 0.89053727889243117
0.55239499999999997 0.31501200000000001 0.194024 0.014115921275292667 -0.45027562829667367 0.89277802354705493
0.54723500000000003 0.31432300000000002 0.19384000000000001 0.0082850188030476439 -0.45413252637279966 0.8908956206838663
0.542628 0.31420199999999998 0.19376099999999999 0.0042025670027420244 -0.45351346462063424 0.89123951653771305
0.53788899999999995 0.31228 0.19272300000000001 -0.0069978751903394159 -0.47255713686279255 0.88127225199870007
0.53047699999999998 0.31410300000000002 0.193573 0.012638360293914122 0.45690249266260463 -0.8894269975932706
0.52753700000000003 0.31427699999999997 0.193631 -0.013444318252404434 -0.45764343741071845 0.88903415823107135
0.28258 0.276393 0.17017199999999999 0.0075285174872065808 -0.49750286222052104 0.86742966487596795
0.51693599999999995 0.31409300000000001 0.193327 -0.014157983309573572 -0.46003381542439553 0.88778851094992151
0.51248199999999999 0.31442300000000001 0.19345899999999999 0.019471003847500869 0.45657101095978431 -0.88947388492317825
0.506324 0.31413099999999999 0.19312499999999999 -0.024957280037349008 -0.46192778395831452 0.88656632948725178
0.50314700000000001 0.31390499999999999 0.192941 -0.025041289259001516 -0.46567419033285484 0.88460187784680144
0.49719600000000003 0.31553599999999998 0.193665 -0.018196798266115796 -0.45934389245550211 0.8880721057418085
0.492539 0.315471 0.19350600000000001 -0.012880691274215823 -0.46302031874704169 0.88625406753350722
0.48741800000000002 0.31456800000000001 0.19292500000000001 -0.0091679272777466896 -0.47387684195224722 0.88054340481931659
0.48289399999999999 0.31483800000000001 0.19308500000000001 -0.00037284860019484115 -0.47245486421928717 0.88135478795968214
0.47755700000000001 0.315216 0.19329399999999999 -0.00048048692768216326 -0.47076986777137814 0.8822559156678017
0.247755 0.302346 0.18670800000000001 -0.015920279737275785 0.50509582865767833 -0.86291642038247285
0.46709299999999998 0.31547999999999998 0.193438 -0.011335158901553469 -0.47131962173763658 0.88188963500982809
0.24254500000000001 0.32125599999999999 0.19606199999999999 -0.13064911558201969 -0.30557362901717317 0.94316253416201357
0.45781899999999998 0.31568299999999999 0.19328000000000001 -0.019205908381115425 -0.4772664399596187 0.878548734204044
0.62751100000000004 0.32258900000000001 0.197718 -0.020799359510186848 -0.30800526323271371 0.95115726589503236
0.79724300000000003 0.27338000000000001 0.17091200000000001 -0.0045739097306502306 0.55016912804569695 -0.83504072349509595
0.28271299999999999 0.25874799999999998 0.15990599999999999 0.00072497815625691716 -0.52482963684618333 0.85120698228725555
0.74157200000000001 0.113673 0.071380700000000005 -0.080161152910213695 0.48841032720154964 -0.86892435910554422
0.52115699999999998 0.100865 0.060894799999999999 -0.010457384733107214 -0.70315318569514818 0.71096149020274535
0.50692400000000004 0.10169300000000001 0.062102600000000001 -0.0099651202914321415 -0.67192876756307485 0.74054873418212275
0.51278599999999996 0.10234600000000001 0.062486199999999999 0.0050702620286081088 -0.66750834607070375 0.74458505247480911
0.245895 0.28783799999999998 0.177837 0.025246240317161838 -0.54728064624418815 0.836568300616508
0.77318500000000001 0.13364999999999999 0.0820853 -0.061129953873523921 -0.6027827531787846 0.79556023103824458
0.79778099999999996 0.21959500000000001 0.13669600000000001 -0.090827331201682432 0.50579664653198619 -0.85785788348873782
0.39435900000000002 0.31570199999999998 0.19297800000000001 0.028971772757362905 -0.48755128366386341 0.87261353541015763
0.38543699999999997 0.31519900000000001 0.192993 0.0050309932223459534 -0.48480280537280851 0.87460901493744725
0.244004 0.30957899999999999 0.19083 -0.08072645362578669 -0.47870405269933985 0.87425721021575287
0.26367400000000002 0.25954199999999999 0.16012899999999999 0.037665904603078004 0.54170187309173412 -0.83972636038136739
0.62647600000000003 0.097870100000000002 0.060224199999999999 0.007509998448616495 -0.67274823359406499 0.7398333691577903
0.652115 0.099287200000000006 0.060318999999999998 0.077073566834018031 -0.73106069397131501 0.67794537171195546
0.28712799999999999 0.28792899999999999 0.17696600000000001 0.0012489812477016154 0.5182438883545234 -0.85523196398931878
0.79522000000000004 0.13054499999999999 0.081692100000000004 0.047898265024709563 0.51831226135318442 -0.85384902408948793
0.29827599999999999 0.26041599999999998 0.16042300000000001 0.030840488838924301 -0.49213491318826996 0.8699724659259912
0.32666299999999998 0.31389299999999998 0.19195499999999999 0.021058755277434206 -0.50264188390923514 0.86423819943713409
0.32256099999999999 0.31495400000000001 0.192747 0.021890716570753598 -0.51025858698251703 0.85974238638014366
0.317577 0.31570599999999999 0.193385 0.024149697419734373 -0.513953559670838 0.85747800590814549
0.61421199999999998 0.103129 0.064351400000000003 0.0062485512941190639 -0.57607863259545145 0.81737039625476993
0.61737299999999995 0.101926 0.063514799999999996 -0.0012809693973522829 -0.59102313481450264 0.80665358936252307
0.292738 0.26285900000000001 0.162074 -0.037549256572097088 0.49688797672018825 -0.86700195612339914
0.31207600000000002 0.31522600000000001 0.19331499999999999 0.022421813992268225 -0.51545769922736695 0.85662163325737095
0.30739899999999998 0.31593300000000002 0.19380600000000001 0.018429524384912559 -0.50630294400698539 0.86215873336689308
0.60725399999999996 0.32234600000000002 0.19772500000000001 0.011194255221291614 -0.33177133356764521 0.94329341716816151
0.26140099999999999 0.31535200000000002 0.19400999999999999 0.015661018789651215 -0.47306428796414257 0.88088870576449596
0.797072 0.187418 0.117259 0.03833801196578189 0.51637575852266082 -0.85550352006795305
0.25224299999999999 0.31508599999999998 0.193996 -0.013772990995397996 -0.45113975596570749 0.89234703188067077
0.24740400000000001 0.31471300000000002 0.19362299999999999 -0.055182387981665193 -0.43347702309822145 0.89947349849928604
0.79731099999999999 0.31112099999999998 0.192554 -0.15272118759029252 -0.62129037551791089 0.76855351677669392
0.33737800000000001 0.18964200000000001 0.116691 -0.0046594776785278038 -0.55114133355603401 0.83439889723910821
0.69190300000000005 0.102178 0.063945500000000002 0.035364884700632586 -0.63666190440634485 0.77033171063367067
0.78856499999999996 0.31156699999999998 0.191715 -0.067793252367302048 -0.61504762186891826 0.78557017367441573
0.781995 0.31192399999999998 0.191688 -0.0087761129014216222 -0.60887480083546375 0.79321778645584817
0.77910100000000004 0.31188300000000002 0.19177 0.024783797703209022 -0.60261021480999688 0.79765073332759906
0.464536 0.130436 0.078861399999999998 -0.011139160398818855 -0.53979812711951969 0.84172079757118268
0.79764500000000005 0.26191700000000001 0.1633 -0.025375304685732694 0.54147805925814885 -0.84033184234214009
0.26631500000000002 0.26317699999999999 0.16258600000000001 0.025100166699623526 0.53259299870306875 -0.84599921948198264
0.74754100000000001 0.31084699999999998 0.19364999999999999 -0.00058950292631723168 -0.51139225780189079 0.85934720058110614
0.46252199999999999 0.10764600000000001 0.064968499999999998 -0.011715393517572229 -0.56918076241513926 0.82212894928426494
0.26880500000000002 0.29927300000000001 0.18394099999999999 -0.016610773914722154 0.53014409406867224 -0.8477448446991942
0.73249900000000001 0.31089600000000001 0.19323100000000001 0.012900334554170473 0.49194114043588405 -0.87053288031816034
0.72751900000000003 0.30989699999999998 0.192579 -0.012285110303899609 -0.49585882422374866 0.86831624567565402
0.40759600000000001 0.13439300000000001 0.081468100000000002 0.018981335820080839 -0.52215579678909108 0.85263886421511137
0.40012300000000001 0.133826 0.081458199999999995 0.040282522554732726 -0.53435146839196168 0.84430197595645951
0.33204699999999998 0.189633 0.116381 0.012302230475068836 -0.55390167662194978 0.83249119380371306
0.29871900000000001 0.25713900000000001 0.158613 0.039604704221168081 -0.48211474809789934 0.87521245253369939
0.703986 0.310562 0.19256999999999999 -0.0051567175742765316 -0.51344237413118676 0.85810858095604059
0.45863700000000002 0.14250499999999999 0.087253700000000003 0.00016474527477433436 0.56708786879758866 -0.82365728426427653
0.68893800000000005 0.31101699999999999 0.19298599999999999 0.017030958880686606 -0.50028453657045391 0.86569355369442991
0.27323199999999997 0.26647399999999999 0.16478000000000001 0.0051627486077139286 0.51332948416417123 -0.8581760814160222
0.27008100000000002 0.25734499999999999 0.15881999999999999 0.028543936641216371 0.54333523398261174 -0.83903043281759593
0.35482900000000001 0.15180099999999999 0.094648999999999997 0.0012059786830788642 -0.57307884763044792 0.8194993471711699
0.29797400000000002 0.23188300000000001 0.14338300000000001 -0.017156601223547233 0.55312015149490357 -0.83292481596162737
0.65107499999999996 0.31060900000000002 0.19327800000000001 0.0022799280608166812 -0.46979088628293442 0.88277478730055037
0.46162199999999998 0.13989199999999999 0.085337700000000002 -0.0024728928936616056 -0.56963365880102945 0.82189499302629221
0.727294 0.10944 0.069385799999999997 -0.0224551076134453 -0.52455308163068959 0.85108156641641308
0.63833799999999996 0.31045499999999998 0.193019 -0.027049308318307885 -0.46583175706885366 0.88445978372430556
0.29661999999999999 0.21024100000000001 0.130021 -0.023457588546286944 0.49583977078956243 -0.86809715080914029
0.50653899999999996 0.10556500000000001 0.0651973 -0.012363086398216889 -0.60269557951281805 0.79787542419253588
0.45882499999999998 0.108317 0.065202200000000002 -0.012488189908338981 -0.56452669252046561 0.82532033692664863
0.233123 0.32750499999999999 0.19551099999999999 -0.25840200684098735 -0.17734371525758655 0.94961971837108905
0.45772299999999999 0.131325 0.079359499999999999 0.012942279357070569 -0.54010241244763235 0.84149978102985323
0.28799799999999998 0.31828899999999999 0.19544700000000001 0.0069310610447379309 -0.48974533426600808 0.87183798263064349
0.23722599999999999 0.29270400000000002 0.181258 0.0509510547203781 0.52077994037125352 -0.85216914032942714
0.29143400000000003 0.23424400000000001 0.14504800000000001 0.011840523831704784 0.54597682116102919 -0.83771660646682222
0.54103699999999999 0.10502400000000001 0.065349099999999993 -0.054909918756742518 -0.50333117856897247 0.86234716066239658
0.55318699999999998 0.10510799999999999 0.066304600000000005 -0.054768114029749723 -0.42914478847454685 0.90157373753385328
0.55508400000000002 0.106283 0.066985000000000003 -0.046764847093735316 -0.4174461640926681 0.90749752019529883
0.58355900000000005 0.104633 0.066267499999999993 -0.0054424265347365608 -0.55192640672774707 0.83387506351372043
0.58677900000000005 0.10456799999999999 0.065798800000000005 0.0041589020722979705 -0.55462627108880413 0.83208917968669771
0.59325499999999998 0.104772 0.066053399999999998 0.020156462413013068 -0.54980955628890527 0.83504680637458295
0.40154499999999999 0.13151499999999999 0.079699000000000006 0.031785720125230281 -0.53424822937631955 0.84472983693272508
0.26321099999999997 0.27818100000000001 0.17128699999999999 -0.010873134245759992 0.50401653574143757 -0.86362555928531559
0.29199900000000001 0.31869199999999998 0.195687 0.010375087546874625 -0.47911630417932649 0.87769010740006503
0.29936600000000002 0.234454 0.14515600000000001 0.019036845628478717 -0.5524631980400847 0.8333198745498871
0.64368099999999995 0.104952 0.066857399999999997 0.045325074949360625 -0.64122997169093132 0.76600898231423009
0.65462699999999996 0.10556500000000001 0.066172800000000004 0.049056649799832881 -0.62799961592969544 0.77666590468654617
0.537354 0.32221 0.19734599999999999 -0.0027958813288425023 -0.35380717572104398 0.93531420680747335
0.79662100000000002 0.14940000000000001 0.093040499999999998 0.04528245808323228 0.5087040305685997 -0.85974979399427676
0.79766899999999996 0.27137699999999998 0.169542 -0.0077619862433889117 0.55364552648410437 -0.83271626774892316
0.26741300000000001 0.25345800000000002 0.15611900000000001 0.031045483522356247 0.56765368576485387 -0.82268187714963048
0.30813400000000002 0.155416 0.0948798 -0.10202088930557826 -0.5891412670181938 0.80156366287494374
0.70353200000000005 0.106627 0.066452499999999998 0.019497648785493413 -0.58307679822086944 0.81218303914101586
0.70628999999999997 0.10681 0.066592899999999997 0.0077626596941675289 -0.58263516811912486 0.81269674663140579
0.57802600000000004 0.120216 0.076293 -0.033715481976671367 -0.53812195755740377 0.84219239195665296
0.73884000000000005 0.106891 0.067854800000000007 -0.029162025381985104 0.50430405120633548 -0.86303360317689737
0.77863199999999999 0.125775 0.076742199999999997 -0.11829015077750074 -0.61236283615833298 0.78167716937438991
0.79783700000000002 0.265455 0.165574 -0.016911667465647279 0.54527460458623123 -0.83808686966021639
0.34301399999999999 0.15404599999999999 0.095463400000000004 -0.033336347670742367 -0.56664883088821394 0.82328475655571065
0.64145399999999997 0.30674000000000001 0.191078 -0.01634659839270796 -0.49131984857731803 0.8708258121547322
0.77187899999999998 0.127049 0.076713199999999995 -0.082492886287241676 -0.62913866140247643 0.77290327237028866
0.49179400000000001 0.10901 0.066555900000000001 -0.04247352066315957 -0.54557728395520844 0.8369835286757642
0.70369499999999996 0.108681 0.067860199999999996 0.018909103856319165 -0.58065765536278402 0.81392821124466819
0.70657599999999998 0.10813300000000001 0.067676600000000003 0.0061116689351324799 -0.57816816819949257 0.81589473388646827
0.62211899999999998 0.31957000000000002 0.19650300000000001 -0.015995725068526076 -0.35460707327319724 0.93487858054623851
0.27643000000000001 0.29071799999999998 0.17851500000000001 -0.0031106192357614202 -0.52246278753922304 0.85265641361847211
0.61113499999999998 0.31924799999999998 0.19644600000000001 0.02235782632537895 -0.37163862378769841 0.92810821616403627
0.55640900000000004 0.31948399999999999 0.19619500000000001 0.0091043641575689477 -0.40075634146139244 0.91613943552920252
0.66661599999999999 0.107585 0.067538699999999993 -0.035847873097369969 -0.62502968962041527 0.77977741509189757
0.66889799999999999 0.100241 0.060715699999999997 -0.0082325532672171756 -0.75838496863978411 0.6517549113032719
0.78412400000000004 0.122797 0.075546000000000002 -0.13338979759565633 -0.60610496435533734 0.78411984675890256
0.34717700000000001 0.15392900000000001 0.095699000000000006 -0.043812998590080712 -0.56933377133582641 0.82093816939588715
0.58248 0.32210499999999997 0.197711 -0.024503775888770091 -0.37918144671854703 0.92499783536591174
0.57750800000000002 0.32233899999999999 0.19761799999999999 -0.031300538747983796 -0.38552703353013651 0.92216548552390476
0.59975500000000004 0.101439 0.063643199999999997 0.021760258413489764 -0.55220912954127421 0.8334216030347702
0.366811 0.12645400000000001 0.075106900000000004 -0.096679273664561249 -0.67792432526467805 0.72874668250231101
0.29927500000000001 0.175506 0.10860400000000001 0.02785802578353995 0.57388279918971707 -0.81846347700652988
0.298786 0.17616599999999999 0.1091 0.033440919002135583 0.54903800426813387 -0.8351281187970846
0.50243400000000005 0.101949 0.062218700000000002 -0.025240294275537454 -0.66663374706805867 0.74495796848874885
0.49212800000000001 0.320799 0.196274 -0.0050711740371931473 -0.42269826508766811 0.90625628819101711
0.54248799999999997 0.32226900000000003 0.19739999999999999 0.00075521722139707762 -0.35112882572359833 0.93632685393131565
0.45644400000000002 0.124962 0.075673199999999996 0.026020256564181506 -0.51998485053636589 0.85377907063889036
0.233704 0.264544 0.163185 -0.025100302685592185 -0.55589533068142238 0.83087324913712524
0.51406200000000002 0.105366 0.064910599999999999 0.0048368719986497761 -0.61127920331551922 0.79140024024712885
0.732765 0.094591300000000003 0.059997099999999998 -0.059295918760674679 -0.54409062202099534 0.83692854476779177
0.53832599999999997 0.10426299999999999 0.0646761 -0.05916426388700128 -0.51969052800689852 0.85230355213305342
0.30551200000000001 0.172093 0.10675 0.014338497218080736 0.56251928604940094 -0.82665982140176597
0.46264100000000002 0.32009700000000002 0.19567000000000001 -0.010082214371966932 -0.45598875739604577 0.88992842525776639
0.45714700000000003 0.32093100000000002 0.19611300000000001 -0.010361325905553437 -0.45320388866368627 0.89134666557159015
0.76672300000000004 0.12589700000000001 0.074892700000000006 -0.017460473194128311 -0.62948671041914539 0.77681504444849692
0.56116299999999997 0.10567500000000001 0.066862500000000005 -0.018200270488733791 -0.41444000474900239 0.90989462720569125
0.45200600000000002 0.32089099999999998 0.19599900000000001 -0.009553375660727035 -0.45712804744008773 0.88934958326695002
0.44780300000000001 0.320382 0.19569800000000001 -0.011891139739771989 -0.46712557366384355 0.88411102200171354
0.76423600000000003 0.12521199999999999 0.074066300000000002 0.02162631816091444 -0.62773363786937098 0.77812774160165255
0.312305 0.15765100000000001 0.096612500000000004 -0.059477666485779616 -0.57247693786173826 0.8177607002087186
0.230328 0.26900099999999999 0.165185 -0.057821084259681875 -0.54869180288054364 0.83402279804974966
0.43235099999999999 0.32049299999999997 0.19557099999999999 -0.011669622966802077 -0.48174996874866671 0.87623101263905956
0.27651199999999998 0.243977 0.150258 -0.053279823405089549 -0.54785810002037183 0.83487290209946974
0.66178099999999995 0.10578700000000001 0.065692 -0.0066385933400933822 -0.65124167365713381 0.75884136126776858
0.42740899999999998 0.32054899999999997 0.195469 -0.010673928863770065 -0.47909060390756675 0.87770055285962645
0.42281999999999997 0.32082100000000002 0.19553100000000001 -0.0090656903589498988 -0.48458309181679654 0.87469825676263335
0.29136299999999998 0.28168399999999999 0.17310700000000001 -0.0062785774751214374 0.50993517673552913 -0.86018991797892763
0.24698000000000001 0.29209099999999999 0.180754 0.034552001687849158 -0.51366352968607099 0.85729571178783448
0.65159900000000004 0.105278 0.066119399999999995 0.062231282890287287 -0.62389700476715837 0.77902490003362379
0.41767100000000001 0.32113199999999997 0.19573299999999999 -0.0078409726771780704 -0.49138800097260249 0.87090547802136675
0.41225299999999998 0.32107599999999997 0.19562099999999999 -0.0025025832218345651 -0.49857838978837166 0.86684100405625264
0.68711900000000004 0.104063 0.065807299999999999 0.018238961239099318 -0.62104036339750313 0.78356633881504634
0.27743499999999999 0.291549 0.17907100000000001 -0.0043048866842296998 -0.5253669317768872 0.85086488642203095
0.29458200000000001 0.24857699999999999 0.15415100000000001 0.00072357367552195861 -0.49539410956691871 0.8686680336282302
0.40756500000000001 0.32048900000000002 0.195272 0.0086804072415145664 -0.4833678356905407 0.8753743119088907
0.79790700000000003 0.250004 0.15579100000000001 -0.062865030951009954 0.54094452746117894 -0.83870555387056445
0.31923400000000002 0.17050899999999999 0.10542899999999999 0.025122296920959734 -0.53767515103946018 0.84277772998110756
0.39734399999999997 0.32117499999999999 0.195802 0.02056931703489031 -0.47057133917716842 0.88212216724313453
0.392567 0.32081700000000002 0.19597100000000001 0.018968649856390653 -0.47007955731162271 0.88242019476003286
0.32777200000000001 0.167293 0.10306700000000001 0.0091046475006516542 -0.51142739993223396 0.85927825527732504
0.37647399999999998 0.319355 0.19509599999999999 -0.0070588790576028414 -0.4589115233314609 0.88845393013934515
0.51369399999999998 0.098757300000000006 0.058737999999999999 0.0020311640613813642 -0.73339533187465444 0.679799353895707
0.36093599999999998 0.32141999999999998 0.196103 -0.010175167427856088 -0.44373271813619053 0.89610141213106165
0.357877 0.32136100000000001 0.19585 -0.013395655655901707 -0.44641217764734992 0.8947271785621016
0.73073600000000005 0.094095200000000004 0.059666499999999997 -0.081124635605045958 -0.53999202020876469 0.83775140203332721
0.34749600000000003 0.32032300000000002 0.195191 -0.00773439966823609 -0.45824414877751102 0.88879270877575633
0.34239599999999998 0.32114999999999999 0.19542399999999999 0.01355241595870834 -0.47126261625458554 0.88188881302722344
0.33816499999999999 0.32089699999999999 0.19539500000000001 0.023818462323004188 -0.47583327448090318 0.87921292969868758
0.28319899999999998 0.25051899999999999 0.15470500000000001 -0.028735935659533092 -0.52624742323192919 0.849845806922365
0.35463600000000001 0.160608 0.10026400000000001 0.011642598956598296 -0.51510334686532733 0.85704900206328583
0.270816 0.28476600000000002 0.17497599999999999 0.0081273462268861459 -0.50592942581195788 0.86253658608831862
0.27989599999999998 0.24967900000000001 0.153895 -0.041470970797232394 -0.53544315733845038 0.84355247841528302
0.42426199999999997 0.124984 0.076598399999999997 -0.055587115396560319 -0.48628248847249367 0.87203177350764494
0.467337 0.110467 0.066988199999999998 -0.010015326059014952 -0.55106836019842609 0.83439999738263992
0.235766 0.32238 0.19516800000000001 -0.19568394230210709 -0.2521536047684847 0.94769528558886673
0.23211100000000001 0.32171300000000003 0.19414799999999999 -0.23388657615105896 -0.26102674111738167 0.93656933001138487
0.48383100000000001 0.108193 0.065668900000000002 -0.028361702828195817 -0.55530889091659263 0.8311604234332074
0.487707 0.10800999999999999 0.065820000000000004 -0.03213411906621956 -0.55474907394317063 0.83139693489393673
0.26869999999999999 0.28558899999999998 0.17544399999999999 -0.012151633698194345 0.5077561032087694 -0.86141515975324634
0.79284299999999996 0.31499199999999999 0.195296 -0.11528842048080896 -0.69962050623360339 0.70515227246352741
0.50742399999999999 0.108401 0.066898299999999994 0.018125984785345394 0.57653607660146267 -0.81687061463401511
0.51256000000000002 0.107955 0.066780900000000004 -0.0066978520431553029 -0.57680683282331147 0.81685311800001636
0.51717500000000005 0.107894 0.066696099999999994 0.0014379858087099611 -0.58118286462124313 0.81377171864562814
0.78800499999999996 0.31522600000000001 0.19498299999999999 -0.071730716871070022 -0.69666049164321986 0.71380590053640625
0.79549999999999998 0.119919 0.075203000000000006 -0.11543544649304703 -0.55836510037528519 0.82152484586642205
0.469746 0.124406 0.075149199999999999 -0.012521685496873082 -0.5264604187467874 0.85010742549708085
0.77273000000000003 0.31535800000000003 0.19498499999999999 0.03339900407146823 -0.65074158906995883 0.7585643616607225
0.54263099999999997 0.108149 0.067280400000000004 -0.044793618195146302 -0.49390350938453498 0.86836216821475387
0.29779800000000001 0.25094100000000003 0.155337 0.012742938637128099 -0.48936280955425432 0.87198718920638818
0.55310800000000004 0.10798000000000001 0.067514199999999996 -0.037395456118178391 -0.45055262591617024 0.89196631726862696
0.557396 0.108166 0.067897799999999994 -0.035776106950171922 -0.42535403680585104 0.90431964124664255
0.56155900000000003 0.108073 0.067851900000000007 -0.024881440540878812 -0.43795598374321887 0.89865202955321943
0.76267499999999999 0.31495200000000001 0.19561100000000001 0.044715584633557237 -0.58352294458395504 0.81086465555908271
0.75756699999999999 0.31501299999999999 0.195803 0.039711250600567544 -0.55184099002304488 0.83300332430676705
0.74746100000000004 0.31478200000000001 0.19608999999999999 -0.0050508850728799067 -0.52097058899077642 0.85355968389245296
0.58235700000000001 0.10728 0.067996500000000001 -0.00591278398075903 -0.5525504304070219 0.8334584937731524
0.58754700000000004 0.10785500000000001 0.068019800000000005 0.010327494440962592 -0.55047406933610554 0.83478838147588086
0.59254399999999996 0.10773199999999999 0.0680896 0.023567152622038238 -0.54795508664680814 0.83617570661624596
0.68265399999999998 0.31795099999999998 0.19698399999999999 0.0091637570770615184 -0.46867345430154583 0.8833239602712526
0.60268699999999997 0.107617 0.067485500000000004 0.022624857204669363 -0.54856510717265994 0.83580167445938802
0.67750600000000005 0.31795800000000002 0.197101 0.0090778971623940909 -0.45288176565440103 0.89152436765399778
0.61435799999999996 0.107072 0.067040500000000003 -0.014519986132474232 -0.56994323125472801 0.82155576995699642
0.61722200000000005 0.107636 0.067455799999999996 -0.027591795762756433 -0.57468860607573613 0.81790690109163033
0.73753000000000002 0.31512400000000002 0.19561799999999999 -0.022097210530478941 -0.48525680800491849 0.87409241134541882
0.73220099999999999 0.31529699999999999 0.19566800000000001 -0.021124873655832942 -0.48114086292165248 0.87638873209326029
0.63733600000000001 0.106824 0.068490899999999993 -0.0014092347797901063 -0.60237240427673255 0.7982139441422984
0.64252100000000001 0.10695300000000001 0.068399699999999994 0.035351246152571472 -0.61883835656994723 0.78472248459775107
0.29173199999999999 0.28551900000000002 0.17552499999999999 -0.010445727465987969 0.51523066708408993 -0.85698789167279932
0.652582 0.107487 0.067648399999999997 0.058130035993338797 -0.59871718928452822 0.7988483123664013
0.65731600000000001 0.108197 0.067696400000000004 0.027375587767601208 -0.61306206152133935 0.78956031176698849
0.727738 0.31531999999999999 0.19562199999999999 -0.011196635227614507 -0.47717762550587128 0.8787355398959108
0.72230899999999998 0.315579 0.19564000000000001 -0.0081029317680136239 -0.48320966449242791 0.87546716822384496
0.79748399999999997 0.28059899999999999 0.17575399999999999 0.0381543483332508 0.52216832578236949 -0.85198854760665776
0.71241500000000002 0.31540299999999999 0.195525 -0.0038411100055720307 -0.50810558111543447 0.86128622670589117
0.68279999999999996 0.10749 0.0686977 0.022426132376171557 -0.60126021248995198 0.79873852133422485
0.68758799999999998 0.107236 0.068237000000000006 0.059443170884650384 -0.59155154913168062 0.80407292838093203
0.69241399999999997 0.10781399999999999 0.067814299999999994 0.063190053087328266 -0.58553930198477766 0.80817742050987762
0.79698500000000005 0.24315400000000001 0.151258 -0.076532536396102538 0.5434764579511896 -0.83592829269358249
0.28739399999999998 0.243196 0.15078900000000001 -0.044427528274990885 -0.51517863685070742 0.85593058530702193
0.62629199999999996 0.100776 0.062856200000000001 -0.013308183218114 -0.64200064453812045 0.76658858892633608
0.71252199999999999 0.107978 0.067468399999999998 -0.024936368533924409 -0.57405581226055513 0.81843637622860754
0.70736100000000002 0.31534499999999999 0.19550699999999999 -0.0016087287952496112 -0.514585743604553 0.85743741723265876
0.70224299999999995 0.31540299999999999 0.19550600000000001 0.00042357303737812247 -0.51322456997411392 0.85825425216585316
0.69761899999999999 0.31534099999999998 0.19547100000000001 0.0011538594348122367 -0.50138677634070083 0.8652224968868325
0.41387299999999999 0.12065099999999999 0.073431700000000003 -0.044855073292594791 -0.5076323046145429 0.86040540776522534
0.687388 0.31565100000000001 0.195683 0.0090729884141067911 -0.48643906570042211 0.87366739451677911
0.79657800000000001 0.240256 0.14940200000000001 -0.087455740231507026 0.53849266933946027 -0.83807943452170564
0.67226699999999995 0.31524099999999999 0.195685 0.0022122904563524645 -0.4606284884248753 0.88759027789986034
0.56255200000000005 0.32220300000000002 0.19723199999999999 -0.0056379647609470229 -0.36959122715192616 0.92917734484095527
0.66270099999999998 0.315216 0.19558800000000001 -0.0010367294779349435 -0.4397879743894359 0.89810103149613785
0.65238399999999996 0.31514900000000001 0.19563800000000001 0.0036915274343321761 -0.43532389705997449 0.90026633685466595
0.64777799999999996 0.31499700000000003 0.19559599999999999 -0.0054854715129626771 -0.43647109222372388 0.89970155899348647
0.27740799999999999 0.244867 0.15085399999999999 -0.052534346510692678 -0.54638265334604696 0.83588643879370861
0.63740600000000003 0.31540099999999999 0.195553 -0.034818760716747492 -0.410472630068214 0.91120792021746211
0.63224999999999998 0.31597900000000001 0.195546 -0.039249592885329782 -0.39692309959429456 0.91701228043401539
0.627054 0.31603999999999999 0.19525500000000001 -0.032606836482458018 -0.39692745953276787 0.91727061769331142
0.29784300000000002 0.29701499999999997 0.18229500000000001 -0.028001238938581769 0.51995893041697694 -0.85373218359011038
0.61742600000000003 0.31619000000000003 0.19495899999999999 -0.0010591364863181936 -0.40426207516880336 0.91464258200136095
0.64697099999999996 0.10044 0.062446500000000002 0.051937484346034055 -0.69548654734817772 0.71665958458498003
0.60733899999999996 0.31600099999999998 0.19529299999999999 0.019263555155070253 -0.40733005271308376 0.91307784093117939
0.60247099999999998 0.315695 0.195301 0.015625935267292383 -0.41229623820885308 0.91091582602667043
0.75739699999999999 0.12564600000000001 0.075391799999999995 0.086760030880195252 -0.58894069982357788 0.80350578662071992
0.29181400000000002 0.296572 0.18226800000000001 0.01997983272355917 -0.52654830491457949 0.8499104004987359
0.47255000000000003 0.11241900000000001 0.068287799999999996 -0.01422333737241715 -0.53673120235129856 0.84363339970423179
0.28750900000000001 0.29696 0.182478 0.010813642983125867 -0.53189215658353373 0.84674305364162927
0.79612400000000005 0.122361 0.076970300000000005 -0.097161233855325463 -0.53968108653391711 0.836243995179207
0.298763 0.241198 0.14966199999999999 -0.020009925798798497 0.53033466474520508 -0.84755220856246827
0.29000300000000001 0.240787 0.14943100000000001 -0.026988837881157884 -0.52954325930064272 0.84785348920616976
0.49644899999999997 0.113082 0.069392700000000002 -0.041840420833583525 -0.53931464807223362 0.84106426006530044
0.50474600000000003 0.11387 0.070274600000000007 -0.030562126606501424 -0.54049317370192074 0.84079312889611146
0.54743600000000003 0.32234000000000002 0.19744999999999999 0.0038540256071789426 -0.35158792747021395 0.93614693063846477
0.51251400000000003 0.11215600000000001 0.069349800000000003 0.0081743291819832906 0.54967045468238718 -0.8353415897653379
0.28270600000000001 0.29724200000000001 0.18277099999999999 -0.0039884483711921598 -0.53602339265671806 0.8441937069206169
0.52215500000000004 0.10234 0.062431500000000001 -0.011179960796533359 -0.6644047544209073 0.7472893220028517
0.59254700000000005 0.31584699999999999 0.19539100000000001 -0.016251874301771801 -0.42136374220251127 0.90674609088695535
0.58728899999999995 0.31618499999999999 0.19534599999999999 -0.029068070113169725 -0.42795494333297113 0.90333250455010705
0.58244300000000004 0.31612800000000002 0.19508600000000001 -0.035613674250841769 -0.43542064224841565 0.8995223902217957
0.542632 0.11176999999999999 0.069392800000000004 -0.026300671838357333 -0.50790737305277245 0.86101008998703521
0.54730599999999996 0.11192000000000001 0.069465399999999997 -0.019823813625238336 -0.49189695908370423 0.87042770984014317
0.44868400000000003 0.124461 0.075696299999999994 0.044062495399503632 -0.52163412499937645 0.85203071314084888
0.55718500000000004 0.11157400000000001 0.069503599999999999 0.025748393770340321 0.46087941322265258 -0.88708916501431323
0.56145900000000004 0.112038 0.0698352 -0.039474934257864212 -0.46832309281268558 0.8826750309732897
0.79746499999999998 0.23741300000000001 0.14741000000000001 -0.11019516746438299 0.5326990568810146 -0.83909995820854033
0.326963 0.238458 0.14623700000000001 0.045869079742030083 -0.53166912961614521 0.84570914866568059
0.44466699999999998 0.12731000000000001 0.077848700000000007 0.054881671531804101 -0.51364273432836383 0.85624712764572652
0.58204699999999998 0.10982599999999999 0.069600400000000007 -0.007042809071096846 -0.549277723729239 0.83561018486804839
0.27218500000000001 0.28131699999999998 0.17300199999999999 0.0075069919822865726 -0.49683262990090654 0.86781391031552768
0.59234699999999996 0.110975 0.070136000000000004 0.027366302964025389 -0.54648257510584142 0.83702322582337552
0.59764600000000001 0.111247 0.070141499999999996 0.018216775119112603 -0.5474207852554428 0.83665920957972728
0.56748200000000004 0.32245699999999999 0.19733000000000001 -0.012578727515823 -0.36484516806807987 0.93098323236858416
0.46758100000000002 0.127911 0.077386700000000003 -0.015444402111726532 -0.53865040212693971 0.84238780542686964
0.61285800000000001 0.112918 0.071022100000000005 0.023758387829224729 0.56172838230976474 -0.82698050975546644
0.61818499999999998 0.111166 0.069988800000000004 -0.044136153656709823 -0.57030931366071747 0.82024343136183231
0.79693999999999998 0.29619299999999998 0.18407200000000001 0.11713098578945723 0.46298392251102355 -0.87859331870000978
0.629436 0.11181199999999999 0.071513800000000002 -0.049414086010358793 -0.55820940217197734 0.82822733076768495
0.56694 0.12659500000000001 0.079392699999999997 -0.063345749054774025 -0.52651393673661251 0.84780327346549234
0.63788199999999995 0.10981100000000001 0.070594500000000004 0.0009430362236133305 -0.57727136861990713 0.81655182178131258
0.64335100000000001 0.110862 0.071179300000000001 0.058320656287669664 -0.55983767852210387 0.82654732154738542
0.76400299999999999 0.12742700000000001 0.075931600000000002 0.01346772909783471 -0.62417044446726055 0.78117211709487555
0.652111 0.109898 0.069407899999999995 0.06841654489927157 -0.58073431466930991 0.81121318538939735
0.656806 0.112121 0.070217399999999999 0.011417452249763753 -0.56884016757644895 0.82236883789192883
0.75189499999999998 0.123741 0.075202000000000005 0.13588887763911572 -0.54976425440414423 0.82419262160822371
0.78271500000000005 0.12639900000000001 0.077951599999999996 -0.10842875576409665 -0.58890710565713333 0.80089426632358118
0.67427599999999999 0.109832 0.070294400000000007 -0.046544224791169125 -0.59632226189878901 0.80139465627273887
0.79724200000000001 0.29247000000000001 0.18240100000000001 0.085660540297953419 0.45921869635189588 -0.88418349948227781
0.68260100000000001 0.10986799999999999 0.070390900000000006 -0.033892163139145594 0.5773975393054146 -0.81575940257026869
0.68775399999999998 0.110639 0.070388199999999998 -0.071153539016368589 0.56142304561891276 -0.82446427316981452
0.69229600000000002 0.111058 0.070121100000000006 0.064911061973895914 -0.55844415186657148 0.82699859932133302
0.46162500000000001 0.119948 0.072661199999999995 0.0025447450146027593 -0.5185817242506886 0.85502428009150344
0.70740400000000003 0.110801 0.069353899999999996 0.0015071235744753431 -0.57426108050349711 0.8186708373928363
0.71196400000000004 0.111386 0.069831699999999997 -0.01324451036806984 -0.56614638053397393 0.82419831275815603
0.71888300000000005 0.110497 0.069462899999999994 -0.033778915984192581 -0.54975548997307067 0.83464237016784726
0.53259500000000004 0.32228400000000001 0.19739100000000001 -0.0042093062683364506 -0.35767585382858502 0.93383631613293561
0.542578 0.31617899999999999 0.19488800000000001 0.0038844816410384345 -0.43211136399822225 0.90181188720596084
0.53729800000000005 0.31642599999999999 0.19487399999999999 -0.0067416470768378199 -0.43113293133273606 0.90226323526736529
0.53242400000000001 0.31650400000000001 0.19484499999999999 -0.010574924917331528 -0.43035714018062526 0.90259675539996609
0.52760300000000004 0.31650800000000001 0.19481599999999999 -0.011100716062455201 -0.43561752445117047 0.90006341248488397
0.45719500000000002 0.121462 0.073583099999999999 0.021641363925651535 -0.51729295648550977 0.85553471498117351
0.517289 0.31633800000000001 0.194606 -0.015248214912482697 -0.44041226480935713 0.89766615673505001
0.51244100000000004 0.31675399999999998 0.194748 0.018413840449943444 0.43677319033967071 -0.89938318345429935
0.50757099999999999 0.31651699999999999 0.19448399999999999 -0.022808801207410179 -0.4426192434006162 0.89641952453019813
0.36800699999999997 0.12975999999999999 0.077662499999999995 0.06735294061782289 0.65125273133560879 -0.75586603397562535
0.290163 0.30076900000000001 0.18496599999999999 0.023501788343814535 -0.53016099686481255 0.84757122612082025
0.75255099999999997 0.317469 0.19753799999999999 0.0054828955500927576 -0.54467114977779751 0.83863178836490526
0.29821500000000001 0.25269399999999997 0.156275 0.01400538651056198 -0.48738607013563073 0.87307426246937092
0.72715799999999997 0.100979 0.063765000000000002 -0.051266411122942265 -0.53918817879576464 0.8406234965413949
0.40811700000000001 0.13142100000000001 0.079615000000000005 0.010633913792016406 -0.51839033427723791 0.85507799714727617
0.79725199999999996 0.25223000000000001 0.15729699999999999 -0.059317962991735682 0.53886307482931306 -0.84030230622794866
0.46717999999999998 0.11606 0.070267099999999999 -0.0045808771701572205 -0.52256177163911854 0.85258912166748724
0.47266599999999998 0.115948 0.070388599999999996 -0.01555659408509567 -0.52398004467654291 0.85158845997420607
0.26415899999999998 0.257189 0.15856300000000001 0.042033676374341439 0.54926035757321867 -0.83459345171706034
0.73275699999999999 0.100507 0.064030299999999998 -0.035024326640219525 -0.53098949389670813 0.84665427059379839
0.48795100000000002 0.115803 0.070584999999999995 0.050132498361857139 0.53419899723701825 -0.843870940345123
0.49190099999999998 0.115464 0.070680099999999996 0.04754308978427188 0.53568723411082342 -0.84307700824092002
0.79323699999999997 0.117676 0.073038400000000003 -0.13772146508857941 -0.57719151798078538 0.80491164088047074
0.33220499999999997 0.23622799999999999 0.144618 0.021822954243244423 -0.51861806778345509 0.85472747612127942
0.32753399999999999 0.236289 0.144869 0.04024024320988287 -0.52593778807475278 0.84957057735155017
0.53937299999999999 0.114465 0.070949999999999999 0.0080019804852486456 0.52652969394169336 -0.85011907972117695
0.54326200000000002 0.115499 0.071673200000000006 -0.00848840343656624 -0.52123545073541955 0.85337070016713279
0.33742100000000003 0.23261599999999999 0.14238200000000001 -0.0041679884626136653 -0.49926662188710541 0.86643838104138349
0.55332000000000003 0.114469 0.070999900000000005 -0.016795937244304587 -0.49133388467104805 0.87080934208708527
0.55748399999999998 0.114465 0.071071499999999996 0.030141412134335278 0.48987938733637149 -0.87126900618436409
0.56051600000000001 0.114486 0.071174299999999996 0.040049233181470842 0.49436361683693381 -0.86833212152348815
0.78792899999999999 0.119431 0.073394200000000007 -0.139560473389918 -0.59237679545266408 0.79348132081128075
0.33246999999999999 0.232269 0.14224500000000001 0.01053979483329141 -0.50436750840256639 0.86342476753487862
0.59797999999999996 0.11423700000000001 0.072012599999999996 0.023470836674735734 -0.54564024005025336 0.83769078320325918
0.30239300000000002 0.23230200000000001 0.143566 -0.021783150991958003 0.55229972521419113 -0.83336097092507933
