# .PCD v0.7 - Point Cloud Data file format
VERSION 0.7
FIELDS x y z
SIZE 4 4 4
TYPE F F F
COUNT 1 1 1
WIDTH 1464
HEIGHT 1
VIEWPOINT 0 0 0 1 0 0 0
POINTS 1464
DATA ascii
0.47711852 0.20270453 0.16878058
0.47743249 0.20418143 0.17462154
0.47713038 0.20644286 0.17582712
0.60232979 0.20455484 0.17469093
0.60176653 0.20487881 0.17506935
0.48010084 0.21453577 0.17410368
0.47961247 0.21486254 0.17544368
0.6022535 0.21510704 0.1748956
0.60208648 0.21509123 0.17514479
0.48116583 0.22450909 0.17398903
0.4809877 0.22428402 0.17530774
0.4806442 0.22603078 0.17162171
0.60231835 0.22495608 0.17495386
0.60185319 0.22502728 0.17506446
0.48102656 0.23517713 0.17278884
0.48065957 0.23508076 0.17659467
0.48027217 0.23012042 0.17225467
0.60237402 0.23534828 0.1756241
0.60211366 0.23484926 0.1747483
0.47972751 0.24525404 0.17286149
0.47845349 0.24469927 0.17568523
0.60297638 0.24519432 0.17525126
0.60264659 0.24496469 0.17479837
0.60266644 0.24904068 0.17709337
0.4797194 0.25729534 0.17322253
0.47792685 0.25500956 0.17568544
0.60335612 0.25539055 0.17515022
0.60293353 0.25475442 0.17480612
0.6029737 0.25293708 0.17880581
0.47751737 0.26632774 0.17469957
0.47745946 0.26373613 0.17589952
0.60293925 0.26500714 0.17454948
0.60273111 0.26514155 0.17508307
0.47469014 0.27474272 0.17492798
0.47499806 0.27357167 0.17706983
0.60267615 0.27462643 0.17490731
0.6023857 0.27514583 0.17508824
0.60225135 0.27174893 0.17653286
0.47291926 0.2852411 0.1679714
0.47393596 0.28734681 0.16992629
0.47367191 0.28515339 0.17560236
0.47377175 0.28576499 0.17751081
0.60255516 0.28533277 0.17443542
0.60209811 0.28499317 0.17518333
0.60122097 0.28907335 0.17268769
0.47300893 0.29575789 0.16937627
0.47355849 0.29527187 0.17608263
0.47413754 0.29555711 0.17763703
0.60186493 0.29573196 0.17495339
0.60124469 0.29464823 0.175106
0.47299033 0.31166726 0.16913502
0.47335741 0.30316648 0.169047
0.47324041 0.30595672 0.17615481
0.47394916 0.31046847 0.17910182
0.60045904 0.30520099 0.17425939
0.59940875 0.30487469 0.17532493
0.47170138 0.3142617 0.16788639
0.46738562 0.32107818 0.17439009
0.47724053 0.31216103 0.17281136
0.4840537 0.31495905 0.17462873
0.49273935 0.32238531 0.17410193
0.5050059 0.3218618 0.17483781
0.51499778 0.32162419 0.17506406
0.52528459 0.32276475 0.1746051
0.53561509 0.32223243 0.17487113
0.54483289 0.32178429 0.17491026
0.55545288 0.32175618 0.17511429
0.56489241 0.32230863 0.17501727
0.57552415 0.32247913 0.17511205
0.5854876 0.32182425 0.17509976
0.59689319 0.31557435 0.17528193
0.59713864 0.31455147 0.17461035
0.45882493 0.32576498 0.17368378
0.46226832 0.31961596 0.17434026
0.47392753 0.31273437 0.17118406
0.48629078 0.31518516 0.17293297
0.49611878 0.32088423 0.17483847
0.50461692 0.32125071 0.17508727
0.5150435 0.32147843 0.17509148
0.52527314 0.32158497 0.17472921
0.53444368 0.3218047 0.17463702
0.54521376 0.32078421 0.17466182
0.55568653 0.32116413 0.17459157
0.56471717 0.32155725 0.17476678
0.57529533 0.32137609 0.17464983
0.58504653 0.32012478 0.17418428
0.59671688 0.31769502 0.17435242
0.60305721 0.32482934 0.17476715
0.60962272 0.3288981 0.17585532
0.45866433 0.3236658 0.17648865
0.60167903 0.32096791 0.1717111
0.6083613 0.32785144 0.17325473
0.61290795 0.32895193 0.17531063
0.47497925 0.15849151 0.18530662
0.50588256 0.16869619 0.18449239
0.55561972 0.16904566 0.18492705
0.58760315 0.16906025 0.18377957
0.59163231 0.16798335 0.18483423
0.61015558 0.17138676 0.17963871
0.48113337 0.17196044 0.18385942
0.48803937 0.16949159 0.18480253
0.49502295 0.16879717 0.18488097
0.50404584 0.16880278 0.18431015
0.51480287 0.167688 0.18525329
0.52476037 0.16885139 0.18458134
0.53520036 0.16859201 0.18564284
0.54556441 0.16806407 0.18501554
0.55415237 0.16818857 0.18664984
0.56516242 0.16855286 0.185084
0.57623637 0.16760984 0.18589163
0.58411568 0.16849154 0.18658888
0.5937584 0.17354815 0.18649283
0.60287428 0.17018914 0.18516648
0.60553569 0.17013858 0.18387792
0.61654139 0.16545498 0.18748264
0.48180389 0.1790124 0.18407643
0.48189229 0.17212635 0.18582781
0.49351358 0.16728857 0.18501896
0.50452214 0.16774102 0.18541411
0.51529902 0.16750833 0.18496226
0.52512109 0.16840108 0.18484035
0.53483087 0.16854174 0.18493994
0.54571652 0.16759978 0.18446362
0.55525243 0.16768703 0.18339708
0.56498098 0.16811477 0.18411337
0.57531947 0.16711934 0.1837212
0.58671051 0.16867261 0.18397678
0.59669554 0.17361142 0.18510497
0.60160846 0.17621633 0.18465669
0.60441619 0.16962153 0.18359132
0.47003707 0.19444649 0.18436748
0.47086319 0.19100608 0.1843432
0.47546259 0.18568999 0.18490893
0.47796446 0.18113424 0.18585947
0.60220391 0.18461615 0.18492344
0.59898204 0.18439689 0.18494983
0.45757681 0.19015212 0.18137695
0.47077441 0.18810263 0.18338189
0.47251511 0.19589239 0.18567799
0.47236672 0.19262619 0.18628365
0.60227334 0.19453342 0.18523408
0.60132968 0.19488348 0.18489042
0.47852889 0.20414715 0.18456797
0.4780573 0.20629437 0.18543474
0.60380232 0.2048627 0.18568817
0.6034227 0.20496194 0.18487604
0.60281551 0.20404133 0.1835361
0.48060831 0.2143607 0.18377411
0.48000598 0.21528704 0.18538108
0.60431981 0.21497391 0.1855379
0.60393184 0.21514712 0.18493514
0.48114431 0.22449948 0.18375197
0.48086655 0.22525077 0.18558633
0.60424519 0.22488718 0.18543315
0.60384017 0.22497752 0.1847886
0.60365778 0.22348844 0.18837146
0.48149648 0.23612656 0.18400557
0.48079219 0.23501696 0.18538018
0.60420787 0.23490274 0.18520728
0.60396266 0.23480517 0.18497966
0.60374522 0.23679227 0.18540421
0.47924969 0.24587081 0.18361887
0.47915143 0.2446716 0.18579368
0.60404956 0.24535939 0.18397897
0.60355377 0.2448777 0.1851916
0.47852281 0.25501022 0.1841425
0.4781698 0.25499082 0.18569301
0.60450423 0.25487825 0.18502359
0.60408962 0.25502971 0.1849954
0.60367042 0.25797641 0.18273561
0.47932765 0.26576042 0.18432295
0.4784261 0.26461053 0.18561244
0.60455 0.26392096 0.18467431
0.60395736 0.26528338 0.18498601
0.60431379 0.2605384 0.18479723
0.47583124 0.27568105 0.18723044
0.47514224 0.27530241 0.18455642
0.47607982 0.27389339 0.18757033
0.60430771 0.27521148 0.18548369
0.60366881 0.27483058 0.18476197
0.60342818 0.2763522 0.18540484
0.47520807 0.28686577 0.17935762
0.47546944 0.28988707 0.18191181
0.47432315 0.28494287 0.18459076
0.4755016 0.28588611 0.18772517
0.60341442 0.28505602 0.18522605
0.60280049 0.28500926 0.18498082
0.47581097 0.29570526 0.18444023
0.47668418 0.29521307 0.18776147
0.60267717 0.29570043 0.1841388
0.60218465 0.29491276 0.18534985
0.47469318 0.31242159 0.18399383
0.4776009 0.30515957 0.18478078
0.47597933 0.30536479 0.18720938
0.60168195 0.30589029 0.18480612
0.60056192 0.30476093 0.18530102
0.47220346 0.31670603 0.17907871
0.46853176 0.32079867 0.18463321
0.47865438 0.3102732 0.18404417
0.48259455 0.30967745 0.1844444
0.4910976 0.31811699 0.18557392
0.50498205 0.32188472 0.18192841
0.5157156 0.32160342 0.18082412
0.52690524 0.32183686 0.18478149
0.53516728 0.32236448 0.18516931
0.54507881 0.32197353 0.18482624
0.55543423 0.32158229 0.18439114
0.56469303 0.32133809 0.18490958
0.5748629 0.32167846 0.18483584
0.58510381 0.32165593 0.18344465
0.59646755 0.3153477 0.1848859
0.59740239 0.3145918 0.18529589
0.59845084 0.3131007 0.18544994
0.45796439 0.32378688 0.18413907
0.46385679 0.3184031 0.1848665
0.47144273 0.31345946 0.18512934
0.48628181 0.31190827 0.1850777
0.4955973 0.31895512 0.1846299
0.50493145 0.32161331 0.18487045
0.51543832 0.32105827 0.18538021
0.52485657 0.32154858 0.18487507
0.53502721 0.32196182 0.18479213
0.54462904 0.32191449 0.18533626
0.55522674 0.32098871 0.18490346
0.56477582 0.32094255 0.18487534
0.57540381 0.32111233 0.18516143
0.58502698 0.31973088 0.18539675
0.59567332 0.31790605 0.1846758
0.59853303 0.32621363 0.18543889
0.60608912 0.33029127 0.18246496
0.46138647 0.31958494 0.18012743
0.6014896 0.31952584 0.18516451
0.60844338 0.32730103 0.18532892
0.60989296 0.33292291 0.18549898
0.48094264 0.170469 0.19169839
0.48138136 0.17071676 0.19944032
0.52981347 0.16909134 0.19159155
0.55613172 0.16831468 0.19346568
0.56736076 0.16879511 0.1966286
0.59176046 0.16949315 0.19297339
0.48375288 0.17109971 0.19227701
0.48665965 0.16893849 0.19453888
0.49584422 0.1695483 0.19498751
0.50500083 0.16946562 0.19441018
0.514714 0.16864009 0.19501576
0.52532417 0.16874844 0.19484434
0.53488392 0.16887134 0.19582991
0.5461098 0.16825476 0.19429186
0.55434132 0.1678863 0.1937951
0.56594175 0.16821444 0.19544308
0.57537144 0.16738029 0.19437079
0.58478564 0.16855754 0.19397072
0.59389979 0.17220356 0.19316605
0.60066313 0.17033473 0.19279736
0.603311 0.17011262 0.19222149
0.61767209 0.16598149 0.19168541
0.48278797 0.17887186 0.19225642
0.48421243 0.17493376 0.195774
0.49333966 0.16752802 0.1960952
0.50445521 0.16867937 0.19532554
0.51486999 0.16824478 0.19556805
0.5251202 0.16829902 0.19513947
0.53500819 0.16840875 0.19498752
0.54508579 0.16819526 0.19569647
0.55527055 0.16753176 0.19559099
0.56505352 0.16716421 0.1950735
0.57604486 0.16684705 0.19533996
0.58736688 0.16807778 0.19602832
0.59741259 0.17272344 0.19634417
0.60021853 0.17604801 0.19431657
0.60207278 0.17067435 0.1923638
0.45908678 0.19192639 0.19252203
0.47925672 0.1852404 0.19350293
0.48077205 0.18270233 0.19686392
0.60113668 0.18479164 0.19597077
0.59897184 0.18449995 0.19360234
0.46483892 0.18824434 0.18902586
0.47241205 0.19220109 0.19021839
0.47704342 0.1948974 0.19509161
0.47861418 0.19511546 0.19844159
0.60127217 0.19451296 0.19561964
0.60121948 0.19491938 0.194084
0.48010185 0.20445803 0.19398402
0.48030359 0.20506816 0.19679874
0.60209596 0.20498946 0.19587757
0.60230577 0.20506823 0.19448422
0.60122448 0.20591891 0.19603544
0.48157132 0.21471566 0.19419391
0.48089007 0.2149346 0.19561264
0.60267192 0.21469875 0.19608593
0.60297978 0.21497005 0.19449303
0.60369068 0.21775547 0.19316016
0.48134345 0.22584045 0.19459455
0.480901 0.22526844 0.19596964
0.6033181 0.22474128 0.19589861
0.60317868 0.22488096 0.19476788
0.60361844 0.22161499 0.19205356
0.48128539 0.23554279 0.19425541
0.48138916 0.23481536 0.19572183
0.4849163 0.24028629 0.20189588
0.60334361 0.23453784 0.19599321
0.60324448 0.23517752 0.1947396
0.60215479 0.23791279 0.19642727
0.48080361 0.24457942 0.19435412
0.48115477 0.24496049 0.19546562
0.48394096 0.24651502 0.20187339
0.60369986 0.2455384 0.19596742
0.60311443 0.24478096 0.19498765
0.60313863 0.24401148 0.19454172
0.48093277 0.25461307 0.1940175
0.48141134 0.25491029 0.19622763
0.48420697 0.25053743 0.20171618
0.6041913 0.25511011 0.19514605
0.60358787 0.25500101 0.1951424
0.60391331 0.25771359 0.19447565
0.4796007 0.26448929 0.19424179
0.47961053 0.26473036 0.196348
0.48419973 0.26572686 0.20268312
0.60446513 0.26440096 0.19608459
0.60439807 0.26504034 0.19514827
0.60316753 0.26590726 0.19791965
0.4769488 0.27457955 0.19157754
0.47810698 0.27489531 0.19465677
0.47858095 0.27462056 0.19742922
0.48245141 0.27497882 0.20379126
0.60455054 0.27543199 0.19568343
0.60415536 0.27498201 0.19509003
0.60363019 0.27635768 0.19564539
0.47702134 0.2850832 0.19209547
0.47799432 0.28516719 0.19472852
0.47826523 0.28489491 0.19627395
0.48334646 0.28627855 0.20444345
0.60383773 0.28496754 0.19518732
0.6034106 0.28495649 0.19509074
0.60314763 0.28302205 0.19460148
0.48004568 0.2956374 0.19417906
0.48000529 0.29584599 0.19627883
0.48394856 0.29551542 0.20326644
0.6038394 0.2960296 0.19556008
0.60286152 0.29491651 0.19481847
0.4750565 0.31347945 0.18776566
0.48161292 0.30537599 0.19312723
0.48047814 0.30523473 0.19595398
0.48266461 0.30491474 0.20386826
0.60212231 0.30619955 0.19568206
0.60091007 0.30491114 0.1945482
0.60126501 0.30278623 0.19706035
0.46934721 0.32124633 0.19373056
0.48237452 0.31110805 0.18975751
0.48159051 0.31069389 0.19555531
0.49270394 0.31564307 0.19742301
0.51896703 0.32241368 0.19926806
0.52572685 0.32241732 0.19538938
0.53494459 0.32260317 0.19489378
0.54494125 0.32297871 0.19503783
0.55494553 0.32255825 0.19483422
0.56520098 0.32222736 0.19479391
0.57514566 0.32240528 0.19496511
0.58593971 0.32361001 0.197603
0.60034353 0.316888 0.19595928
0.5981397 0.31466475 0.19444023
0.45858088 0.32210049 0.19467483
0.46466312 0.31954914 0.19511299
0.4721415 0.31504706 0.1961433
0.48463842 0.31120554 0.19428463
0.49617171 0.31597972 0.19470486
0.50543278 0.32128784 0.19513139
0.51510501 0.32171026 0.19504136
0.52481878 0.32231063 0.19494504
0.53522414 0.32245797 0.1950324
0.54464614 0.322501 0.19523528
0.55516666 0.32232693 0.19529152
0.56502354 0.32226592 0.19503424
0.57519323 0.32171232 0.1951189
0.5847891 0.32090056 0.19469035
0.59503883 0.32055113 0.19465539
0.59661579 0.32421061 0.19445004
0.60170776 0.32954139 0.19572793
0.53897709 0.32265347 0.19724174
0.59909123 0.3191503 0.19516668
0.60832691 0.32846022 0.19557436
0.60392869 0.33159813 0.19325906
0.4825002 0.15703265 0.20485345
0.56910002 0.16779807 0.20520303
0.57117021 0.167887 0.20468616
0.58758992 0.17199273 0.20701635
0.5902186 0.1707592 0.20390917
0.48930493 0.17037079 0.19704881
0.49230137 0.16774355 0.20225039
0.49830166 0.17017221 0.20425446
0.50451314 0.17069277 0.20567252
0.51482445 0.16908368 0.20467737
0.52445292 0.16947508 0.20451179
0.53489333 0.16951713 0.20530003
0.54541945 0.1704268 0.20490693
0.55503297 0.16864567 0.20416704
0.56486017 0.16766889 0.20616631
0.57562065 0.16819096 0.20595323
0.58424455 0.1703438 0.20618676
0.59255052 0.17296402 0.20564301
0.59571952 0.16954963 0.20331487
0.59985054 0.16795209 0.19820063
0.48529345 0.17949666 0.19897871
0.48831964 0.17725708 0.20306079
0.49162504 0.16950268 0.20623761
0.50430256 0.16893159 0.20507269
0.51448816 0.1685798 0.20467721
0.52489257 0.16858505 0.20490149
0.53505808 0.16900741 0.20480406
0.54552227 0.16979414 0.204915
0.55483973 0.16822605 0.20493092
0.56557721 0.16678485 0.20442201
0.57584918 0.16724245 0.20480424
0.58719325 0.16954245 0.20531182
0.59691566 0.17287481 0.20512521
0.59797359 0.17692253 0.20053102
0.60020328 0.17308506 0.19731557
0.48298708 0.18609418 0.19847123
0.48477802 0.18476588 0.20495027
0.4864949 0.18247867 0.20795292
0.59801656 0.18016508 0.20877881
0.59782416 0.18438834 0.20551226
0.59695387 0.18483295 0.20138052
0.46226195 0.19500729 0.19571722
0.47153383 0.19923483 0.19193186
0.48082834 0.19506431 0.20114945
0.48374996 0.19465056 0.20523693
0.48630193 0.19399963 0.20810682
0.59693283 0.19407305 0.20899673
0.59707183 0.19493395 0.20599619
0.59793437 0.19507973 0.20178165
0.48191872 0.20392674 0.20081267
0.48380452 0.20481317 0.20504507
0.48633552 0.20435706 0.20837845
0.59660548 0.20514442 0.20900536
0.59736323 0.20486698 0.20622344
0.59881848 0.20541143 0.20221098
0.4822264 0.21507853 0.20017228
0.48361209 0.21507744 0.20507714
0.4846783 0.21477225 0.20841092
0.59751648 0.21104771 0.20833102
0.59795797 0.21487081 0.2063998
0.59921992 0.21525154 0.20257442
0.48309499 0.22618905 0.20116904
0.48405486 0.22559367 0.20492616
0.48539719 0.22503051 0.20867714
0.59718269 0.22785813 0.21128398
0.59795165 0.22492449 0.20679374
0.59972692 0.22515151 0.20295618
0.48273486 0.23586404 0.19919159
0.48517987 0.23536684 0.20428333
0.48781034 0.23551783 0.20819539
0.5972262 0.23128708 0.21151596
0.59879589 0.23479508 0.20712072
0.60013473 0.23518042 0.20336801
0.48196834 0.25241116 0.20292847
0.48250636 0.24174501 0.19895694
0.48541516 0.24501605 0.20423585
0.48931995 0.24550027 0.20790491
0.59927219 0.24462748 0.20738325
0.60033214 0.24525259 0.20366323
0.48197508 0.2555691 0.20211692
0.48536023 0.25524312 0.20432229
0.48773754 0.2554144 0.20773777
0.60019767 0.25476947 0.20782308
0.60077971 0.25509289 0.20412473
0.48478419 0.26526543 0.20456286
0.48781067 0.26427442 0.20851585
0.60055053 0.26461327 0.20791666
0.60154408 0.26520482 0.20455582
0.60278893 0.26613089 0.19965333
0.47967076 0.27482051 0.19889501
0.48441514 0.27609837 0.20459861
0.48355877 0.27516761 0.20502195
0.48758882 0.27463707 0.20910989
0.6008901 0.27487773 0.20784627
0.60124153 0.27499679 0.20481575
0.60273641 0.27539089 0.19983482
0.47770756 0.28458166 0.19615327
0.48151425 0.28532085 0.20166148
0.48389828 0.28511447 0.20523944
0.48744783 0.28468174 0.20991257
0.60099399 0.28498474 0.20754623
0.60137594 0.28486237 0.20468386
0.60212898 0.28764147 0.1994583
0.48215243 0.29678702 0.1991325
0.48436311 0.29545376 0.20528705
0.48675546 0.29746932 0.21034147
0.60123771 0.29537728 0.20716085
0.60120225 0.29491267 0.20459725
0.47675684 0.31268623 0.1955857
0.48362103 0.30323318 0.19983289
0.48417038 0.30512917 0.20502383
0.48534489 0.30974442 0.20973529
0.59939665 0.30504575 0.20590357
0.59970582 0.30453867 0.20459835
0.6001184 0.30431435 0.200148
0.47292116 0.32127097 0.20129895
0.47815984 0.32046202 0.206328
0.48385453 0.31554404 0.20539957
0.49532059 0.31447831 0.20608479
0.50450891 0.31980535 0.20566438
0.51375514 0.32200825 0.20504582
0.52464342 0.32238087 0.204687
0.53495204 0.32322544 0.2058561
0.54512233 0.32343435 0.2056673
0.55502844 0.32342827 0.20580642
0.56508183 0.32378721 0.20585041
0.57559979 0.32341602 0.20627388
0.58827221 0.32485273 0.20726331
0.60074794 0.3190873 0.20706387
0.59675592 0.31446168 0.20364995
0.46389663 0.32714331 0.20158228
0.46574804 0.32249033 0.20526345
0.47303456 0.31933722 0.20577872
0.48371118 0.31142026 0.20577128
0.49600387 0.31443998 0.20420638
0.5059706 0.31975558 0.2046829
0.51532674 0.32129684 0.20520817
0.52510494 0.32179388 0.20510423
0.5351572 0.32291457 0.20458905
0.54470718 0.32319492 0.20463258
0.55521345 0.3234137 0.20421867
0.56507659 0.32343495 0.20448314
0.57524645 0.32323065 0.20416461
0.58471841 0.32170552 0.20464677
0.59544176 0.32137495 0.20434932
0.59612119 0.32294479 0.20365617
0.59991896 0.32861924 0.20132653
0.47322032 0.31696483 0.20484599
0.53495991 0.32262579 0.2059699
0.54955572 0.32316613 0.20964646
0.55329716 0.32322305 0.20836435
0.56860286 0.32313034 0.20959735
0.57519245 0.32278717 0.20748742
0.59569949 0.31976503 0.20337936
0.60774332 0.3306413 0.20504844
0.4857603 0.15619414 0.21591364
0.50213712 0.16974217 0.22110717
0.56932503 0.1678074 0.21364014
0.59111553 0.17274946 0.21319447
0.49228761 0.17293802 0.21450299
0.49700966 0.17018341 0.21644725
0.50428909 0.17037477 0.21553816
0.51538855 0.1686779 0.21517038
0.5245288 0.16939834 0.21484098
0.53534818 0.16918285 0.21696252
0.5459125 0.17039739 0.21639881
0.55428427 0.16942018 0.21617994
0.56503499 0.16796023 0.21507925
0.57502794 0.1685991 0.21536767
0.58437669 0.17234424 0.21535055
0.59161443 0.17333162 0.21446118
0.59328949 0.16929479 0.2126863
0.59719157 0.16439453 0.2152072
0.49209383 0.1775656 0.21331799
0.49271488 0.1705026 0.21610357
0.50434178 0.16890696 0.21491271
0.51466846 0.16863301 0.21476971
0.52506012 0.16903049 0.21500523
0.53473973 0.16935278 0.21417837
0.54572999 0.17042318 0.21484944
0.55498111 0.16917259 0.21495472
0.56564802 0.16755241 0.21522453
0.5761888 0.16804489 0.21558061
0.58664525 0.17138216 0.21538249
0.59482026 0.17338365 0.21533224
0.59297413 0.17776327 0.21464409
0.4889372 0.18547654 0.21401626
0.48938179 0.18333326 0.21691321
0.59683871 0.18144184 0.21638334
0.59511119 0.18480913 0.21508199
0.59397233 0.18495001 0.21345015
0.48872384 0.19515195 0.21386102
0.49052736 0.19404037 0.21710075
0.59519511 0.19254205 0.21642418
0.59451854 0.19509593 0.21498846
0.5944829 0.19485907 0.21347383
0.48828611 0.20529765 0.21391706
0.48953888 0.20478497 0.21757132
0.5958913 0.20486689 0.21198735
0.59453958 0.20490944 0.21504958
0.59434992 0.20522971 0.21397002
0.48700988 0.20982908 0.2091165
0.48771268 0.21515922 0.21420936
0.48884517 0.21538611 0.217392
0.59541649 0.21535823 0.21735425
0.59516436 0.21484812 0.21517867
0.59465086 0.21523714 0.21375926
0.48529071 0.22738983 0.20528093
0.48852175 0.22491007 0.21381113
0.49064925 0.22573183 0.21775076
0.5956282 0.22375616 0.21559809
0.59566796 0.22493327 0.21528983
0.59543151 0.22546825 0.21363249
0.4904291 0.23488921 0.21201943
0.49241251 0.23528098 0.21725549
0.59633565 0.2360875 0.21499392
0.59596437 0.23492754 0.21530811
0.59561658 0.23504898 0.21369423
0.48998129 0.24508363 0.21264358
0.49140692 0.24488837 0.21753305
0.59678221 0.24489865 0.21729514
0.59670347 0.24498093 0.21535362
0.59653282 0.24496818 0.21349777
0.48866376 0.25489059 0.21312428
0.48991686 0.2552529 0.21782014
0.59702027 0.25427818 0.21834499
0.59745699 0.25496021 0.21539629
0.59713525 0.25507686 0.21339341
0.48853153 0.26505107 0.21276645
0.4900628 0.26476732 0.21768042
0.59750974 0.26469633 0.21761553
0.59794158 0.26489231 0.21524702
0.59808385 0.26459423 0.2125188
0.48800248 0.2727564 0.20911366
0.48881882 0.27520651 0.21296544
0.49048027 0.27518284 0.21808545
0.49279007 0.27664602 0.22168665
0.59719688 0.27416375 0.21845855
0.59809893 0.27490559 0.21518555
0.59840709 0.27467901 0.21305197
0.48884392 0.28927323 0.20908426
0.48806217 0.28474802 0.21254031
0.4905225 0.28467888 0.21764542
0.49295133 0.28550023 0.22007799
0.59704024 0.28522402 0.21880625
0.59802622 0.28496078 0.21520627
0.59956789 0.28576064 0.21035799
0.48974654 0.29475784 0.2124722
0.48833612 0.29487628 0.21298112
0.49017164 0.29599962 0.2184193
0.49138972 0.29752854 0.21962054
0.59785366 0.29555589 0.21852653
0.59765768 0.29512259 0.21506998
0.59924865 0.29517722 0.21037139
0.48601475 0.31174114 0.20939973
0.48895928 0.30558866 0.21225031
0.4886961 0.30681625 0.21863377
0.49300835 0.31054229 0.22005668
0.59770542 0.31216356 0.22093065
0.59670204 0.30501267 0.2146868
0.59755081 0.30528766 0.21070021
0.47744283 0.32212561 0.20841318
0.48143834 0.3197014 0.21070172
0.48715228 0.31761402 0.21293896
0.49657142 0.31322479 0.21528268
0.50403458 0.31646806 0.21453144
0.51482421 0.32224196 0.21423066
0.52444005 0.32301334 0.21431951
0.53507036 0.32255188 0.21402004
0.54485351 0.32277808 0.21418592
0.55499774 0.323107 0.214349
0.56541467 0.3235375 0.2142095
0.5759356 0.32243332 0.21557377
0.58704215 0.32129714 0.21537106
0.59822637 0.3166464 0.21539946
0.59426326 0.31440595 0.21082672
0.46670085 0.3226158 0.21183801
0.47440398 0.32074487 0.21404488
0.48445943 0.31442979 0.21647522
0.49570712 0.31298551 0.2177663
0.50624096 0.31656894 0.21639343
0.51502824 0.32177377 0.21532254
0.52547121 0.32264057 0.21531685
0.53495127 0.32245544 0.21561989
0.54537058 0.32248971 0.21571137
0.55483127 0.32279605 0.21511054
0.56557411 0.32318056 0.21567847
0.5748564 0.32210839 0.21457356
0.58473957 0.31981939 0.21451554
0.59481096 0.3197161 0.21345386
0.59840047 0.32135859 0.2119558
0.59786999 0.32720041 0.21156497
0.4741672 0.31814945 0.21212475
0.48995546 0.31547326 0.21230285
0.51492375 0.32110855 0.2125055
0.52492434 0.32208666 0.21184519
0.55075365 0.3230882 0.2104573
0.56836319 0.32316869 0.21067426
0.57139301 0.32317537 0.21053086
0.58941793 0.31905323 0.21352001
0.59277087 0.31893444 0.21085434
0.60575521 0.32594565 0.21312545
0.488666 0.14812721 0.22512414
0.48905134 0.15199645 0.22876821
0.48832294 0.15545517 0.22490807
0.50226074 0.16890882 0.22682831
0.52500945 0.16709268 0.22936274
0.56776786 0.1687524 0.22005843
0.60010946 0.17097215 0.22864901
0.60373658 0.15842499 0.22707966
0.49226847 0.17098512 0.22401775
0.4973318 0.16865166 0.22516149
0.50452447 0.16776308 0.22636209
0.51544243 0.16714756 0.22580279
0.5245254 0.1675113 0.22602834
0.53504831 0.16851488 0.22556037
0.54525453 0.16946842 0.22519723
0.55502754 0.16981854 0.22541799
0.56487834 0.1685853 0.22493508
0.57449561 0.16944885 0.22524849
0.58436126 0.17321454 0.22529538
0.59210479 0.17453571 0.2263221
0.59638739 0.1638163 0.22450471
0.59794497 0.1639547 0.21828516
0.4925254 0.17720054 0.2259299
0.4927755 0.17084393 0.22502179
0.5022822 0.1652953 0.22421107
0.51376224 0.16736868 0.22303224
0.52607906 0.16811815 0.22289713
0.53506595 0.16873328 0.22380261
0.54672587 0.16957845 0.22392638
0.55461478 0.16949023 0.22447541
0.56610268 0.16806294 0.22473308
0.57556099 0.16876121 0.22454663
0.5884586 0.16921969 0.22474295
0.59224921 0.17466971 0.22501974
0.5916301 0.17644797 0.22440037
0.48721945 0.17832913 0.23178981
0.48911878 0.18535677 0.22536275
0.48899022 0.18211195 0.22450523
0.59630412 0.18175866 0.22484404
0.5941233 0.18503951 0.22503997
0.59254545 0.18464085 0.22467369
0.48960367 0.19529684 0.22510007
0.48989964 0.19430086 0.2255449
0.59510386 0.19359289 0.22470322
0.59465373 0.19493963 0.22498192
0.59376508 0.19488336 0.22469105
0.49092096 0.20500468 0.22435756
0.49072954 0.20500502 0.22573479
0.59487295 0.20329878 0.22787043
0.59472179 0.20509319 0.22480962
0.59398741 0.20526847 0.22464353
0.48921522 0.21124122 0.21570371
0.49026045 0.21416204 0.2223608
0.49147868 0.21508329 0.22602378
0.59600508 0.21528418 0.22518656
0.59563023 0.214982 0.22490022
0.59510171 0.2154111 0.2248075
0.49339351 0.22549729 0.22545655
0.59581488 0.22491445 0.22509302
0.59504902 0.22486232 0.22469844
0.4948433 0.23485635 0.22496364
0.59573054 0.2358211 0.22563975
0.59529752 0.2349636 0.22493273
0.59455729 0.23482636 0.22478229
0.49209031 0.2449026 0.22557649
0.59577018 0.24470361 0.22547963
0.59554011 0.24502239 0.22502138
0.59477013 0.24479821 0.22439684
0.49036947 0.26462844 0.22252375
0.49116373 0.25495544 0.22559503
0.4927977 0.25877917 0.22796111
0.59572846 0.25405332 0.22524206
0.59522527 0.25500536 0.22503822
0.59475577 0.25548643 0.22431238
0.49086741 0.26690248 0.22034509
0.49192399 0.26491988 0.22531642
0.49329501 0.26627752 0.22709866
0.59606701 0.26626 0.22523445
0.59544915 0.26496038 0.22495593
0.59519494 0.26108703 0.22350316
0.49197048 0.27511513 0.22571643
0.49308151 0.27446625 0.22531648
0.59610963 0.27562469 0.22616906
0.59534341 0.27501082 0.22482312
0.59597528 0.27640265 0.22160527
0.49152449 0.28447399 0.22586083
0.49193934 0.28449526 0.22483556
0.59526819 0.28505522 0.22524905
0.59481949 0.28506613 0.2247684
0.59468508 0.28511304 0.22531985
0.49296269 0.29681191 0.22320868
0.49118832 0.2955094 0.22550686
0.49251032 0.29603335 0.22668354
0.59590417 0.29674444 0.22588556
0.59498209 0.29489052 0.22477709
0.5945757 0.29290339 0.22281632
0.48897403 0.31424853 0.2188852
0.4908106 0.30625698 0.22501498
0.49277583 0.31099525 0.22621232
0.59562194 0.30648488 0.22619884
0.59354472 0.30460441 0.22461914
0.59368134 0.30758461 0.22138482
0.49051881 0.31285432 0.2213224
0.4872075 0.32132417 0.22185919
0.49757436 0.31554163 0.22471319
0.50158894 0.31667289 0.22494322
0.51831084 0.32352662 0.22048329
0.52495873 0.32407141 0.22423367
0.5351637 0.32255304 0.22481626
0.5454092 0.32223877 0.22496971
0.55492973 0.32189244 0.22505489
0.56530511 0.32183924 0.22551142
0.57565254 0.32133326 0.22472671
0.58840686 0.32098025 0.22434963
0.59229511 0.31475091 0.22440121
0.59192693 0.31498373 0.22324099
0.47690314 0.31863803 0.22648315
0.4846535 0.31728625 0.2262875
0.49611402 0.31423193 0.22639273
0.50587779 0.31702211 0.22572599
0.51493931 0.32301578 0.2251744
0.5252648 0.32361564 0.22503138
0.53486931 0.32226738 0.22482005
0.54491305 0.32167485 0.22502533
0.55480605 0.32155019 0.22487338
0.56496239 0.32163972 0.22483607
0.57478482 0.32004485 0.2252938
0.58449775 0.31783038 0.22495416
0.59452599 0.31628576 0.22515887
0.60286653 0.32425278 0.22471692
0.59886634 0.32850164 0.21932122
0.51414549 0.3226665 0.23007272
0.52557188 0.3245537 0.2302427
0.60460812 0.32754305 0.22570123
0.48862064 0.15793987 0.23617704
0.48880801 0.16033122 0.23290554
0.50314575 0.16887061 0.23281181
0.52605236 0.16657147 0.23392573
0.52996665 0.1671536 0.23419997
0.59968108 0.16863072 0.23568267
0.60321856 0.15808885 0.23551083
0.49330208 0.17009923 0.23531495
0.49678576 0.16831429 0.2346735
0.50462312 0.16661598 0.23523654
0.51491696 0.16577241 0.2351431
0.52530026 0.16594632 0.23494445
0.5350768 0.167606 0.23497663
0.54490441 0.169439 0.23500741
0.55523121 0.16903916 0.23508711
0.56496489 0.16798897 0.23507813
0.57458144 0.16944081 0.23517212
0.58525056 0.1727145 0.23574063
0.59284902 0.16878416 0.23553362
0.59973532 0.16178264 0.2347458
0.48417509 0.18219829 0.23899294
0.48491651 0.17702645 0.23902105
0.49228013 0.17598964 0.23573972
0.49275535 0.1717853 0.23541725
0.49880061 0.16511419 0.23370525
0.52616024 0.16631399 0.23331651
0.53625894 0.16793878 0.23245443
0.54678863 0.16879258 0.23482643
0.5554322 0.1686455 0.2351781
0.56496322 0.16766696 0.23493488
0.57529449 0.16865185 0.23436598
0.5879209 0.16996886 0.23461443
0.59281212 0.17473842 0.23495314
0.59133756 0.17589277 0.23525231
0.48639607 0.18160579 0.23768248
0.48709178 0.18606424 0.23468095
0.48700592 0.18180194 0.23587762
0.59592086 0.17948 0.23391277
0.5935533 0.18504202 0.23503394
0.59309393 0.18510579 0.23497191
0.48939848 0.19489121 0.23499215
0.48928225 0.19489969 0.23557308
0.5959729 0.19648503 0.23549007
0.59523392 0.19496715 0.23501736
0.59473038 0.19520675 0.23532823
0.49255362 0.2032876 0.23315854
0.49257055 0.20540893 0.23582998
0.5957216 0.20545757 0.23299401
0.59525555 0.2049644 0.23503195
0.59485883 0.20522362 0.23533964
0.49375823 0.21532694 0.23539738
0.59633851 0.21420532 0.23425059
0.59594715 0.21494956 0.23497345
0.59524673 0.21539661 0.23507211
0.49595243 0.22515723 0.23489435
0.59603113 0.22509034 0.23492517
0.59555173 0.22464266 0.23539656
0.49670151 0.23512167 0.23470619
0.496824 0.23833054 0.23975421
0.59675401 0.23547556 0.23482279
0.59589291 0.23490477 0.235001
0.59524053 0.23534785 0.23538086
0.4946366 0.24500968 0.23507692
0.49532893 0.24382997 0.23968272
0.59622449 0.24451819 0.2348413
0.59538031 0.2449915 0.23508003
0.59487504 0.24505228 0.23529321
0.49234024 0.26497993 0.23725253
0.49294269 0.25480098 0.23519388
0.49434665 0.25852254 0.23581766
0.59615862 0.25454834 0.23520729
0.59563673 0.25499612 0.23491639
0.59510231 0.25498846 0.23464338
0.49171951 0.26839131 0.23201665
0.49261802 0.26496044 0.23495723
0.49347854 0.2651296 0.23639248
0.59654254 0.26505819 0.23525406
0.59579235 0.26505992 0.23504017
0.59522909 0.26407921 0.23697004
0.49424338 0.28076079 0.23744163
0.49274275 0.27544612 0.23522519
0.49332297 0.27131566 0.2347666
0.59598666 0.27452567 0.23422813
0.59579951 0.27507547 0.23500103
0.59529501 0.27710244 0.23382398
0.49376765 0.28147551 0.23873967
0.49187994 0.28419268 0.23501238
0.49084988 0.28878465 0.23777378
0.59591162 0.28449023 0.23447576
0.59596914 0.28503734 0.23493989
0.59497315 0.28102538 0.2338753
0.4928067 0.29524058 0.2362919
0.49252942 0.29647708 0.24015899
0.49158999 0.29523122 0.23533165
0.49276942 0.29672056 0.23470353
0.59623635 0.29578722 0.23433279
0.59562045 0.29494604 0.23507771
0.49359652 0.30297756 0.22944976
0.49183422 0.30534828 0.23537774
0.49197808 0.31091362 0.23584372
0.59586608 0.30545315 0.23214303
0.59408116 0.30455914 0.23517284
0.59314519 0.30736718 0.2361466
0.4900355 0.31470278 0.2297767
0.48981887 0.31417686 0.23347621
0.49465474 0.31775308 0.23513003
0.49965355 0.3190214 0.23474015
0.52685052 0.32473579 0.2324857
0.53551334 0.32370701 0.2348877
0.54428798 0.32260206 0.23295745
0.55529147 0.32129034 0.2350027
0.56529653 0.3215023 0.23508899
0.57477182 0.31991252 0.23504627
0.58608687 0.31934264 0.23558858
0.59266907 0.3144576 0.23485526
0.59178871 0.3152535 0.23624966
0.479276 0.31931609 0.23538198
0.48726371 0.31717727 0.23454084
0.49616066 0.31742254 0.23601948
0.50521421 0.31912249 0.2357313
0.51513153 0.32381076 0.23489925
0.52503437 0.32454944 0.23522194
0.53473711 0.32334474 0.23499995
0.54497737 0.32231298 0.23539372
0.55536067 0.32113612 0.23496114
0.56454813 0.32073978 0.23466516
0.5749501 0.31909889 0.23453711
0.5849371 0.31692794 0.23496774
0.59496176 0.31722957 0.23482667
0.60265285 0.32461071 0.23492949
0.49015233 0.3209222 0.23739673
0.49550623 0.31925592 0.23717465
0.50276738 0.31947747 0.23419632
0.51447916 0.32301745 0.2320715
0.52451253 0.32417938 0.23238784
0.60283816 0.32157326 0.23550926
0.49175513 0.16919628 0.24066739
0.51677907 0.16630879 0.24447876
0.52046639 0.16528663 0.24443094
0.56537503 0.16841087 0.24876517
0.60120565 0.16645256 0.24547739
0.60389161 0.1583275 0.24581876
0.49394721 0.17175782 0.24186499
0.49756366 0.16985258 0.2453599
0.50463986 0.16723174 0.24531694
0.51504219 0.16628417 0.24522753
0.52507985 0.16515712 0.24522905
0.53500062 0.166628 0.24493097
0.54484487 0.16827504 0.24484622
0.5549472 0.16788678 0.24481432
0.56536371 0.16717187 0.24563494
0.57487684 0.16925709 0.24518988
0.58535486 0.17208482 0.24424884
0.59254211 0.16929355 0.2444883
0.59690046 0.16115564 0.24380325
0.48498303 0.17922166 0.23886921
0.49130076 0.17614263 0.24491806
0.49393818 0.1724235 0.24497038
0.50317264 0.16518505 0.24555488
0.5127542 0.16620935 0.24677099
0.52422589 0.16469549 0.24726816
0.53952837 0.16771083 0.24526858
0.5465464 0.16804555 0.24605806
0.55453509 0.16792057 0.24539033
0.56476277 0.16719143 0.24409981
0.57469034 0.16846888 0.24360272
0.59017539 0.16808049 0.24436945
0.59235424 0.17510994 0.24473013
0.59060878 0.17539686 0.24294914
0.48612773 0.17668398 0.2383153
0.48940876 0.18560922 0.24562174
0.48807719 0.1819213 0.24734716
0.59547997 0.17912339 0.24465671
0.59385008 0.18502438 0.24492764
0.59359127 0.18509986 0.24437246
0.49198335 0.19462191 0.24439862
0.49149299 0.19505873 0.24610695
0.59688103 0.19620883 0.24633805
0.59645551 0.19492722 0.24536614
0.59570181 0.19522335 0.24471173
0.49407744 0.19988726 0.24185453
0.49542993 0.20493028 0.2451268
0.59617388 0.20485762 0.24521357
0.59532696 0.20511045 0.24466164
0.49731195 0.21466775 0.24470457
0.59678125 0.21623608 0.2471554
0.59632254 0.21482317 0.24509171
0.59540755 0.21512833 0.24461201
0.49761629 0.2246491 0.2448107
0.59685051 0.22686632 0.24929468
0.59630609 0.22491983 0.24505048
0.59550124 0.22503449 0.24468517
0.49800783 0.23494761 0.2449217
0.49672171 0.23729044 0.24451047
0.59665769 0.23559804 0.24536009
0.59594256 0.23502296 0.2449172
0.5954389 0.23520012 0.24496399
0.49443412 0.2450681 0.24547946
0.49512869 0.24256848 0.24431616
0.59652096 0.24447174 0.24368672
0.59569991 0.2450151 0.24510251
0.59529167 0.24496561 0.24517284
0.49067932 0.26199645 0.24662533
0.49335691 0.25447407 0.24522761
0.49295798 0.26002815 0.24099785
0.59663606 0.25526267 0.24442011
0.59593803 0.25499639 0.24499874
0.59538126 0.25451568 0.24554724
0.49157706 0.26488078 0.24496442
0.49212986 0.26668188 0.24378352
0.5967468 0.26394871 0.24473801
0.59607649 0.26496869 0.24498965
0.59558934 0.26700813 0.2450286
0.49382526 0.27692306 0.24708548
0.49426657 0.27474016 0.24471696
0.49278405 0.27200273 0.24195468
0.59716767 0.27461785 0.24509646
0.59634799 0.27504095 0.24491163
0.59539002 0.27246255 0.24404767
0.49412474 0.28091303 0.24247664
0.49135992 0.28376964 0.24439541
0.48932281 0.28745252 0.24761035
0.59823734 0.28454578 0.24502759
0.59763008 0.28493619 0.24497694
0.59760308 0.28894943 0.2463358
0.49239287 0.29555413 0.2461329
0.49226323 0.29819426 0.24537568
0.49065065 0.29505113 0.24412405
0.49204925 0.29776141 0.24548347
0.59792799 0.29312208 0.24184009
0.59790456 0.29502082 0.24506091
0.59770501 0.29350799 0.24668425
0.49273139 0.30064061 0.24825563
0.49095541 0.30685726 0.24594302
0.49226379 0.30946511 0.24751076
0.59551233 0.30481911 0.24500354
0.59605628 0.30420387 0.2469777
0.49107018 0.31122646 0.24542122
0.49124044 0.31484413 0.24514386
0.49608567 0.31798127 0.24471414
0.50099587 0.31931478 0.24598882
0.51436591 0.32582599 0.25053793
0.52685583 0.32495013 0.24726582
0.53496259 0.3239975 0.24543558
0.54611647 0.32280517 0.24709006
0.55543298 0.32241908 0.24556576
0.56544554 0.32178134 0.24517588
0.5751465 0.32137528 0.24475747
0.58701897 0.322992 0.24395126
0.59281147 0.3146615 0.2450446
0.59389949 0.31362873 0.24558245
0.48315686 0.31817192 0.24465589
0.48841265 0.3180269 0.24550235
0.49661478 0.31869411 0.24487892
0.50478619 0.32019311 0.24484833
0.51514953 0.32412192 0.24501964
0.5248543 0.3246066 0.24495108
0.53534806 0.32363456 0.24503127
0.54463178 0.32317206 0.24455929
0.55506498 0.32200637 0.24475347
0.56462348 0.32162961 0.24477485
0.57539177 0.3207967 0.24529591
0.58490926 0.31948879 0.24564093
0.59534383 0.32194909 0.24530888
0.59888506 0.3178494 0.24647158
0.4866657 0.32161576 0.24178332
0.49854344 0.31979045 0.24346496
0.50127399 0.32000342 0.24837224
0.52785873 0.32399407 0.24817482
0.53133631 0.32384557 0.24675524
0.543378 0.32305482 0.24113187
0.5763799 0.32063955 0.24702457
0.5973078 0.31909916 0.2498371
0.60163999 0.32067353 0.24609551
0.48673433 0.16595133 0.24811102
0.4961907 0.17055082 0.25182435
0.51943117 0.16778202 0.25127095
0.5202769 0.16623436 0.24889113
0.56364197 0.16887061 0.25074688
0.59884721 0.16959295 0.24973148
0.60347772 0.1582915 0.25340524
0.49394599 0.17261368 0.24867985
0.4978494 0.17045774 0.25346115
0.5051226 0.16834666 0.2546486
0.51516098 0.16983949 0.25418079
0.5248363 0.16997659 0.25437912
0.53469479 0.1708378 0.2539053
0.54469067 0.17114654 0.25402236
0.55534244 0.17091282 0.2539711
0.56522137 0.17040564 0.25434482
0.5748015 0.17184035 0.25426033
0.58489037 0.17158766 0.25272721
0.59077334 0.17119578 0.25049546
0.593288 0.16486736 0.25080088
0.48824325 0.17705008 0.24873939
0.4938564 0.17581891 0.25132805
0.49601889 0.17440905 0.25518751
0.50441098 0.16989523 0.25943351
0.51366949 0.17161863 0.25895822
0.52613556 0.17218967 0.25960729
0.53839862 0.17190906 0.25677252
0.54548162 0.17205578 0.2549457
0.55445468 0.17153797 0.25493205
0.56295604 0.17197651 0.25884742
0.57148731 0.17212389 0.25912583
0.58702654 0.17338814 0.25498152
0.59164584 0.17571162 0.25281972
0.593458 0.17687742 0.25012115
0.49245968 0.18511821 0.25012618
0.49434954 0.18492293 0.25571707
0.49769902 0.18116815 0.26033852
0.57849205 0.18015559 0.26460516
0.58473176 0.1798754 0.26082432
0.59362066 0.18505499 0.25459468
0.59412956 0.18544011 0.25240731
0.49373999 0.19239792 0.25024593
0.4949272 0.19527717 0.25505701
0.49692321 0.19963254 0.26062858
0.55820835 0.19303131 0.26723993
0.59313589 0.19658189 0.25895095
0.59555787 0.1948283 0.25527397
0.59603119 0.19532958 0.25360507
0.49740136 0.20436658 0.25439698
0.49763486 0.20575723 0.25913072
0.51201671 0.20353298 0.2709592
0.52114272 0.20548292 0.27195072
0.53824908 0.20478746 0.27365932
0.544451 0.20233403 0.27200752
0.55526847 0.20080987 0.26908436
0.59220922 0.20123389 0.25947627
0.59552163 0.20494905 0.25522238
0.59561896 0.20539898 0.25402066
0.49873585 0.21491568 0.25381669
0.49852365 0.21602 0.25865978
0.50681347 0.20905636 0.2699171
0.52058166 0.20641449 0.27178529
0.59428662 0.21525215 0.2585105
0.59545308 0.21494137 0.25506818
0.59525532 0.21530186 0.25409582
0.49806893 0.22534153 0.25442845
0.49824685 0.22394221 0.25919583
0.59585798 0.22367617 0.25742015
0.59606338 0.22500484 0.25509983
0.59566885 0.22542408 0.2535952
0.49821255 0.23535627 0.25490353
0.49831241 0.23114564 0.25900558
0.59749645 0.23403348 0.2572639
0.59662509 0.23507005 0.25523412
0.59585655 0.23514661 0.25389281
0.49024406 0.25771406 0.25669798
0.4954834 0.24490269 0.25514534
0.59719884 0.24480608 0.25714099
0.59668112 0.24500903 0.25521609
0.59596711 0.245202 0.25443789
0.49159044 0.26024389 0.25439298
0.49351561 0.25429893 0.25464439
0.59671968 0.25527176 0.25656369
0.59628934 0.25507936 0.2550754
0.59559983 0.25509933 0.25433254
0.49308631 0.27112463 0.2583873
0.49151438 0.26584786 0.25424492
0.49221689 0.26904306 0.25681052
0.59644341 0.26497787 0.25714657
0.59603286 0.26505235 0.25488687
0.59589881 0.26410303 0.25428703
0.49332529 0.27536848 0.25456926
0.49290925 0.27543443 0.25727421
0.49254549 0.27449241 0.25534755
0.49125445 0.27658319 0.25941589
0.59659505 0.2712236 0.2568287
0.59677374 0.27492231 0.25509056
0.59673905 0.27940208 0.25754189
0.49183035 0.28763896 0.25539806
0.49138948 0.28576428 0.25689641
0.49220037 0.28589967 0.25919315
0.59695494 0.28492695 0.25501773
0.59707701 0.2869969 0.25293359
0.49161959 0.29408991 0.25136247
0.49149385 0.29761598 0.25364992
0.49232447 0.29506555 0.25694081
0.49282029 0.29597262 0.26043561
0.59655851 0.2948775 0.2549789
0.59743345 0.29240638 0.25143236
0.49251261 0.30070442 0.25003833
0.49156657 0.3063713 0.25639632
0.49564871 0.31033719 0.26046184
0.59380013 0.30484989 0.25493219
0.59343159 0.30744338 0.25743431
0.49027333 0.31234425 0.25305638
0.49129465 0.31447113 0.2554149
0.49644908 0.31699297 0.2553167
0.50382537 0.31716186 0.25615275
0.51373321 0.32447883 0.25632632
0.52501655 0.32340476 0.25587401
0.5353837 0.32269987 0.25582409
0.54537892 0.32216629 0.2559348
0.55513763 0.32146624 0.25624409
0.56554425 0.32151943 0.25657567
0.57511437 0.32133844 0.25628313
0.58590561 0.31617376 0.25467411
0.5925923 0.31478763 0.2551057
0.59227324 0.3137435 0.25584108
0.48386765 0.31701064 0.25216365
0.4901953 0.31763443 0.2540881
0.49675536 0.31735885 0.2543593
0.5051046 0.31932005 0.2542305
0.51516062 0.3235383 0.25483933
0.5251351 0.32311475 0.25494844
0.53475559 0.32264012 0.25479782
0.54498458 0.32188243 0.25498784
0.55502325 0.3208411 0.25460878
0.56473768 0.32046887 0.25454986
0.57511586 0.31974512 0.25425136
0.58531642 0.31864625 0.2545453
0.59593153 0.31852877 0.25485963
0.60104465 0.31861112 0.25492504
0.50820935 0.32080141 0.25537238
0.51170039 0.32164976 0.2546252
0.52737778 0.32369179 0.25002378
0.55141199 0.32149506 0.25137752
0.59890968 0.31970611 0.25272426
0.59734052 0.32255247 0.25804627
0.50042582 0.17134699 0.25673866
0.50078797 0.17310432 0.26044914
0.50625968 0.1708291 0.26112497
0.51558048 0.17268483 0.26045004
0.52447021 0.17287587 0.26048222
0.53447074 0.17332813 0.25986263
0.54429269 0.17379978 0.25973368
0.55591315 0.17389587 0.25977874
0.56549931 0.17290576 0.26029456
0.57520962 0.17356949 0.2601043
0.58334696 0.17270546 0.25703675
0.58797574 0.17216486 0.25494802
0.59315217 0.16450685 0.2547124
0.48957193 0.17770135 0.25115904
0.49703249 0.17805994 0.25776166
0.49865448 0.17597605 0.26161808
0.50374401 0.17368753 0.26406318
0.51473087 0.17149889 0.26561132
0.52519763 0.1727321 0.2647706
0.53547901 0.17314751 0.26449436
0.54522163 0.17375319 0.26371264
0.55492294 0.17399581 0.26297018
0.56532431 0.17321034 0.26377609
0.57501239 0.17384435 0.26344359
0.58335793 0.17665966 0.25887677
0.58769524 0.17697129 0.25674319
0.49698797 0.18613663 0.26030645
0.49879435 0.18552598 0.26189223
0.50349569 0.18406531 0.26800224
0.5119099 0.18287216 0.27376884
0.524369 0.18265501 0.2756874
0.53706384 0.18160519 0.27392781
0.54695332 0.1826115 0.27053642
0.55565387 0.18302093 0.26974967
0.5656113 0.18374334 0.26847789
0.57554501 0.18514052 0.26483855
0.58355474 0.18538712 0.26063791
0.59024036 0.18562429 0.2591311
0.59350586 0.1893709 0.25735521
0.49666771 0.19394363 0.26166153
0.49772674 0.19446927 0.26292393
0.50367242 0.19450951 0.26796311
0.51332879 0.19466013 0.27133614
0.52409101 0.19302639 0.27284706
0.53473771 0.19409987 0.27431279
0.54653561 0.19415736 0.27097178
0.55556363 0.19418782 0.26781702
0.56515032 0.19447225 0.26582775
0.57504982 0.19500989 0.26413324
0.58444828 0.19514668 0.26284295
0.59118199 0.19527461 0.2604481
0.59429562 0.1953797 0.25741053
0.49922872 0.20405941 0.26247749
0.49982813 0.20532098 0.26188603
0.50470561 0.20445254 0.26776946
0.51291537 0.20436695 0.27225164
0.52357447 0.20438333 0.2729027
0.5351603 0.20285836 0.27388903
0.54476583 0.20359777 0.27235246
0.55566031 0.20400754 0.26906261
0.56547844 0.20520405 0.26769003
0.57516927 0.20516801 0.26585549
0.58432001 0.20566854 0.26382568
0.5912531 0.20561217 0.26051301
0.59356028 0.20571786 0.25854054
0.49924085 0.21498103 0.26326197
0.50441164 0.21714886 0.26701197
0.51387358 0.21394031 0.27340165
0.52239889 0.21040778 0.27280208
0.53224516 0.2077626 0.27104473
0.54537028 0.208096 0.27312633
0.55664325 0.2100886 0.2707752
0.56688243 0.21108755 0.27011037
0.57551777 0.21411236 0.26831314
0.58412099 0.21550351 0.26509187
0.59054291 0.21583754 0.26096866
0.59346128 0.21633495 0.25872058
0.5020346 0.22840956 0.26825383
0.50029343 0.22589944 0.26378161
0.50203305 0.22277842 0.26816064
0.51233542 0.21938664 0.2749151
0.52039635 0.21329522 0.2728098
0.53119695 0.21110137 0.27481726
0.54127496 0.21062674 0.27513576
0.57190984 0.21687499 0.27264583
0.57978481 0.22091195 0.27146485
0.58695143 0.22423451 0.26797298
0.59253114 0.22593382 0.2630927
0.59436125 0.22699374 0.25971213
0.49793801 0.23595132 0.26453346
0.49893874 0.23230588 0.26574066
0.50244623 0.22543721 0.26842326
0.58388847 0.22734156 0.27448472
0.5900293 0.23155265 0.27034265
0.59412855 0.23500092 0.26507089
0.59527713 0.23563629 0.26252174
0.49570265 0.24454829 0.265064
0.49722874 0.23949827 0.26633033
0.5947088 0.24740827 0.2669633
0.59516144 0.24512856 0.26474339
0.59531581 0.24483098 0.26250049
0.49233535 0.25397637 0.26499167
0.59325403 0.25486901 0.2692627
0.59435016 0.25512275 0.26468837
0.5951035 0.25424758 0.26096815
0.49049607 0.26868492 0.26978442
0.48877883 0.26684257 0.26520449
0.49203801 0.26985562 0.26210532
0.59463203 0.26369032 0.26517522
0.59380603 0.26489872 0.26456276
0.59436399 0.26639023 0.26239869
0.49108842 0.26984343 0.26222619
0.49012396 0.26986438 0.26768014
0.49339449 0.27695331 0.26620984
0.49645466 0.28093204 0.2665574
0.50460333 0.28358263 0.27284083
0.57259792 0.28073317 0.27630058
0.58166665 0.27867228 0.27505448
0.58966345 0.27637088 0.2722272
0.59479088 0.275186 0.26437467
0.59485012 0.27344477 0.2636407
0.4925898 0.28560653 0.25818449
0.49352416 0.28771454 0.25932172
0.49733415 0.28509948 0.26415583
0.49763784 0.2843411 0.26633754
0.51003963 0.28886878 0.27552202
0.5227198 0.29116231 0.27646291
0.53661197 0.28695437 0.27478901
0.54540867 0.28767702 0.27724397
0.55721164 0.28873509 0.27646652
0.5666703 0.28779721 0.274912
0.57699162 0.28621715 0.27248931
0.58867574 0.28523248 0.2725476
0.59595257 0.28514943 0.26490942
0.59539688 0.28677535 0.26405877
0.49196222 0.29092982 0.25591284
0.49767083 0.29554886 0.26415864
0.49680886 0.29433355 0.26511854
0.50913996 0.30109915 0.27553564
0.53544652 0.29474252 0.27672347
0.5462926 0.29628211 0.27569392
0.55567122 0.29678071 0.27593961
0.56611389 0.29689455 0.2746779
0.57626456 0.29651028 0.27249968
0.5876115 0.29547662 0.27311936
0.59671533 0.29514724 0.26515421
0.59388399 0.29556668 0.26574081
0.49131221 0.30910435 0.258921
0.49152139 0.30878964 0.25998428
0.49754184 0.3051016 0.26426655
0.50722474 0.30764174 0.26897353
0.51038086 0.30534008 0.27487996
0.54665351 0.31029603 0.27501532
0.55550444 0.30980098 0.27417317
0.56577855 0.30745149 0.27431631
0.57520366 0.30366397 0.27283743
0.58595121 0.30471221 0.27016592
0.59407932 0.30485868 0.26454836
0.59502238 0.30501011 0.26334128
0.49226415 0.31080613 0.25762147
0.49090201 0.31402442 0.26179138
0.4973897 0.31577161 0.26548651
0.50464946 0.31703213 0.26400486
0.51448464 0.32060778 0.26609153
0.52502108 0.32219073 0.26720914
0.53496981 0.32089251 0.26749036
0.54571611 0.31968743 0.26861241
0.5558821 0.31992069 0.26937452
0.56505442 0.31841475 0.26863381
0.57522482 0.31981653 0.26710838
0.58618337 0.31629437 0.26658818
0.59461588 0.31476378 0.26451463
0.59413314 0.31483135 0.26362529
0.48627019 0.3169156 0.26116031
0.49049783 0.31657773 0.26233816
0.49653399 0.31697583 0.26273289
0.5047043 0.31945729 0.26353279
0.51518238 0.32069376 0.2637282
0.52477938 0.32246843 0.26474753
0.53477108 0.32057643 0.26393938
0.54474807 0.31977674 0.26351666
0.55457258 0.31955975 0.2635662
0.56540436 0.31939971 0.26348379
0.57496542 0.32015523 0.26344088
0.5858686 0.31703722 0.26271528
0.59533012 0.31928265 0.26390091
0.59825522 0.31959507 0.26394585
0.49973753 0.32010683 0.26067707
0.50432205 0.32075965 0.25885177
0.51363921 0.32127148 0.26227239
0.59997076 0.32077646 0.26346171
0.60077804 0.3205249 0.26161835
0.50325024 0.17376933 0.26661861
0.50732231 0.17373067 0.27138171
0.51652026 0.17503104 0.27407938
0.52669764 0.17599407 0.27264634
0.53069443 0.17652896 0.27374104
0.55738175 0.17591019 0.26975247
0.56241232 0.17698848 0.26986018
0.57039666 0.17646581 0.27516338
0.50372326 0.17737548 0.26696017
0.50815332 0.1772268 0.27249077
0.5173673 0.17510076 0.27299881
0.52276534 0.17808983 0.27398831
0.5330199 0.17878228 0.27262509
0.54311448 0.18195909 0.27190566
0.54861009 0.18185958 0.26981285
0.56464642 0.17624702 0.26862562
0.56859249 0.17595881 0.26924905
0.50351065 0.18607199 0.26689142
0.50883716 0.18565434 0.27062812
0.51517469 0.18820591 0.27114186
0.52800512 0.18504588 0.27439356
0.53314173 0.18750237 0.27487198
0.54019302 0.18872814 0.27295405
0.54769707 0.18879864 0.26932997
0.50578922 0.19501035 0.26965916
0.5115006 0.1964315 0.27186835
0.51858842 0.19450815 0.27162242
0.52561003 0.19820747 0.2747592
0.53910005 0.19357488 0.27477914
0.53633803 0.1959101 0.275217
0.55196458 0.19752133 0.2678403
0.50154656 0.209245 0.26540294
