0.422491 0.282519 0.0984224
0.427591 0.282422 0.097974
0.432468 0.282729 0.0974907
0.437423 0.282675 0.0970526
0.442364 0.282636 0.0966218
0.447333 0.282672 0.0962058
0.452376 0.282745 0.095563
0.457391 0.282962 0.094823
0.461926 0.284115 0.0941116
0.363267 0.287418 0.0947316
0.367952 0.287566 0.0953669
0.372828 0.28762 0.0960349
0.377686 0.287706 0.0968848
0.382586 0.28742 0.0976779
0.387391 0.287415 0.0986046
0.392432 0.287572 0.0992647
0.39746 0.287237 0.0996808
0.402834 0.287043 0.0998655
0.407455 0.287468 0.0998764
0.412486 0.287435 0.0996463
0.417392 0.287593 0.0993851
0.4225 0.287515 0.0990057
0.427592 0.287347 0.0985632
0.432641 0.287625 0.0981387
0.437638 0.28752 0.0976114
0.453138 0.588035 0.126416
0.511125 0.583333 0.124754
0.452317 0.287652 0.096281
0.457249 0.287964 0.0954818
0.461902 0.288009 0.0945486
0.466449 0.288757 0.0936571
0.470748 0.289605 0.0928701
0.364959 0.291254 0.0951053
0.368093 0.292305 0.0956719
0.372796 0.292743 0.0963489
0.377648 0.29263 0.0971595
0.382545 0.292336 0.0980067
0.387393 0.292439 0.0987977
0.392169 0.292515 0.0994765
0.397119 0.292029 0.0999193
0.401819 0.291535 0.100162
0.408132 0.290584 0.100096
0.413114 0.291083 0.0999133
0.418009 0.2917 0.099751
0.422755 0.292051 0.0995573
0.427551 0.292577 0.0991805
0.432464 0.292493 0.0987172
0.437395 0.292423 0.0982296
0.442478 0.292545 0.0977838
0.507827 0.582609 0.126057
0.452425 0.292623 0.0967796
0.457284 0.292842 0.0960337
0.46218 0.292846 0.0949594
0.466716 0.293019 0.094085
0.471488 0.293057 0.0931061
0.369273 0.297043 0.0962281
0.372834 0.297435 0.0967145
0.377611 0.297469 0.0974612
0.382366 0.297701 0.0981668
0.387259 0.297323 0.0989249
0.392146 0.297474 0.0995685
0.396733 0.297754 0.0999767
0.402831 0.298317 0.100324
0.406226 0.299428 0.100358
0.412818 0.297553 0.100264
0.417626 0.2977 0.100239
0.423164 0.29707 0.100035
0.427851 0.296871 0.0997192
0.432487 0.2972 0.0994389
0.437513 0.29709 0.0989176
0.442562 0.297371 0.0984005
0.447533 0.297468 0.0978679
0.452546 0.297514 0.097231
0.457585 0.297714 0.0964524
0.462457 0.297735 0.0954616
0.46732 0.297635 0.0945715
0.471887 0.298059 0.0938785
0.475714 0.298885 0.0933503
0.37334 0.302103 0.0972561
0.377682 0.302224 0.0978626
0.382126 0.302581 0.0984877
0.387206 0.302893 0.0991491
0.392385 0.302336 0.0996594
0.397847 0.302371 0.09998
0.402096 0.302232 0.100223
0.407703 0.30185 0.100349
0.412534 0.302595 0.100517
0.417249 0.302777 0.100662
0.422536 0.302164 0.100695
0.427622 0.302044 0.100573
0.432412 0.301662 0.100206
0.437617 0.302447 0.0997836
0.442601 0.302338 0.0991377
0.447799 0.302528 0.0984238
0.452534 0.302597 0.0976954
0.457352 0.302662 0.096991
0.462463 0.302624 0.0962486
0.467382 0.302495 0.0954714
0.472271 0.302689 0.0947015
0.47676 0.303264 0.0941277
0.481655 0.304291 0.0935435
0.37792 0.307106 0.0983196
0.382313 0.307163 0.098809
0.386894 0.307977 0.099325
0.392138 0.30773 0.0997293
0.397236 0.307044 0.100069
0.402399 0.307334 0.100404
0.407607 0.30753 0.10077
0.412304 0.307408 0.101047
0.41739 0.305801 0.101113
0.42448 0.306368 0.101308
0.427837 0.307399 0.101414
0.432194 0.306745 0.101104
0.440919 0.305341 0.0998915
0.448181 0.306955 0.0989734
0.452803 0.307293 0.0982765
0.457469 0.307604 0.0977215
0.462392 0.307626 0.0970724
0.467372 0.307498 0.0964383
0.472256 0.30764 0.0958257
0.477163 0.307704 0.0950952
0.481958 0.307974 0.0944206
0.486806 0.308632 0.0937713
0.490517 0.30937 0.0934305
0.502928 0.5825 0.127734
0.382777 0.312312 0.0992149
0.3869 0.312848 0.0995777
0.392556 0.312264 0.100008
0.397443 0.312342 0.1004
0.402607 0.312593 0.100968
0.40751 0.312194 0.101315
0.411739 0.311781 0.101621
0.42925 0.312538 0.102394
0.432469 0.311612 0.101979
0.435681 0.312557 0.101897
0.447699 0.312547 0.100096
0.452672 0.312073 0.0991158
0.457514 0.312113 0.0985067
0.462363 0.312602 0.0980244
0.46728 0.31266 0.0974756
0.472387 0.31259 0.0970528
0.477354 0.312642 0.0963996
0.482414 0.312815 0.0956162
0.487241 0.313064 0.0948218
0.491813 0.313408 0.0940165
0.495183 0.31449 0.0936424
0.383622 0.316946 0.0994985
0.38758 0.317353 0.0999223
0.392398 0.317546 0.100367
0.396971 0.317303 0.1008
0.40243 0.317473 0.101407
0.407405 0.316899 0.102013
0.410885 0.316653 0.102322
0.433931 0.31571 0.102592
0.437835 0.316976 0.102433
0.443608 0.318489 0.101801
0.448118 0.316905 0.100819
0.452787 0.317036 0.100141
0.457862 0.317446 0.0995285
0.462583 0.317229 0.0989299
0.467353 0.316849 0.0983637
0.472377 0.317253 0.0979084
0.477526 0.317436 0.0973944
0.482455 0.317783 0.0967514
0.48742 0.317591 0.0957422
0.491956 0.318183 0.0949329
0.496664 0.317957 0.093908
0.501683 0.319769 0.0930522
0.38792 0.322329 0.10039
0.392026 0.322316 0.100801
0.397249 0.322004 0.101278
0.401918 0.322037 0.101957
0.406129 0.320884 0.102357
0.439242 0.319979 0.102665
0.44281 0.321702 0.102472
0.447714 0.322212 0.101888
0.453074 0.322254 0.101171
0.457649 0.322086 0.100587
0.462625 0.32156 0.099801
0.467012 0.321798 0.0993705
0.472624 0.322027 0.0986753
0.477547 0.322728 0.0981676
0.482821 0.322798 0.0973523
0.487321 0.322355 0.0965257
0.492217 0.322725 0.0955557
0.497141 0.323023 0.0944184
0.501918 0.322924 0.0932972
0.506224 0.323367 0.0924522
0.392425 0.326793 0.101342
0.396717 0.326992 0.101852
0.401151 0.325998 0.102188
0.44514 0.325411 0.102757
0.448351 0.327023 0.102652
0.452514 0.32606 0.101988
0.457589 0.326902 0.101536
0.462805 0.327038 0.100851
0.46591 0.329273 0.100821
0.474451 0.325968 0.0990224
0.478128 0.327565 0.0986589
0.482377 0.327663 0.0979356
0.487345 0.327473 0.0970537
0.492193 0.327719 0.0961135
0.496913 0.328 0.0950444
0.501621 0.328014 0.0938665
0.506731 0.327868 0.0927062
0.509579 0.326343 0.0919324
0.492776 0.582519 0.129948
0.458601 0.331225 0.10218
0.462873 0.332095 0.101691
0.46803 0.333062 0.101149
0.473822 0.332222 0.100014
0.477946 0.332102 0.0992452
0.482478 0.332344 0.0984223
0.487271 0.332585 0.0975842
0.492106 0.332765 0.0965671
0.497006 0.332985 0.0955406
0.501696 0.332941 0.0944147
0.506863 0.332915 0.0931523
0.50976 0.333677 0.092623
0.463199 0.336009 0.102318
0.467454 0.337028 0.101882
0.473105 0.337184 0.100884
0.478556 0.337372 0.0998574
0.482953 0.337295 0.0989451
0.48732 0.337259 0.0979968
0.492441 0.337646 0.097007
0.497286 0.337709 0.0959481
0.50207 0.3378 0.0949035
0.506607 0.338201 0.0938578
0.51092 0.338604 0.0928927
0.469508 0.340657 0.10213
0.472898 0.342125 0.101667
0.477445 0.341857 0.100734
0.482807 0.342297 0.0997407
0.48803 0.342047 0.0986183
0.492613 0.34263 0.0977815
0.497256 0.342613 0.0967744
0.502234 0.342625 0.0956123
0.506811 0.342937 0.0946549
0.511702 0.342879 0.0934079
0.515396 0.34518 0.0930417
0.474778 0.345114 0.101829
0.478357 0.346601 0.101401
0.483415 0.347039 0.100473
0.487886 0.347085 0.099617
0.492737 0.347097 0.0986694
0.497384 0.347736 0.097905
0.502373 0.347472 0.0966796
0.507119 0.347855 0.0956461
0.511544 0.347764 0.09445
0.516763 0.348288 0.0933974
0.521752 0.349463 0.0925629
0.525794 0.350086 0.0918625
0.478895 0.351146 0.102343
0.483318 0.351909 0.101684
0.488162 0.351709 0.100559
0.493 0.351409 0.0995719
0.497636 0.352448 0.0987537
0.502711 0.352458 0.0977687
0.507443 0.352728 0.0966797
0.512164 0.352911 0.0955548
0.516591 0.353052 0.0943379
0.52164 0.353123 0.0931863
0.526751 0.35302 0.0920886
0.483375 0.355359 0.102373
0.487655 0.356859 0.101814
0.498495 0.356852 0.099521
0.502513 0.357463 0.098827
0.507676 0.357482 0.0976013
0.512256 0.357718 0.0964662
0.516927 0.357655 0.0951789
0.521525 0.358217 0.0940899
0.526673 0.357896 0.0927815
0.487683 0.360579 0.102577
0.503451 0.36192 0.0994076
0.507578 0.362309 0.0985466
0.512529 0.362761 0.0973541
0.517302 0.362567 0.0959592
0.522112 0.362949 0.0947469
0.526798 0.362929 0.0935201
0.530273 0.364453 0.0928662
0.503986 0.36722 0.10022
0.508029 0.367087 0.0992801
0.512492 0.367684 0.098199
0.517305 0.367578 0.0967865
0.521849 0.36776 0.0955255
0.526652 0.367629 0.094237
0.531224 0.367845 0.0930237
0.497617 0.373605 0.10281
0.503794 0.372831 0.101169
0.507707 0.372306 0.100101
0.512756 0.372284 0.0987638
0.517389 0.372437 0.097454
0.521974 0.372805 0.0961887
0.526636 0.372635 0.094909
0.531513 0.372748 0.0935815
0.535039 0.373701 0.0927261
0.499693 0.376134 0.102679
0.503358 0.376584 0.101886
0.507996 0.376861 0.100741
0.513075 0.377201 0.0994014
0.517419 0.377614 0.0981811
0.522458 0.377665 0.0968359
0.527211 0.377763 0.0955116
0.531862 0.378019 0.0943241
0.536545 0.378205 0.0930614
0.504253 0.381301 0.102393
0.507863 0.381175 0.101408
0.513649 0.381731 0.0999861
0.517742 0.382261 0.099001
0.522531 0.382584 0.0977241
0.527282 0.382602 0.0964226
0.531863 0.383019 0.09524
0.536982 0.382874 0.0936955
0.540674 0.383014 0.0927642
0.515033 0.386272 0.10044
0.518393 0.387096 0.0996709
0.522755 0.387352 0.0985975
0.527497 0.38737 0.0972478
0.53201 0.387734 0.0960471
0.536818 0.388116 0.0946594
0.541742 0.387878 0.0931785
0.519208 0.390644 0.100164
0.523009 0.391536 0.0992489
0.527688 0.392406 0.0981103
0.53226 0.392588 0.0967942
0.536959 0.392872 0.0953835
0.541384 0.392917 0.0940849
0.545195 0.394026 0.0929716
0.52433 0.395022 0.0994941
0.527952 0.39724 0.0989271
0.532412 0.39752 0.0975585
0.537027 0.397648 0.0961356
0.541505 0.398166 0.0948284
0.546631 0.398334 0.0932628
0.550221 0.399025 0.0922783
0.527728 0.402557 0.0996307
0.532767 0.402322 0.0980983
0.537264 0.402594 0.0967584
0.542136 0.402953 0.095301
0.546785 0.403017 0.0940386
0.551302 0.402859 0.0926022
0.528546 0.407489 0.100131
0.532702 0.407193 0.0988229
0.537471 0.407619 0.097437
0.541827 0.407845 0.0961812
0.546494 0.407517 0.0948275
0.55147 0.407966 0.0934576
0.520353 0.413144 0.103564
0.523723 0.413119 0.102483
0.528604 0.411808 0.100661
0.532919 0.41224 0.0994562
0.537546 0.412543 0.0981015
0.542262 0.412727 0.0968026
0.546736 0.412652 0.0955502
0.551943 0.413041 0.0941809
0.556165 0.412768 0.0928709
0.52447 0.416423 0.102662
0.528635 0.417354 0.101555
0.533954 0.416677 0.0997502
0.537485 0.417515 0.0987965
0.542596 0.417493 0.0973655
0.547009 0.417715 0.0962795
0.551979 0.417834 0.0949262
0.556232 0.417013 0.0935111
0.525845 0.421194 0.102946
0.528321 0.421207 0.102133
0.533006 0.422157 0.100788
0.537501 0.422741 0.0995694
0.542565 0.422696 0.0982307
0.547312 0.422379 0.0969032
0.551474 0.422777 0.0958802
0.556019 0.422967 0.0945404
0.530807 0.425444 0.10201
0.534169 0.427104 0.101212
0.538608 0.4272 0.0999276
0.542719 0.427563 0.0989319
0.547686 0.427524 0.0976005
0.551877 0.427606 0.0963838
0.556379 0.427594 0.0949132
0.531071 0.433655 0.103274
0.533801 0.431741 0.101974
0.53812 0.431971 0.10075
0.542891 0.432278 0.0995843
0.548032 0.432251 0.0982277
0.552101 0.432595 0.0970143
0.556907 0.432643 0.0952163
0.561025 0.433255 0.0936048
0.530651 0.435466 0.103718
0.533253 0.436549 0.102978
0.538217 0.437004 0.101445
0.543141 0.437316 0.100106
0.547949 0.437082 0.0987431
0.552464 0.437567 0.0973324
0.556908 0.437985 0.095725
0.561557 0.437986 0.0937224
0.539641 0.441497 0.101749
0.543557 0.442302 0.100681
0.548162 0.442104 0.0992369
0.552931 0.44263 0.0977477
0.556982 0.442565 0.0961971
0.561323 0.442406 0.0942643
0.544201 0.446742 0.101242
0.548068 0.447046 0.100053
0.553077 0.447709 0.0983911
0.557023 0.44727 0.0966741
0.560652 0.447811 0.095125
0.544809 0.45146 0.101889
0.548361 0.452142 0.100729
0.553193 0.452358 0.0989126
0.557401 0.452354 0.0970405
0.560534 0.452561 0.0956561
0.549047 0.456779 0.101075
0.553 0.457475 0.0995392
0.557649 0.45728 0.0974877
0.560414 0.457259 0.0961595
0.549718 0.462081 0.101234
0.553229 0.462262 0.0998326
0.557633 0.462184 0.0979552
0.561522 0.462375 0.0960797
0.549698 0.466856 0.10167
0.553097 0.467051 0.100212
0.557788 0.467475 0.0981805
0.562284 0.467395 0.0960733
0.553583 0.47166 0.100254
0.557643 0.472702 0.0984744
0.56223 0.472419 0.096321
0.565438 0.472829 0.0947928
0.554272 0.476817 0.100201
0.557619 0.477827 0.098648
0.562365 0.47748 0.0963519
0.565731 0.478107 0.0948523
0.55413 0.482425 0.100443
0.557281 0.482516 0.0988629
0.561688 0.482014 0.0966938
0.565951 0.482259 0.0948549
0.554879 0.487628 0.100318
0.557802 0.487483 0.0988157
0.562386 0.489027 0.0967197
0.565909 0.48761 0.0950379
0.554289 0.490774 0.1008
0.55785 0.492482 0.0990831
0.562586 0.492504 0.0968245
0.566081 0.492618 0.0953156
0.55821 0.497259 0.0992823
0.562624 0.497471 0.0971784
0.566146 0.497743 0.0956885
0.559336 0.501824 0.0991567
0.562229 0.502593 0.0978884
0.487525 0.58252 0.130482
0.562287 0.507538 0.0984443
0.482646 0.582343 0.130683
0.477563 0.58224 0.130568
0.47253 0.582251 0.13017
0.467317 0.582174 0.129414
0.462368 0.582487 0.128553
0.457443 0.58249 0.127393
0.453522 0.582551 0.126124
0.452407 0.692662 0.135277
0.510609 0.578955 0.125095
0.50765 0.577678 0.126303
0.448274 0.690827 0.134787
0.567749 0.557655 0.0992527
0.502802 0.57727 0.127975
0.56821 0.562707 0.0991107
0.497757 0.577354 0.129199
0.492617 0.577408 0.129998
0.487478 0.577594 0.130436
0.482326 0.577467 0.130558
0.477355 0.577521 0.130301
0.39657 0.279876 0.0986096
0.402915 0.279361 0.0987579
0.407808 0.278817 0.0985894
0.412193 0.279516 0.0985438
0.392995 0.283403 0.0988832
0.397464 0.283136 0.0992168
0.402345 0.28275 0.0992858
0.407613 0.282574 0.0992277
0.412496 0.282382 0.0989889
0.41694 0.283478 0.0989361
0.420328 0.283704 0.0987244
0.388832 0.288199 0.0988007
0.392873 0.287667 0.0993176
0.3977 0.287553 0.0997255
0.40245 0.287904 0.0999661
0.407501 0.287422 0.0998361
0.41237 0.287533 0.0996624
0.41753 0.287504 0.0993684
0.4222 0.28785 0.0990767
0.42564 0.288705 0.0988596
0.384855 0.294455 0.0984445
0.387863 0.29266 0.0988424
0.392974 0.292838 0.0995578
0.39767 0.2926 0.0999456
0.402559 0.292805 0.100231
0.407416 0.292732 0.100196
0.4124 0.29289 0.100036
0.41731 0.293192 0.0998682
0.422264 0.293234 0.0996788
0.427234 0.292566 0.0991816
0.432494 0.294213 0.0989433
0.382936 0.296718 0.098202
0.387853 0.297741 0.0990145
0.39263 0.29767 0.0995994
0.397724 0.297755 0.0999761
0.402537 0.297528 0.100239
0.407542 0.297495 0.100276
0.41249 0.297611 0.10024
0.417512 0.297581 0.100189
0.42241 0.297775 0.100125
0.427228 0.298026 0.0999329
0.432205 0.298128 0.0996034
0.437385 0.298058 0.0990856
0.441769 0.299708 0.0988721
0.384276 0.302374 0.0987762
0.387531 0.302461 0.0991633
0.392523 0.302913 0.0996277
0.397523 0.302822 0.0999178
0.402534 0.302579 0.100157
0.407517 0.302622 0.100327
0.41253 0.302647 0.100524
0.417619 0.30256 0.100636
0.422547 0.302805 0.100785
0.427491 0.302629 0.100653
0.432363 0.302726 0.100371
0.437296 0.302784 0.0998653
0.442401 0.302766 0.0992225
0.446999 0.303113 0.0985889
0.45119 0.303055 0.097974
0.383464 0.307578 0.0989502
0.387897 0.307436 0.0993986
0.392711 0.307761 0.0997506
0.39766 0.307836 0.100117
0.402667 0.307633 0.100413
0.407609 0.307594 0.100778
0.412668 0.30768 0.101097
0.417629 0.307814 0.101391
0.422357 0.307609 0.101555
0.427464 0.307551 0.101451
0.432396 0.307633 0.101153
0.437476 0.307703 0.10069
0.442233 0.307874 0.100087
0.447039 0.307853 0.0993102
0.451687 0.30815 0.0985855
0.472392 0.57729 0.129874
0.382942 0.312403 0.0992296
0.387827 0.312498 0.099639
0.392754 0.312852 0.0999939
0.397706 0.312729 0.100393
0.402622 0.312609 0.100914
0.407546 0.312631 0.101381
0.412607 0.312729 0.10184
0.417376 0.312381 0.102129
0.422583 0.312408 0.102378
0.427466 0.312321 0.102354
0.43252 0.312571 0.102108
0.437224 0.312634 0.101676
0.442117 0.312868 0.101023
0.447079 0.312642 0.100176
0.45204 0.312852 0.0993706
0.457072 0.313672 0.098835
0.460531 0.314288 0.0985154
0.383669 0.317317 0.0995397
0.387925 0.317424 0.0999437
0.392685 0.317916 0.100393
0.397734 0.317667 0.100917
0.402815 0.317611 0.101464
0.407574 0.317602 0.102139
0.412559 0.317627 0.102671
0.41771 0.317513 0.103065
0.422456 0.317348 0.103271
0.42742 0.31733 0.103268
0.432411 0.317773 0.103072
0.437391 0.317795 0.102584
0.442374 0.317824 0.101865
0.447229 0.317521 0.10102
0.452255 0.317749 0.100353
0.457019 0.317917 0.0997508
0.461954 0.318039 0.0991478
0.466855 0.318602 0.0987393
0.471993 0.319368 0.098353
0.476691 0.318914 0.0977184
0.388547 0.322157 0.100378
0.392678 0.322771 0.100917
0.397702 0.322706 0.101453
0.40263 0.322567 0.102061
0.407521 0.322629 0.102796
0.412487 0.322446 0.103365
0.417306 0.322431 0.103788
0.422397 0.322315 0.103962
0.427428 0.322401 0.103939
0.432567 0.322575 0.103676
0.437533 0.32239 0.103216
0.442344 0.322595 0.102651
0.447312 0.322522 0.101976
0.452379 0.322817 0.101347
0.45735 0.32279 0.100737
0.462297 0.322959 0.100126
0.467196 0.323032 0.0995376
0.472009 0.323054 0.0989828
0.476907 0.322991 0.0982816
0.481195 0.322985 0.0976254
0.38987 0.325427 0.10088
0.393068 0.327583 0.10153
0.39765 0.327732 0.102056
0.402572 0.327535 0.102596
0.407659 0.32735 0.103323
0.412363 0.327234 0.103884
0.417418 0.32731 0.104337
0.422482 0.327313 0.104528
0.427292 0.326931 0.104449
0.432011 0.326853 0.104216
0.43745 0.326953 0.103816
0.442912 0.326564 0.103179
0.447463 0.327454 0.10284
0.452391 0.327851 0.102314
0.457343 0.327749 0.101684
0.462321 0.327783 0.101011
0.467279 0.327832 0.100324
0.472111 0.327749 0.0996318
0.476601 0.328134 0.099011
0.481651 0.327931 0.0981035
0.484743 0.328875 0.0976804
0.4674 0.577401 0.129101
0.397636 0.332489 0.102609
0.402171 0.33242 0.103039
0.407264 0.332417 0.103672
0.412454 0.332254 0.104299
0.417465 0.332198 0.104693
0.422373 0.331939 0.10487
0.426782 0.331626 0.104833
0.43276 0.332038 0.104653
0.437302 0.332612 0.104438
0.442892 0.334145 0.104253
0.448418 0.332052 0.103439
0.452723 0.332407 0.103034
0.457286 0.332762 0.102585
0.462321 0.332801 0.10192
0.467285 0.332818 0.101194
0.472255 0.332703 0.100363
0.477131 0.33289 0.0994722
0.482286 0.332932 0.0985469
0.485281 0.333887 0.0980322
0.462672 0.577465 0.128231
0.402246 0.337395 0.103609
0.407407 0.337594 0.104105
0.412176 0.337103 0.104498
0.416988 0.336545 0.104881
0.422086 0.336969 0.105079
0.427837 0.33696 0.105125
0.432682 0.337691 0.105094
0.437731 0.337105 0.105001
0.442127 0.337131 0.104818
0.447577 0.337173 0.104441
0.453 0.336856 0.103824
0.457682 0.337238 0.103243
0.462206 0.337604 0.10279
0.467265 0.337732 0.101995
0.472345 0.33768 0.101131
0.477137 0.337762 0.100187
0.481877 0.337689 0.0991771
0.486639 0.338097 0.0982788
0.490703 0.339427 0.0976199
0.457821 0.577598 0.127052
0.402591 0.342397 0.104152
0.407356 0.342641 0.1045
0.411698 0.341992 0.10471
0.41684 0.342461 0.105026
0.422406 0.342124 0.105312
0.427184 0.342292 0.105422
0.432607 0.342445 0.105565
0.437473 0.342065 0.105686
0.442693 0.342049 0.105643
0.447835 0.342376 0.105472
0.452387 0.341787 0.104898
0.457583 0.341675 0.104146
0.462749 0.341878 0.10339
0.46756 0.34238 0.1027
0.47235 0.342638 0.101866
0.477406 0.342749 0.100876
0.482045 0.342746 0.0999653
0.486885 0.343022 0.0990683
0.491768 0.343145 0.0980247
0.49529 0.345175 0.0977517
0.403378 0.346893 0.10445
0.407311 0.347158 0.104615
0.411847 0.347231 0.104935
0.41775 0.347234 0.105274
0.422269 0.347356 0.105432
0.427564 0.346842 0.105847
0.432303 0.347227 0.106189
0.437474 0.346554 0.106361
0.443545 0.345881 0.106395
0.448199 0.346634 0.106345
0.452688 0.346692 0.105948
0.457327 0.34719 0.105389
0.463494 0.347839 0.104422
0.467981 0.346918 0.103406
0.472554 0.347263 0.102654
0.477218 0.347832 0.101851
0.482196 0.347711 0.100866
0.48698 0.347779 0.0999395
0.491913 0.34796 0.0990404
0.497 0.348051 0.0979924
0.500473 0.350044 0.0976493
0.407917 0.352053 0.104691
0.412306 0.351667 0.105056
0.417222 0.351898 0.105427
0.422249 0.352122 0.105962
0.427175 0.352219 0.106465
0.431109 0.351991 0.106769
0.453441 0.351572 0.106881
0.457595 0.351841 0.106399
0.462343 0.352111 0.105593
0.467963 0.351982 0.104458
0.473058 0.35231 0.103629
0.477566 0.35267 0.10291
0.48241 0.352406 0.101915
0.487157 0.352514 0.100932
0.491996 0.352977 0.100019
0.496682 0.353234 0.0991824
0.501425 0.352736 0.0980719
0.408822 0.35659 0.104743
0.410745 0.357497 0.104968
0.418874 0.357198 0.105987
0.422256 0.357171 0.106461
0.427934 0.357263 0.107238
0.43034 0.35498 0.107177
0.458455 0.355849 0.107121
0.462745 0.357095 0.106766
0.46792 0.357229 0.105777
0.472899 0.357007 0.104718
0.477752 0.357145 0.103813
0.482544 0.357596 0.102963
0.487253 0.357622 0.102016
0.492205 0.357779 0.101017
0.496754 0.358234 0.10028
0.501873 0.357646 0.0990009
0.50555 0.358422 0.0982872
0.410908 0.362732 0.105241
0.417806 0.362671 0.106277
0.422496 0.362321 0.106955
0.426516 0.361412 0.107544
0.463603 0.361201 0.107443
0.468016 0.361861 0.106771
0.472853 0.361812 0.105803
0.478085 0.361701 0.104689
0.483255 0.362011 0.103733
0.487271 0.362553 0.102981
0.492348 0.362745 0.101904
0.497359 0.362738 0.100926
0.501914 0.36287 0.0999781
0.50723 0.363364 0.0988559
0.510194 0.364347 0.098243
0.413795 0.367355 0.105883
0.416685 0.366885 0.106395
0.421796 0.367148 0.10729
0.468254 0.366333 0.107622
0.473092 0.365679 0.106564
0.478552 0.366182 0.105514
0.482911 0.366177 0.104584
0.488009 0.367114 0.103636
0.492378 0.367788 0.102848
0.497284 0.367672 0.101772
0.501949 0.367613 0.100747
0.506786 0.367903 0.0997385
0.511918 0.368152 0.0984413
0.51545 0.369351 0.0975892
0.417411 0.371969 0.106942
0.421363 0.37245 0.107637
0.485168 0.371204 0.105031
0.488261 0.372105 0.104459
0.492748 0.372353 0.103561
0.497484 0.372685 0.102624
0.502373 0.372763 0.101497
0.506998 0.372452 0.100282
0.511599 0.373247 0.0992199
0.516397 0.373174 0.097843
0.418662 0.377155 0.107486
0.420961 0.377757 0.10802
0.479677 0.378971 0.107732
0.483573 0.377767 0.106589
0.4877 0.376645 0.105479
0.493091 0.376906 0.104224
0.497503 0.377339 0.103348
0.502536 0.377677 0.102256
0.507364 0.37756 0.100964
0.511886 0.378036 0.0998515
0.516725 0.377936 0.0984229
0.519861 0.378983 0.0977847
0.420205 0.380857 0.1081
0.475405 0.381717 0.109042
0.477544 0.380292 0.108434
0.482987 0.381195 0.107384
0.487945 0.381989 0.106324
0.493035 0.382468 0.105224
0.497871 0.381957 0.104032
0.502352 0.382592 0.103123
0.507362 0.382827 0.101825
0.512243 0.382516 0.100476
0.516846 0.382867 0.0993154
0.521237 0.382893 0.0981972
0.488155 0.386987 0.107269
0.492937 0.386315 0.105869
0.49836 0.386707 0.104736
0.502776 0.387193 0.103851
0.507547 0.387645 0.102688
0.51234 0.387525 0.101346
0.516673 0.387871 0.100298
0.521782 0.387661 0.0989074
0.525812 0.388204 0.0979016
0.488311 0.389413 0.107721
0.499735 0.392608 0.105606
0.503277 0.392247 0.104616
0.507399 0.392427 0.103641
0.512394 0.392456 0.102281
0.517206 0.392674 0.101005
0.5218 0.393107 0.0999288
0.526461 0.393053 0.0985911
0.494731 0.398509 0.108209
0.498609 0.397047 0.106743
0.503679 0.39716 0.10544
0.50783 0.397316 0.104442
0.512392 0.397321 0.103256
0.51724 0.397619 0.101824
0.522131 0.397662 0.100483
0.526721 0.397941 0.0993377
0.530516 0.398788 0.0982918
0.495312 0.399546 0.108228
0.498564 0.4004 0.107414
0.503429 0.402159 0.106416
0.507925 0.401688 0.105109
0.51232 0.402546 0.104207
0.517354 0.402557 0.102643
0.522229 0.402637 0.101237
0.527157 0.402786 0.0998477
0.531714 0.403265 0.0985964
0.503822 0.406703 0.107015
0.508628 0.406683 0.105762
0.512941 0.407441 0.104742
0.517426 0.407424 0.103469
0.52229 0.407665 0.102039
0.527007 0.40781 0.100597
0.531598 0.408001 0.0992884
0.535422 0.407872 0.0981323
0.504256 0.412208 0.107853
0.508535 0.412198 0.106655
0.513499 0.411778 0.105355
0.517503 0.412516 0.104328
0.522614 0.412392 0.10264
0.527098 0.412803 0.101351
0.531487 0.412772 0.0999686
0.536633 0.41276 0.0984305
0.53954 0.415084 0.0978544
0.504802 0.414793 0.108163
0.508355 0.416524 0.107592
0.513289 0.41714 0.106299
0.518208 0.417092 0.104772
0.52249 0.417347 0.103483
0.527755 0.417536 0.101801
0.531761 0.417876 0.100614
0.536868 0.417798 0.0990208
0.541377 0.418717 0.0979167
0.513626 0.420929 0.1068
0.518895 0.420595 0.105029
0.522713 0.422213 0.104015
0.527606 0.422296 0.102491
0.532307 0.422591 0.101053
0.536505 0.4228 0.0998165
0.541566 0.422921 0.0984939
0.54428 0.423274 0.0978865
0.519801 0.425379 0.105498
0.523021 0.427612 0.104846
0.527818 0.427426 0.103202
0.532556 0.427447 0.101674
0.536239 0.427829 0.100647
0.541459 0.427886 0.0992772
0.545205 0.427752 0.0983661
0.523834 0.432225 0.105442
0.528217 0.432214 0.103961
0.532513 0.432695 0.102579
0.536982 0.432717 0.101181
0.541911 0.433037 0.099889
0.546407 0.432785 0.0987431
0.52425 0.435463 0.105835
0.528365 0.437465 0.10478
0.532647 0.437574 0.10334
0.537481 0.437565 0.101731
0.541701 0.438017 0.1006
0.54667 0.437889 0.0991942
0.525598 0.441387 0.106365
0.528726 0.442212 0.105427
0.532836 0.441954 0.10409
0.537583 0.442467 0.102587
0.54151 0.442659 0.101384
0.546617 0.442836 0.0998285
0.550831 0.443456 0.0985944
0.524702 0.44573 0.107344
0.529063 0.446675 0.106062
0.533128 0.447172 0.104823
0.538002 0.447113 0.103268
0.541889 0.447734 0.102131
0.546395 0.447388 0.100652
0.55116 0.447495 0.0989964
0.533385 0.45194 0.105495
0.537931 0.452155 0.104185
0.542893 0.452452 0.102667
0.546579 0.453418 0.101561
0.551578 0.452667 0.0996231
0.554808 0.453961 0.0983975
0.534955 0.4558 0.105682
0.538033 0.457163 0.104953
0.542979 0.457309 0.103394
0.546639 0.457649 0.102141
0.551611 0.458095 0.100164
0.555129 0.457466 0.0986504
0.538597 0.462375 0.105438
0.543043 0.46219 0.103857
0.547483 0.462417 0.10217
0.55165 0.463137 0.100519
0.555727 0.462194 0.0987867
0.539291 0.467281 0.105666
0.543006 0.467157 0.1043
0.547692 0.467734 0.10257
0.550989 0.467031 0.101139
0.55477 0.465773 0.0994497
0.530706 0.469766 0.108764
0.53252 0.470593 0.108298
0.539823 0.471962 0.105916
0.543059 0.472183 0.104679
0.547789 0.472677 0.102782
0.551547 0.473086 0.101241
0.539852 0.477239 0.106402
0.5429 0.477197 0.105121
0.547749 0.477674 0.103091
0.552031 0.477465 0.101245
0.54331 0.481904 0.10537
0.547677 0.482609 0.103459
0.552275 0.482242 0.101299
0.544224 0.487141 0.105553
0.548191 0.487228 0.103577
0.552283 0.487427 0.101607
0.545335 0.492347 0.105517
0.548096 0.492264 0.104038
0.552801 0.492565 0.101644
0.555528 0.494508 0.100389
0.54795 0.497179 0.104544
0.552664 0.497315 0.102121
0.555797 0.498136 0.100548
0.549048 0.502091 0.104523
0.552386 0.502451 0.102748
0.453707 0.577634 0.125603
0.549442 0.507296 0.104996
0.510237 0.574383 0.125417
0.507519 0.572349 0.126474
0.549874 0.512708 0.105403
0.552664 0.512714 0.10387
0.557476 0.512334 0.101316
0.5027 0.572335 0.128082
0.497714 0.572455 0.129284
0.492719 0.572545 0.130086
0.487666 0.572634 0.130479
0.482637 0.572539 0.13054
0.477436 0.572537 0.130221
0.472225 0.572437 0.129633
0.550504 0.539769 0.106055
0.467155 0.572626 0.128785
0.549091 0.540823 0.106774
0.55321 0.542393 0.10493
0.462321 0.572475 0.127777
0.553605 0.54726 0.105076
0.557527 0.547604 0.103367
0.457918 0.572539 0.126617
0.554837 0.551926 0.104878
0.454198 0.571783 0.125225
0.511113 0.567197 0.125167
0.507041 0.56761 0.126654
0.502896 0.567184 0.12795
0.562559 0.557465 0.10155
0.565417 0.558201 0.100255
0.497862 0.567549 0.129178
0.492638 0.567567 0.130049
0.565722 0.563049 0.100221
0.487608 0.567948 0.130529
0.562508 0.567527 0.101721
0.48243 0.567463 0.130496
0.558847 0.572448 0.103755
0.562318 0.572591 0.101971
0.477275 0.567414 0.130109
0.555093 0.577622 0.105972
0.558273 0.577379 0.104319
0.56231 0.577738 0.102232
0.472285 0.567438 0.129427
0.555463 0.58093 0.106
0.558454 0.582246 0.104532
0.467329 0.567352 0.128513
0.462275 0.567355 0.127344
0.457809 0.567499 0.126134
0.454251 0.566927 0.124826
0.519404 0.561027 0.121378
0.515902 0.562125 0.12293
0.418079 0.314191 0.102539
0.422731 0.313125 0.102552
0.427164 0.314021 0.102747
0.417409 0.318207 0.103119
0.422419 0.317973 0.103415
0.427463 0.317706 0.103323
0.431838 0.317149 0.103002
0.437395 0.319113 0.102768
0.414545 0.322174 0.10353
0.417499 0.322943 0.103851
0.422563 0.322889 0.104084
0.427409 0.322702 0.103999
0.432168 0.322685 0.10374
0.436946 0.323851 0.103473
0.440757 0.325088 0.103211
0.408677 0.3288 0.103589
0.413103 0.327973 0.103978
0.417585 0.327683 0.104292
0.422416 0.327412 0.1045
0.427742 0.32813 0.104545
0.432358 0.328008 0.104335
0.437346 0.328029 0.103912
0.44194 0.328321 0.103533
0.446124 0.329611 0.10328
0.40347 0.332324 0.10319
0.407502 0.332639 0.103695
0.41244 0.332831 0.104252
0.417809 0.332754 0.104695
0.422741 0.332886 0.104875
0.42753 0.332775 0.104857
0.432445 0.332745 0.104729
0.437304 0.332744 0.10445
0.442278 0.332876 0.104145
0.447097 0.333186 0.103753
0.451252 0.333602 0.103402
0.402663 0.337429 0.103645
0.407579 0.337567 0.104116
0.41282 0.338068 0.104588
0.417712 0.337906 0.104886
0.422494 0.337563 0.105103
0.427513 0.337732 0.105115
0.432477 0.337707 0.105048
0.437538 0.33773 0.105064
0.442468 0.337821 0.10492
0.447355 0.337821 0.104575
0.452176 0.338221 0.104128
0.456806 0.338517 0.103586
0.462054 0.338683 0.102972
0.403378 0.341526 0.104121
0.40788 0.342097 0.104471
0.412911 0.3426 0.104779
0.417486 0.342581 0.105041
0.422491 0.342715 0.105266
0.427556 0.342711 0.105419
0.432538 0.342792 0.105597
0.437551 0.342668 0.105732
0.442541 0.342634 0.105744
0.44744 0.342658 0.105533
0.452327 0.342988 0.105149
0.457248 0.342899 0.104454
0.461878 0.34328 0.1038
0.466147 0.34386 0.103179
0.403885 0.349268 0.104501
0.40823 0.347736 0.104688
0.412714 0.347594 0.104941
0.417612 0.347553 0.105236
0.422663 0.347607 0.105464
0.427555 0.347732 0.105918
0.432546 0.34769 0.106263
0.437601 0.347729 0.106523
0.442544 0.347718 0.106702
0.447354 0.347609 0.106564
0.452344 0.34782 0.10619
0.45719 0.347793 0.105505
0.462052 0.347829 0.10469
0.466494 0.348331 0.103953
0.470951 0.349436 0.103353
0.476032 0.350314 0.102617
0.511697 0.562781 0.124738
0.407788 0.352466 0.104684
0.412816 0.35271 0.105098
0.417751 0.352462 0.105507
0.422663 0.352494 0.106013
0.427666 0.352717 0.106563
0.432776 0.352641 0.107013
0.437606 0.352662 0.107338
0.442343 0.352576 0.107578
0.447546 0.35247 0.1075
0.452411 0.352818 0.107211
0.457363 0.352754 0.106562
0.462266 0.352739 0.105729
0.467063 0.352968 0.104889
0.471885 0.353021 0.104047
0.476906 0.353225 0.103155
0.480352 0.354307 0.102723
0.409475 0.356199 0.104794
0.412802 0.357828 0.105214
0.417727 0.357505 0.105833
0.422707 0.357594 0.106555
0.427709 0.357678 0.107245
0.432672 0.357627 0.107834
0.437353 0.357521 0.108214
0.442634 0.357403 0.108421
0.447583 0.357523 0.108391
0.45252 0.357646 0.108064
0.457249 0.357708 0.107643
0.462302 0.357661 0.106916
0.467299 0.35785 0.106001
0.472197 0.357991 0.105054
0.47706 0.357984 0.104156
0.48135 0.35835 0.10336
0.413234 0.362633 0.105528
0.417621 0.362733 0.106226
0.422607 0.362605 0.106975
0.427419 0.362602 0.107761
0.432308 0.362453 0.108437
0.437464 0.362483 0.108965
0.442393 0.362436 0.109217
0.447556 0.362471 0.109125
0.452565 0.362227 0.108754
0.457566 0.36233 0.108426
0.462448 0.362729 0.107925
0.467375 0.36275 0.107074
0.472341 0.362715 0.106058
0.47726 0.362791 0.105098
0.48172 0.363115 0.104261
0.486019 0.364757 0.103641
0.413896 0.366909 0.105856
0.417397 0.367647 0.106554
0.422519 0.367501 0.107427
0.427395 0.367273 0.108216
0.432445 0.367381 0.109009
0.437364 0.367418 0.109515
0.442413 0.367329 0.109691
0.447088 0.366918 0.109595
0.452774 0.366923 0.109376
0.457674 0.367081 0.109075
0.462686 0.366983 0.108568
0.467488 0.367526 0.107934
0.472364 0.367699 0.107038
0.477309 0.367699 0.106014
0.482339 0.367635 0.104987
0.486492 0.368243 0.104145
0.414301 0.370466 0.106247
0.417878 0.37252 0.107042
0.422471 0.372319 0.107816
0.427558 0.372342 0.108675
0.43241 0.37239 0.109368
0.437482 0.372422 0.109851
0.441963 0.371881 0.110051
0.44772 0.372388 0.110096
0.452629 0.372204 0.109948
0.457789 0.371954 0.10952
0.462629 0.372051 0.109186
0.467342 0.372416 0.108679
0.47249 0.372382 0.107821
0.477432 0.372632 0.106878
0.482261 0.372653 0.105913
0.487103 0.37275 0.104866
0.491504 0.373757 0.104043
0.418861 0.376661 0.107509
0.422506 0.377449 0.108236
0.427331 0.377214 0.108977
0.431901 0.377232 0.109549
0.437395 0.376943 0.109954
0.44281 0.377554 0.110251
0.447188 0.37707 0.110276
0.452143 0.377094 0.110197
0.458119 0.37723 0.110063
0.462897 0.377049 0.109681
0.467325 0.377513 0.109329
0.472549 0.37738 0.108612
0.477696 0.377389 0.107749
0.482285 0.377669 0.106835
0.487342 0.377694 0.105726
0.491778 0.378158 0.104761
0.49673 0.378215 0.103659
0.500868 0.378702 0.102843
0.419549 0.381918 0.108001
0.422651 0.382401 0.108536
0.427256 0.382234 0.109238
0.432274 0.382416 0.109815
0.436797 0.382407 0.110136
0.441881 0.382374 0.110315
0.447186 0.382245 0.110483
0.452939 0.382322 0.110426
0.457743 0.382231 0.110478
0.46264 0.382541 0.110396
0.467825 0.382366 0.110048
0.472704 0.382128 0.109491
0.477996 0.382719 0.108763
0.482553 0.382502 0.10771
0.487214 0.382812 0.106693
0.491987 0.382722 0.105464
0.496406 0.383178 0.104545
0.501538 0.382895 0.103359
0.423481 0.387464 0.108749
0.427096 0.387277 0.109362
0.43222 0.387314 0.110009
0.436774 0.387512 0.110428
0.44227 0.387435 0.110592
0.448015 0.387377 0.110822
0.452069 0.386974 0.110895
0.457502 0.386961 0.111033
0.462306 0.386949 0.1111
0.468036 0.385944 0.110763
0.473407 0.386795 0.110261
0.47792 0.38701 0.109601
0.482655 0.387381 0.108677
0.487267 0.387439 0.107552
0.492378 0.387575 0.106265
0.4968 0.387813 0.105284
0.501367 0.388168 0.104353
0.505186 0.387804 0.10336
0.424263 0.392398 0.108778
0.42721 0.392325 0.10951
0.432443 0.3924 0.110253
0.437189 0.391994 0.11079
0.44276 0.392602 0.111172
0.447019 0.392338 0.111398
0.45261 0.391874 0.111611
0.457712 0.392527 0.111982
0.462874 0.392037 0.111996
0.466338 0.39169 0.111931
0.474939 0.391002 0.110925
0.478528 0.390828 0.110265
0.483104 0.391716 0.109492
0.487608 0.392427 0.108583
0.492361 0.392608 0.107403
0.497169 0.392554 0.106111
0.501737 0.393109 0.105162
0.506503 0.39319 0.104053
0.427859 0.397109 0.109641
0.432394 0.397345 0.110528
0.436913 0.396724 0.111128
0.442008 0.397005 0.111605
0.447498 0.396951 0.112025
0.452184 0.396354 0.112376
0.455938 0.39594 0.112499
0.462354 0.396136 0.112847
0.466076 0.396352 0.11285
0.487682 0.397147 0.109623
0.492527 0.397387 0.108478
0.497483 0.39736 0.10708
0.502018 0.397813 0.10598
0.506701 0.398 0.104803
0.511465 0.397755 0.103547
0.51447 0.399877 0.102996
0.428696 0.401965 0.109771
0.431465 0.402003 0.110458
0.436886 0.401201 0.111415
0.44215 0.400179 0.111961
0.445879 0.401111 0.112436
0.465178 0.400023 0.11358
0.488577 0.402393 0.11053
0.49294 0.402393 0.109366
0.497645 0.402642 0.108058
0.502457 0.402386 0.106659
0.506833 0.402768 0.1056
0.511871 0.403052 0.104338
0.515326 0.403436 0.10338
0.429406 0.406107 0.110021
0.432147 0.406926 0.110872
0.435635 0.408131 0.111685
0.484379 0.406436 0.112431
0.488058 0.406278 0.1114
0.493741 0.406505 0.109745
0.497824 0.407467 0.108783
0.502584 0.407231 0.107454
0.50735 0.407852 0.106305
0.511506 0.407786 0.105179
0.516497 0.408024 0.103862
0.43377 0.412118 0.111539
0.436473 0.412185 0.112183
0.490954 0.409521 0.111143
0.498351 0.411706 0.109332
0.502861 0.41223 0.10822
0.507515 0.412579 0.107003
0.512008 0.412824 0.10594
0.516796 0.412727 0.104563
0.520969 0.413265 0.103328
0.433665 0.416451 0.111668
0.437281 0.4173 0.112676
0.441997 0.417544 0.113583
0.444805 0.41567 0.113879
0.499129 0.416806 0.109986
0.503062 0.417411 0.10914
0.507601 0.417436 0.107933
0.512558 0.417637 0.106599
0.516482 0.417701 0.105425
0.521541 0.417825 0.103817
0.525181 0.418726 0.102733
0.437721 0.42238 0.112963
0.43975 0.421572 0.113367
0.498232 0.423296 0.1114
0.503397 0.422272 0.109861
0.507816 0.422292 0.108819
0.512345 0.422744 0.10752
0.517083 0.422566 0.105942
0.521831 0.423148 0.104467
0.526748 0.423339 0.102922
0.5306 0.425203 0.101959
0.438621 0.426649 0.113263
0.489249 0.425185 0.113625
0.493235 0.42672 0.113053
0.498244 0.4269 0.11195
0.503049 0.427428 0.110941
0.507799 0.42717 0.109567
0.512666 0.42768 0.108266
0.517382 0.427548 0.106647
0.521922 0.427891 0.10527
0.52653 0.427876 0.10375
0.530246 0.428058 0.10251
0.499417 0.431338 0.112419
0.503243 0.432317 0.111632
0.507964 0.432156 0.110364
0.512713 0.432272 0.109056
0.517541 0.43241 0.107467
0.521961 0.432873 0.106136
0.526649 0.432647 0.104566
0.530762 0.433546 0.103319
0.503247 0.43701 0.112306
0.507784 0.437328 0.111212
0.512825 0.437085 0.109792
0.517858 0.437233 0.108256
0.522407 0.437813 0.106823
0.526991 0.437592 0.105268
0.531888 0.438062 0.103669
0.534855 0.43832 0.10273
0.504305 0.442464 0.112922
0.508249 0.441998 0.111809
0.513251 0.441761 0.110345
0.517746 0.442424 0.109115
0.522755 0.442448 0.10751
0.526698 0.442851 0.106193
0.531699 0.442651 0.104497
0.536031 0.442828 0.103122
0.504988 0.446463 0.113299
0.508386 0.44726 0.112469
0.513568 0.445236 0.110715
0.517991 0.447231 0.109655
0.522789 0.447622 0.108245
0.527182 0.447575 0.10675
0.531642 0.447861 0.105398
0.536774 0.447808 0.103798
0.539717 0.449962 0.10323
0.508813 0.451731 0.112918
0.513266 0.452476 0.11173
0.518348 0.452245 0.110154
0.522581 0.452528 0.108956
0.527641 0.452291 0.107326
0.531951 0.452939 0.106114
0.537026 0.452899 0.104585
0.540381 0.453106 0.103637
0.510564 0.455992 0.112994
0.51407 0.456987 0.112064
0.518692 0.457251 0.110718
0.522678 0.457314 0.109587
0.527476 0.45737 0.10818
0.532103 0.457574 0.106802
0.536777 0.457734 0.105432
0.541813 0.45805 0.103853
0.513654 0.461029 0.112661
0.51874 0.462208 0.111309
0.522746 0.462238 0.110191
0.52762 0.462473 0.108836
0.532632 0.462508 0.107242
0.536482 0.462535 0.106123
0.54173 0.462789 0.10441
0.545351 0.464356 0.103203
0.515118 0.467016 0.113137
0.519068 0.467225 0.111935
0.523419 0.466986 0.110593
0.52773 0.467518 0.109425
0.53255 0.467516 0.107818
0.537044 0.467562 0.106481
0.54214 0.467953 0.104671
0.546608 0.467871 0.102969
0.518779 0.470612 0.112542
0.523522 0.471182 0.111173
0.527959 0.472109 0.109915
0.532608 0.472452 0.108474
0.537067 0.472522 0.10698
0.541273 0.472553 0.105372
0.546144 0.472689 0.103481
0.54909 0.473798 0.102346
0.528633 0.476885 0.110445
0.533061 0.477483 0.108965
0.537713 0.477352 0.107256
0.54232 0.475908 0.105246
0.546723 0.47664 0.103423
0.528705 0.481859 0.111183
0.53317 0.482349 0.109633
0.538057 0.4826 0.107779
0.54123 0.483906 0.106615
0.52949 0.486222 0.111556
0.533678 0.487258 0.110118
0.538082 0.487442 0.108411
0.541526 0.488393 0.106954
0.54389 0.488996 0.105872
0.533832 0.491568 0.110577
0.537866 0.492368 0.109032
0.542744 0.492421 0.10676
0.545031 0.491189 0.10553
0.535291 0.497369 0.11071
0.53813 0.497535 0.109487
0.54279 0.497455 0.107295
0.54592 0.498475 0.10581
0.538279 0.502121 0.109895
0.542658 0.502517 0.107967
0.546657 0.502458 0.105853
0.538845 0.507047 0.11025
0.542727 0.507374 0.108524
0.547119 0.507201 0.106237
0.538739 0.512024 0.110698
0.543049 0.512291 0.108861
0.547549 0.512427 0.106653
0.542586 0.51737 0.10935
0.547469 0.517568 0.107065
0.506805 0.562639 0.126626
0.542916 0.522089 0.109415
0.50275 0.562618 0.127854
0.497763 0.562368 0.129063
0.492642 0.56238 0.129979
0.487808 0.562219 0.130335
0.482087 0.562423 0.130334
0.544093 0.542799 0.10918
0.547415 0.542875 0.1076
0.551761 0.542319 0.10556
0.555089 0.543248 0.104115
0.543276 0.547448 0.109746
0.547678 0.547407 0.107706
0.551975 0.54757 0.105825
0.555215 0.548919 0.104466
0.543982 0.552604 0.109792
0.547751 0.552549 0.108041
0.552409 0.552426 0.106028
0.544554 0.557165 0.109954
0.547613 0.557241 0.108544
0.477356 0.562306 0.129911
0.472215 0.562308 0.129115
0.467226 0.562384 0.128215
0.550795 0.574471 0.107943
0.556567 0.573896 0.104982
0.548499 0.577162 0.109221
0.552383 0.577735 0.10737
0.557055 0.577674 0.104996
0.549112 0.582147 0.109223
0.55249 0.582671 0.107633
0.556959 0.58235 0.105323
0.549492 0.587669 0.109436
0.552697 0.587435 0.107863
0.556386 0.586443 0.10593
0.549252 0.592946 0.109965
0.551377 0.592256 0.108902
0.549276 0.597081 0.110184
0.551267 0.597717 0.109303
0.4625 0.562277 0.127147
0.458013 0.562321 0.125901
0.487072 0.686926 0.130239
0.48335 0.686199 0.131477
0.454672 0.562453 0.124719
0.515708 0.558204 0.122811
0.512064 0.557615 0.124242
0.507407 0.557687 0.126003
0.50231 0.557503 0.12763
0.461178 0.688649 0.135284
0.497594 0.557296 0.128721
0.492479 0.557361 0.129586
0.487516 0.557182 0.129931
0.48237 0.557462 0.129927
0.477342 0.557509 0.129551
0.472379 0.557224 0.128778
0.467263 0.557384 0.127876
0.547658 0.652551 0.109449
0.462645 0.557362 0.126899
0.544668 0.657459 0.110166
0.548031 0.65773 0.109173
0.45802 0.557252 0.125665
0.543891 0.662481 0.110068
0.454758 0.559097 0.124711
0.510923 0.553889 0.124365
0.508435 0.552556 0.125153
0.502048 0.552456 0.127111
0.49781 0.552342 0.128134
0.492649 0.552329 0.128971
0.539691 0.680164 0.110688
0.487445 0.552384 0.1293
0.482679 0.552387 0.129353
0.477534 0.552444 0.129
0.457633 0.687042 0.135168
0.452469 0.687768 0.134915
0.447909 0.68703 0.134472
0.433805 0.360147 0.108265
0.437888 0.358268 0.108376
0.442355 0.357895 0.108492
0.445255 0.358394 0.1086
0.429004 0.36386 0.108096
0.43306 0.363256 0.10858
0.43758 0.362548 0.10898
0.442398 0.362676 0.109245
0.447175 0.362748 0.109162
0.451857 0.363783 0.108998
0.456632 0.363758 0.108728
0.427987 0.36815 0.108371
0.432485 0.367844 0.109003
0.437723 0.367579 0.109536
0.443185 0.367697 0.109694
0.447959 0.368254 0.109728
0.452371 0.367911 0.109542
0.457326 0.367935 0.109191
0.461677 0.368593 0.108888
0.466175 0.369455 0.108405
0.424559 0.37274 0.108222
0.427711 0.372595 0.108708
0.432555 0.372628 0.109362
0.43749 0.373002 0.109853
0.442933 0.373022 0.11007
0.447672 0.372496 0.110045
0.452643 0.372665 0.109957
0.457401 0.372877 0.109712
0.462221 0.372769 0.109302
0.467288 0.372931 0.108736
0.471821 0.373296 0.108089
0.475406 0.374075 0.107502
0.419726 0.379904 0.107892
0.423341 0.377885 0.108428
0.427839 0.377516 0.109013
0.433391 0.377864 0.109671
0.437667 0.377732 0.1099
0.442508 0.377698 0.110161
0.447565 0.377667 0.110253
0.452479 0.377757 0.110169
0.457449 0.377796 0.110084
0.462427 0.37775 0.109828
0.467098 0.377982 0.1094
0.471965 0.377901 0.108747
0.476388 0.378242 0.108139
0.422853 0.382261 0.108537
0.428064 0.382986 0.109323
0.433102 0.382724 0.109812
0.437708 0.382553 0.110091
0.442589 0.38273 0.110253
0.447546 0.382617 0.110375
0.452425 0.382803 0.110418
0.457332 0.382767 0.110477
0.462229 0.382584 0.110427
0.467347 0.382896 0.110166
0.472131 0.382895 0.109692
0.476912 0.38283 0.108954
0.480439 0.38454 0.108613
0.423984 0.387488 0.108864
0.42828 0.387824 0.109554
0.432679 0.387759 0.110046
0.437868 0.387611 0.110427
0.44265 0.387682 0.110581
0.447563 0.387716 0.110791
0.452394 0.387745 0.110974
0.45735 0.387778 0.111098
0.462383 0.387765 0.111216
0.467219 0.387927 0.111128
0.47219 0.387924 0.110712
0.477167 0.387887 0.109884
0.482123 0.388004 0.108919
0.487099 0.389174 0.107938
0.490859 0.389593 0.1071
0.424998 0.391127 0.108996
0.42782 0.392561 0.109587
0.432636 0.392775 0.110248
0.437811 0.39277 0.110863
0.442691 0.392646 0.111169
0.447497 0.392667 0.111371
0.452624 0.392745 0.111709
0.45732 0.392479 0.111877
0.462344 0.392504 0.112079
0.467453 0.392681 0.112056
0.472405 0.392485 0.111616
0.477189 0.392876 0.11097
0.482088 0.392988 0.11
0.486925 0.392972 0.108827
0.491916 0.393068 0.107608
0.428657 0.397254 0.109754
0.432853 0.397811 0.110593
0.437634 0.397599 0.111278
0.442578 0.397657 0.11173
0.44757 0.397469 0.112096
0.452294 0.397723 0.112572
0.457401 0.397506 0.112885
0.462422 0.39759 0.11309
0.467562 0.397339 0.112944
0.472492 0.397266 0.112558
0.477505 0.397571 0.111911
0.482372 0.397783 0.111026
0.487065 0.397842 0.109919
0.491833 0.39788 0.108737
0.495605 0.398948 0.107891
0.429285 0.402335 0.109929
0.432752 0.40279 0.110803
0.43746 0.402528 0.111602
0.442466 0.402389 0.112222
0.447588 0.40246 0.112811
0.452294 0.402544 0.113392
0.457339 0.402366 0.11376
0.462541 0.402387 0.114035
0.467483 0.402536 0.113968
0.472584 0.402392 0.113638
0.477699 0.40247 0.113004
0.482552 0.402597 0.112068
0.487334 0.402816 0.110888
0.491842 0.402685 0.109653
0.496817 0.402855 0.108283
0.500239 0.404278 0.10757
0.429509 0.406428 0.110027
0.432753 0.407451 0.111011
0.437342 0.407583 0.111979
0.442481 0.407441 0.112797
0.447502 0.407399 0.113432
0.452534 0.407354 0.11403
0.457358 0.407255 0.11446
0.462423 0.406755 0.114642
0.467543 0.407264 0.114661
0.472578 0.407411 0.114426
0.477533 0.407637 0.114003
0.482636 0.40741 0.113024
0.487359 0.407602 0.111806
0.492088 0.407689 0.110484
0.496907 0.408304 0.109175
0.5013 0.40843 0.108027
0.433087 0.412043 0.111317
0.437199 0.412523 0.112311
0.442581 0.412517 0.113254
0.447653 0.412694 0.114003
0.45266 0.412557 0.114487
0.457054 0.412013 0.114845
0.462423 0.412118 0.115227
0.467592 0.41246 0.115122
0.472987 0.412295 0.114864
0.477623 0.412142 0.114419
0.482552 0.412595 0.113686
0.487456 0.412468 0.112524
0.492158 0.412599 0.111243
0.496643 0.413043 0.110081
0.501104 0.413059 0.10887
0.434243 0.417143 0.111884
0.437651 0.417379 0.112701
0.442635 0.41744 0.113624
0.447536 0.417385 0.114288
0.452377 0.417483 0.114818
0.457314 0.416986 0.115088
0.462694 0.417301 0.115339
0.467868 0.417352 0.115346
0.472469 0.417188 0.115228
0.477509 0.417281 0.114856
0.482798 0.417358 0.114102
0.487439 0.417428 0.113066
0.492284 0.417676 0.111837
0.497025 0.417737 0.110643
0.501821 0.417669 0.109511
0.50611 0.418683 0.108541
0.510737 0.419752 0.107486
0.434806 0.421748 0.112199
0.43773 0.422311 0.112923
0.442354 0.422179 0.113783
0.447341 0.421936 0.114477
0.452271 0.422053 0.114861
0.457342 0.422469 0.115154
0.462735 0.422299 0.115321
0.467237 0.421778 0.115373
0.473071 0.422052 0.115382
0.477715 0.421875 0.115115
0.48256 0.422043 0.114518
0.487474 0.42241 0.11366
0.492634 0.422436 0.112515
0.497279 0.422823 0.111415
0.501932 0.422617 0.110251
0.506831 0.422995 0.10921
0.511372 0.423245 0.10791
0.514581 0.423568 0.106874
0.43834 0.427483 0.113171
0.442066 0.427419 0.113893
0.447569 0.427461 0.114689
0.45223 0.427293 0.115022
0.457446 0.427114 0.115232
0.462131 0.427273 0.115391
0.467875 0.427364 0.115563
0.472413 0.427137 0.115646
0.477754 0.427119 0.115434
0.482951 0.426873 0.114865
0.487995 0.427606 0.114182
0.492765 0.427587 0.113246
0.49758 0.42738 0.11218
0.502272 0.42762 0.111057
0.507039 0.428177 0.109997
0.511762 0.428127 0.108562
0.514675 0.427735 0.107542
0.438968 0.432585 0.113328
0.442441 0.432354 0.114114
0.447372 0.432061 0.114905
0.452174 0.431823 0.115357
0.457533 0.432469 0.115668
0.462803 0.432489 0.115874
0.467244 0.431664 0.115867
0.472536 0.432056 0.115945
0.477516 0.432334 0.115924
0.48286 0.432387 0.115517
0.488275 0.432037 0.114697
0.493147 0.432449 0.113913
0.497415 0.432343 0.112973
0.50205 0.43275 0.111941
0.506513 0.432831 0.110868
0.51174 0.432778 0.109431
0.515196 0.432884 0.108339
0.439461 0.437377 0.113707
0.442282 0.437151 0.114432
0.446919 0.437364 0.11527
0.452544 0.437168 0.115896
0.456839 0.436866 0.116171
0.46192 0.437295 0.116552
0.467461 0.437167 0.116566
0.472997 0.437165 0.116643
0.477453 0.437171 0.116537
0.483106 0.43701 0.116162
0.488568 0.43683 0.115369
0.493309 0.437368 0.114583
0.497724 0.43719 0.11369
0.502691 0.437454 0.112512
0.507048 0.437683 0.111441
0.511574 0.437989 0.110372
0.516149 0.438434 0.109027
0.472328 0.552441 0.128337
0.442678 0.442214 0.114878
0.447616 0.442672 0.115918
0.451929 0.442161 0.116457
0.457405 0.441961 0.116966
0.462419 0.441942 0.1172
0.46815 0.442098 0.117478
0.472091 0.442003 0.117483
0.477766 0.442115 0.117439
0.482261 0.442773 0.117305
0.486487 0.439901 0.116257
0.493997 0.440479 0.114941
0.497959 0.441882 0.11434
0.502479 0.44255 0.113374
0.507525 0.442356 0.112007
0.511857 0.442999 0.110921
0.516985 0.443069 0.109394
0.520697 0.443397 0.108299
0.443216 0.447399 0.115382
0.452868 0.446293 0.117073
0.457216 0.445762 0.117478
0.474975 0.444986 0.118077
0.477916 0.446973 0.118358
0.48266 0.44706 0.118092
0.485763 0.44806 0.117925
0.49962 0.446647 0.114635
0.502852 0.447177 0.113912
0.507458 0.447448 0.112739
0.512119 0.447367 0.111357
0.516547 0.448237 0.110195
0.521615 0.447796 0.108614
0.524774 0.448685 0.107668
0.444266 0.452625 0.116081
0.445213 0.451889 0.116264
0.483075 0.451325 0.118745
0.503252 0.452285 0.114563
0.507661 0.452274 0.113286
0.512483 0.452208 0.11189
0.516248 0.452996 0.110851
0.521476 0.452747 0.109272
0.525512 0.453134 0.108114
0.444467 0.457157 0.116626
0.446255 0.456935 0.117127
0.4505 0.457263 0.118208
0.483978 0.455776 0.119279
0.500493 0.458002 0.116131
0.503486 0.457048 0.11513
0.507668 0.457148 0.114018
0.512781 0.457048 0.112393
0.516671 0.457862 0.111359
0.521817 0.457944 0.109917
0.526687 0.457886 0.10849
0.445534 0.461141 0.117279
