0.45930063702076152 0.22790751810911181 0.083069897028027986 -0.031615859589235941 0.11621489596849713 -0.99272077412405602
0.45933607840950408 0.22798051475876904 0.083077313813265385 -0.031615773359070773 0.11621507875642864 -0.99272075547182204
0.45933598559296718 0.22798033361854964 0.083077295563663792 -0.031615773359070933 0.11621507875642846 -0.99272075547182204
0.45933702401235643 0.22798335879049547 0.083077616641028321 -0.031615773359068844 0.1162150787564328 -0.99272075547182159
0.45930063905202828 0.22790760173198346 0.083069473853621789 0.02669697388070524 -0.12636182917527872 0.99162490878007425
0.45936624087573846 0.22804162553176976 0.083083507280976035 -0.031615772049144432 0.11621508154003417 -0.992720755187671
0.45933610486450838 0.22798059302678572 0.083077322133357667 -0.031615773359070717 0.11621507875642874 -0.99272075547182204
0.45933608565495287 0.22798055380291529 0.083077318153305657 -0.031615773359070773 0.11621507875642888 -0.99272075547182204
0.45933594751029139 0.22798015947129749 0.083077770472269427 0.02668452420952578 -0.12638742368828146 0.99162198205825902
0.45933594933860361 0.22798025897337773 0.083077287979774025 -0.031615773359070981 0.11621507875642835 -0.99272075547182204
0.4593006182539276 0.22790756979726803 0.083069470344146912 0.026696973880714056 -0.1263618291752607 0.99162490878007636
0.45930061128311472 0.22790757257352751 0.08306947088559441 0.026696973880714164 -0.1263618291752604 0.99162490878007636
0.45933607706191026 0.22798062640129374 0.083077326925865225 -0.031615773359070738 0.11621507875642888 -0.99272075547182204
0.45931711217980431 0.22794151873000099 0.083073352094973768 -0.36215410222591043 -0.83594621630295007 0.41235704151830138
0.45930063134694138 0.22790759526271376 0.08306947323668866 0.026696973880707384 -0.12636182917527428 0.99162490878007492
0.45933611803998797 0.22798059608915222 0.08307732207225306 -0.031615773359070738 0.11621507875642888 -0.99272075547182204
0.45933550353417518 0.22797899634146931 0.083077154364742625 -0.031615773359071835 0.11621507875642648 -0.99272075547182226
0.4593006680995082 0.22790754470850108 0.083069465805143697 0.02669697388071432 -0.12636182917526009 0.99162490878007636
0.45930062181512255 0.22790756775685972 0.083069469988263492 0.026696973880714105 -0.12636182917526045 0.99162490878007636
0.45930062532581012 0.22790758040259645 0.083069471505181514 0.0266969738807111 -0.12636182917526664 0.99162490878007559
0.45930062360719565 0.2279075684473896 0.083069470028010073 0.026696973880713799 -0.12636182917526109 0.99162490878007625
0.45933611860870499 0.22798060455780086 0.083077323045542106 -0.031615773359070731 0.11621507875642882 -0.99272075547182204
0.4593358217644985 0.22797889445741462 0.08307713230258558 -0.031615773359071814 0.11621507875642656 -0.99272075547182226
0.45933607428506257 0.22798051690304674 0.083077314195643612 -0.031615773359070787 0.11621507875642875 -0.99272075547182204
0.45933602743227014 0.22798032221392561 0.083077789063972576 0.026684524209474307 -0.12638742368838723 0.99162198205824692
0.45931714350177388 0.2279415038125642 0.083073349354562065 0.40738040280127275 0.89142265044364899 -0.19851162608142831
0.45930063194423676 0.22790756766013406 0.083069469703237253 0.026696973880713109 -0.12636182917526248 0.99162490878007625
0.45930063687389072 0.22790751919006424 0.083069897159249395 -0.03161585958923592 0.11621489596849707 -0.99272077412405613
0.45931715349943963 0.22794149898977625 0.083073348739875041 0.026696973871917471 -0.12636182919334488 0.9916249087780088
0.45930062235919256 0.22790744861259876 0.083069889359213014 -0.031615859589235996 0.11621489596849693 -0.99272077412405613
0.45930067839820066 0.22790741348886637 0.083069883462668415 -0.031615859589236024 0.11621489596849703 -0.99272077412405613
0.45931714901540982 0.2279415011822134 0.083073348872424277 -0.36215410222591038 -0.83594621630295018 0.41235704151830144
0.45930063874546961 0.22790751339749415 0.083069896421524819 -0.031615859589235948 0.11621489596849717 -0.99272077412405602
0.45930064660984526 0.22790753989103879 0.083069899272583861 -0.031615859589235927 0.11621489596849721 -0.99272077412405602
0.45930063532565429 0.22790751820104252 0.083069897092775277 -0.031615859589235934 0.1162148959684971 -0.99272077412405602
0.45933603941712497 0.22798044257532152 0.083077306604762105 -0.031615773359070863 0.11621507875642867 -0.99272075547182204
0.45933577000425302 0.22797988357456295 0.083077249744239579 -0.031615773359071266 0.11621507875642785 -0.99272075547182215
0.45933712027645474 0.22798272805021091 0.083077539736223685 -0.031615773359069198 0.11621507875643219 -0.9927207554718217
0.45931714421420344 0.22794150341061983 0.083073349553200296 0.026696973871878346 -0.12636182919342542 0.99162490877799947
0.45933616003567784 0.22798066194461875 0.083077328444308832 -0.031615773359070669 0.11621507875642897 -0.99272075547182204
0.45930062924032394 0.22790756460619702 0.083069469386872888 0.026696973880714032 -0.12636182917526068 0.99162490878007636
0.45933603161717101 0.22798032045423333 0.083077788727074983 0.026684524209474248 -0.12638742368838732 0.99162198205824692
0.4593006357346901 0.22790751957828256 0.083069897240977866 -0.031615859589235955 0.1162148959684971 -0.99272077412405613
0.4593361409440449 0.22798066822630147 0.083077329787710777 -0.031615773359070676 0.11621507875642889 -0.99272075547182204
0.45933603760310754 0.22798043309395633 0.083077305552576947 -0.031615773359070863 0.11621507875642864 -0.99272075547182204
0.45933603266460854 0.2279804328215673 0.083077305677968463 -0.031615773359070835 0.11621507875642856 -0.99272075547182204
0.45933608983133339 0.22798055109473148 0.083077317703258352 -0.031615773359070773 0.11621507875642879 -0.99272075547182204
0.45931726865140915 0.22794144438077837 0.083073338680928463 0.026696973871925544 -0.12636182919332828 0.99162490877801068
0.45933598965593458 0.22798032429805953 0.083077294343143981 -0.031615773359070933 0.11621507875642849 -0.99272075547182204
0.45930072210536427 0.22790743492188714 0.083069884579796985 -0.031615859589235976 0.11621489596849706 -0.99272077412405613
0.45930062154038409 0.22790757293159394 0.083069470655071642 0.02669697388071306 -0.12636182917526273 0.99162490878007603
0.45930062746097244 0.22790758296720692 0.083069471774503606 0.026696973880710372 -0.12636182917526823 0.99162490878007548
0.45616988038516926 0.22165851433812442 0.082438053265637218 -0.031615939870142593 0.1162147259508038 -0.99272079147074732
0.45930063513129094 0.22790758565826574 0.083069471910918916 0.026696973880709015 -0.12636182917527089 0.99162490878007514
0.45933708760432668 0.22798269901619325 0.08307753737782024 -0.031615773359069226 0.11621507875643208 -0.9927207554718217
0.45930063130242671 0.22790756349805313 0.083069469190146294 0.026696973880714073 -0.12636182917526065 0.99162490878007636
0.45930062969922142 0.22790751723830807 0.083069897159259665 -0.031615859589235927 0.11621489596849706 -0.99272077412405613
0.45930061975033126 0.22790756886012603 0.083069470184440927 0.026696973880714098 -0.12636182917526054 0.99162490878007636
0.45930062265201665 0.22790756801961246 0.083069469999214593 0.026696973880713987 -0.1263618291752607 0.99162490878007625
0.45933577125080832 0.22797988842194808 0.083077250272009781 -0.031615773359071259 0.11621507875642784 -0.99272075547182215
0.45924803662136326 0.22779871988494893 0.08305883555159585 -0.031615886207271751 0.11621483958396574 -0.99272077987710228
0.45933602955807412 0.22798043475091204 0.083077306002767193 -0.031615773359070877 0.11621507875642871 -0.99272075547182204
0.45931714970194432 0.2279415008580854 0.083073348811211603 0.40738040280127269 0.89142265044364899 -0.19851162608142828
0.45933609104450707 0.22798055192180355 0.083077317761444738 -0.031615773359070773 0.11621507875642879 -0.99272075547182204
0.45930064297964901 0.22790755817302757 0.083069468197203844 0.026696973880714008 -0.1263618291752607 0.99162490878007636
0.45933608304010581 0.22798055423353622 0.083077318286993856 -0.031615773359070766 0.11621507875642878 -0.99272075547182204
0.45933610529428948 0.22798059854121866 0.083077322765229611 -0.031615773359070724 0.11621507875642895 -0.99272075547182204
0.45930061863796418 0.22790758352480495 0.083069472083094814 0.026696973880711128 -0.12636182917526664 0.99162490878007559
0.45930062411952988 0.22790757209981363 0.083069470479641735 0.02669697388071297 -0.12636182917526279 0.99162490878007603
0.45931715274172652 0.22794149940672617 0.08307334854573907 -0.36215410222591049 -0.83594621630295018 0.41235704151830133
0.45930062678702199 0.22790760674416749 0.08306947482252372 0.026696973880705424 -0.12636182917527822 0.99162490878007437
0.45930072775825259 0.22790770219859807 0.083069915689062579 -0.03161585958923574 0.11621489596849759 -0.99272077412405602
0.45933598840665202 0.22798033238826365 0.0830772953300285 -0.031615773359070933 0.11621507875642849 -0.99272075547182204
0.45930065013859311 0.22790753827533414 0.083069898971055628 -0.031615859589235913 0.11621489596849713 -0.99272077412405613
0.45933612540865132 0.2279806179204453 0.083077324393308047 -0.031615773359070724 0.11621507875642889 -0.99272075547182204
0.45931714041374677 0.22794149966158367 0.083073349177781766 0.026696973871928015 -0.1263618291933232 0.99162490877801124
0.45930062495480423 0.22790756655326799 0.083069469750363015 0.026696973880714056 -0.12636182917526059 0.99162490878007636
0.4593357265549346 0.22797980872017257 0.083077242364999207 -0.031615773359071314 0.11621507875642773 -0.99272075547182215
0.45933603340379342 0.22798043484323613 0.08307730589109838 -0.031615773359070849 0.11621507875642867 -0.99272075547182204
0.45930062950857087 0.22790758281411763 0.08306947169986921 0.026696973880710184 -0.12636182917526861 0.99162490878007536
0.45933590840538285 0.22798017731738504 0.083077279724157169 -0.031615773359071023 0.11621507875642821 -0.99272075547182204
0.45962795783066074 0.22858448410031995 0.08313872318986916 -0.031615766402098712 0.11621509355729645 -0.99272075396068793
0.45930063014231404 0.22790757809902096 0.083069471081966967 0.026696973880711121 -0.1263618291752667 0.99162490878007559
0.45933616144324424 0.22798061911328013 0.08307732338533462 -0.03161577335907071 0.11621507875642891 -0.99272075547182204
0.45933573333761996 0.22797982931350894 0.083077244559791999 -0.031615773359071266 0.11621507875642761 -0.99272075547182215
0.4593006526627148 0.22790754842111413 0.083069900078404757 -0.031615859589235906 0.11621489596849723 -0.99272077412405602
0.45933613335273193 0.22798058645870994 0.083077320457169618 -0.031615773359070759 0.11621507875642889 -0.99272075547182204
0.45931714813266705 0.22794150160283214 0.083073348949846804 -0.36215410222591043 -0.83594621630295018 0.41235704151830144
0.45933560816148716 0.22797954128395947 0.083077214827527043 -0.031615773359071495 0.11621507875642727 -0.99272075547182215
0.45931713656439754 0.22794150703209765 0.083073350220633349 0.026696973869808866 -0.12636182919768299 0.99162490877751275
0.45933601246084138 0.22798038273851515 0.083077300458325273 -0.031615773359070912 0.11621507875642859 -0.99272075547182204
0.45933608056713848 0.22798052547854197 0.083077314999484134 -0.031615773359070787 0.11621507875642881 -0.99272075547182204
0.45933603079443064 0.22798042973412216 0.083077305376090455 -0.031615773359070849 0.11621507875642859 -0.99272075547182204
0.45931716416989193 0.22794149396370691 0.083073347542536188 0.40738040280127275 0.89142265044364899 -0.19851162608142828
0.45930062074069744 0.22790757288330074 0.083069470670447218 0.026696973880713151 -0.12636182917526245 0.99162490878007614
0.45933598785657875 0.22798032635950671 0.083077294641777086 -0.031615773359070926 0.11621507875642846 -0.99272075547182204
0.45930063255557346 0.22790758931382785 0.083069472446088394 0.026696973880708522 -0.126361829175272 0.99162490878007503
0.45931714205198976 0.22794150450339196 0.083073349481536315 0.40738040280127269 0.89142265044364899 -0.19851162608142828
0.45943392683515083 0.22818131208962533 0.083097704367583652 -0.031615769367195921 0.11621508724272593 -0.99272075460548614
0.45978687407684155 0.22891180659101409 0.083171980835417325 -0.031615766401763105 0.11621509355800877 -0.99272075396061532
0.45933592457150901 0.22798020233883035 0.083077282138496397 -0.031615773359070995 0.11621507875642824 -0.99272075547182204
0.45931714665685275 0.22794150228017901 0.083073349343387184 0.02669697387192559 -0.12636182919332817 0.99162490877801068
0.4593360534068392 0.22798069807987428 0.083077336070436034 -0.031615773359070697 0.11621507875642906 -0.99272075547182204
0.45933577621246779 0.22797989167438015 0.083077250494746083 -0.031615773359071252 0.11621507875642781 -0.99272075547182215
0.45897854365503943 0.2272485633967104 0.083003013153394894 -0.031615905073979232 0.11621479962470434 -0.99272078395415042
0.45933662839087602 0.22798157849438963 0.083077420826271745 -0.031615773359070003 0.11621507875643039 -0.99272075547182181
0.45930055226969824 0.22790759688986648 0.08306947557298848 0.026696973880714958 -0.12636182917525871 0.99162490878007647
0.45933608235245427 0.22798055284142271 0.083077318145923035 -0.031615773359070773 0.11621507875642885 -0.99272075547182204
0.4593365412964952 0.22798154198108972 0.083077419325507482 -0.031615773359070044 0.11621507875643033 -0.99272075547182181
0.45931715655978117 0.22794149758750148 0.083073348210956757 -0.36215410222591049 -0.83594621630295018 0.41235704151830144
0.45930063907313601 0.2279075592040033 0.083069468433753013 0.026696973880714181 -0.12636182917526029 0.99162490878007647
0.51315979330667272 0.54674317405164996 0.11899621537947831 -0.041319721407325385 0.11897036040353288 -0.99203766761563772
0.45933610811147668 0.22798064021195139 0.083077327553786634 -0.031615773359070724 0.11621507875642892 -0.99272075547182204
0.45941591422619765 0.22814556183932491 0.083094092842438599 -0.031615769367224836 0.11621508724266472 -0.99272075460549247
0.45933607925108938 0.22798046055202953 0.083077805301446442 0.026684524209432535 -0.12638742368847308 0.99162198205823715
0.45930065420650096 0.22790753472702877 0.083069898426112523 -0.031615859589235934 0.11621489596849713 -0.99272077412405602
0.45933601515853867 0.2279803843269026 0.083077300558358227 -0.031615773359070891 0.11621507875642857 -0.99272075547182204
0.45933609108162676 0.22798054846722771 0.083077317355844907 -0.03161577335907078 0.11621507875642885 -0.99272075547182204
0.45930063293679024 0.22790757522979319 0.08306947064110981 0.026696973880711433 -0.12636182917526592 0.9916249087800757
0.45933597185755487 0.22798020111898407 0.08307777512530129 0.026684524209512117 -0.12638742368830946 0.9916219820582558
0.45933537014653397 0.2279789677565007 0.083077155266455469 -0.031615773359071911 0.11621507875642641 -0.99272075547182226
0.45933616202871497 0.2279806091130463 0.083077322195989012 -0.031615773359070731 0.11621507875642896 -0.99272075547182204
0.45933573777630277 0.2279798271045628 0.083077244159835389 -0.031615773359071286 0.1162150787564277 -0.99272075547182215
0.45930062043480685 0.22790751973787982 0.083069897746927329 -0.031615859589235941 0.11621489596849714 -0.99272077412405613
0.45931725352060965 0.22794202233664765 0.083073407139205649 -0.031615853053709141 0.11621490982214973 -0.99272077271039105
0.45933593533278083 0.22798021192044188 0.083077282917468534 -0.031615773359071016 0.11621507875642835 -0.99272075547182204
0.45930063114055891 0.22790751689875399 0.083069897073605806 -0.031615859589235941 0.11621489596849707 -0.99272077412405602
0.4593361023344818 0.22798060321119284 0.083077323406193379 -0.031615773359070745 0.11621507875642892 -0.99272075547182204
0.45930111372740773 0.22790803763288328 0.083069516620638273 0.02669697388056607 -0.12636182917556482 0.9916249087800415
0.45930062140501399 0.22790757220108485 0.083069470565628051 0.026696973880713223 -0.12636182917526237 0.99162490878007614
0.45930061998100513 0.22790757513278359 0.083069470977549478 0.026696973880712748 -0.12636182917526328 0.99162490878007603
0.45924542925018846 0.22779433673925026 0.083058405472257957 -0.031615895296008882 0.11621482033240392 -0.99272078184136903
0.45933595619994028 0.22798026731097035 0.083077288737315874 -0.031615773359070981 0.11621507875642843 -0.99272075547182204
0.45930063022575951 0.22790752074119758 0.083069897552563596 -0.031615859589235948 0.11621489596849716 -0.99272077412405613
0.45930062336957328 0.22790756757770445 0.083069469923584285 0.026696973880714018 -0.12636182917526065 0.99162490878007625
0.45931715114539373 0.22794150016736092 0.08307334868574219 -0.36215410222591043 -0.8359462163029503 0.41235704151830133
0.45933562679669998 0.22797948116147845 0.083077207195667344 -0.031615773359071543 0.11621507875642717 -0.99272075547182215
0.45933592903435488 0.22798022019082534 0.083077284086249245 -0.031615773359070995 0.11621507875642829 -0.99272075547182204
0.45933577970323419 0.22797988705705496 0.083077249843036036 -0.031615773359071245 0.11621507875642781 -0.99272075547182215
0.45933609811222409 0.22798063306414487 0.083077327035464846 -0.03161577335907071 0.11621507875642885 -0.99272075547182204
0.45930063425006878 0.22790760133207949 0.083069473931942917 0.026696973880705827 -0.12636182917527752 0.99162490878007437
0.45933598600805137 0.2279803323599508 0.083077295403103671 -0.031615773359070926 0.11621507875642843 -0.99272075547182204
0.45933615390279903 0.22798058035626975 0.083077319088303486 -0.031615773359070738 0.11621507875642889 -0.99272075547182204
0.45930063155224921 0.22790758995139257 0.083069472554344617 0.026696973880708481 -0.12636182917527206 0.99162490878007503
0.45931714647487459 0.22794150239583807 0.083073349094029261 0.40738040280127269 0.89142265044364899 -0.19851162608142831
0.45930062409056344 0.2279075671762435 0.083069469853015665 0.026696973880714018 -0.1263618291752607 0.99162490878007625
0.45947491727096107 0.22826776301012441 0.083106519493433922 -0.031615767872723195 0.11621509042540601 -0.99272075428049389
0.45933607800692444 0.22798055190420499 0.083077318174600234 -0.031615773359070752 0.11621507875642879 -0.99272075547182204
0.45930060604287198 0.22790757870154113 0.083069471807561607 0.026696973880713397 -0.12636182917526192 0.99162490878007614
0.4593171497116485 0.22794150085346077 0.08307334881035916 0.40738040280127269 0.89142265044364899 -0.19851162608142828
0.4593359317562225 0.22798021309653868 0.083077283169055743 -0.031615773359071002 0.11621507875642827 -0.99272075547182204
0.45930058263941326 0.22790758570516514 0.083069473330105323 0.026696973880714271 -0.12636182917526012 0.99162490878007636
0.45933608752889549 0.22798055125399816 0.083077317795230393 -0.031615773359070759 0.11621507875642882 -0.99272075547182204
0.4593360858396453 0.22798045799551417 0.083077804798307273 0.026684524209432382 -0.12638742368847339 0.99162198205823704
0.45933609621981825 0.22798054321585612 0.083077316577442259 -0.03161577335907078 0.11621507875642877 -0.99272075547182204
0.45930062338500155 0.22790757360867878 0.083069470691690309 0.02669697388071272 -0.12636182917526328 0.99162490878007603
0.45933602509903643 0.22798043153866848 0.083077305768728349 -0.031615773359070863 0.11621507875642863 -0.99272075547182204
0.45930062344141515 0.22790758185773025 0.083069471741340384 0.026696973880710989 -0.12636182917526684 0.99162490878007559
0.45813179633316881 0.22553673860096343 0.082829582162348717 -0.031615927705457049 0.11621475170539909 -0.99272078884315496
0.45933609932197272 0.22798055540220086 0.083077317905267831 -0.031615773359070766 0.11621507875642889 -0.99272075547182204
0.45930034675773718 0.22790759662148197 0.083069481071674375 0.026696973880735605 -0.12636182917521629 0.99162490878008136
0.45931714976513865 0.22794150082797246 0.083073348805674199 0.40738040280127263 0.89142265044364899 -0.19851162608142825
0.45930063942590271 0.2279075279207696 0.083069898100051665 -0.031615859589235934 0.11621489596849713 -0.99272077412405602
0.45933709839792619 0.22798266677263285 0.083077533259405381 -0.031615773359069246 0.11621507875643214 -0.9927207554718217
0.45933596921616904 0.22798020561213378 0.083077775769056422 0.026684524209511298 -0.12638742368831118 0.99162198205825558
0.45933610982004636 0.22798059394150674 0.083077322082619545 -0.031615773359070738 0.11621507875642896 -0.99272075547182204
0.4593006088827235 0.22790757397427225 0.08306947112871442 0.026696973880714094 -0.12636182917526045 0.99162490878007636
0.45930063060360959 0.22790756401272638 0.083069469274544491 0.026696973880714021 -0.12636182917526059 0.99162490878007636
0.45929952068441693 0.22790583357856092 0.08306973537772934 -0.03161585958923787 0.1162148959684931 -0.99272077412405646
0.45930062773462615 0.22790759132345001 0.083069472831964378 0.026696973880708581 -0.12636182917527181 0.99162490878007503
0.45931715952213259 0.22794149617852164 0.083073347950219742 0.40738040280127275 0.89142265044364899 -0.19851162608142831
0.45929827087849634 0.22790250637479029 0.083069385675214172 -0.031615859589241284 0.11621489596848586 -0.99272077412405724
0.45933598786734176 0.22798033214166033 0.083077295318335076 -0.031615773359070926 0.1162150787564285 -0.99272075547182204
0.45933578813951931 0.22797988786975654 0.083077249669501321 -0.031615773359071266 0.11621507875642789 -0.99272075547182215
0.45933607192392756 0.22798047247905154 0.083077309070245603 -0.031615773359070842 0.1162150787564287 -0.99272075547182204
0.45930056114442652 0.22790759369526989 0.083069474926974599 0.026696973880714757 -0.1263618291752592 0.99162490878007647
0.45933573077817513 0.22797980613267579 0.08307724192758803 -0.031615773359071307 0.11621507875642768 -0.99272075547182215
0.45931714449444505 0.22794150327713489 0.083073349528645646 0.026696973871878516 -0.12636182919342512 0.99162490877799958
0.45930063045236491 0.22790758231172142 0.083069471610440093 0.026696973880710188 -0.12636182917526853 0.99162490878007536
0.45933576833748369 0.22797988518216869 0.083077249985520144 -0.031615773359071238 0.11621507875642774 -0.99272075547182215
0.45930059931157813 0.22790757684322743 0.083069471751981372 0.026696973880714462 -0.12636182917525976 0.99162490878007636
0.45933595284552009 0.2279802696271083 0.083077289115289971 -0.031615773359070974 0.11621507875642843 -0.99272075547182204
0.45933573997042565 0.22797982434809672 0.083077243767265954 -0.031615773359071321 0.11621507875642771 -0.99272075547182215
0.45930062149262846 0.2279075680815825 0.083069470038324947 0.026696973880714087 -0.12636182917526065 0.99162490878007636
0.45933599335900327 0.22798033086880837 0.083077294994429562 -0.031615773359070926 0.11621507875642856 -0.99272075547182204
0.45930063714131064 0.22790752028329622 0.083069897278714139 -0.031615859589235927 0.11621489596849713 -0.99272077412405602
0.45933577990999613 0.22797991849327537 0.083077253516602709 -0.031615773359071231 0.11621507875642789 -0.99272075547182215
0.45930062603803368 0.2279075803063727 0.083069471473745007 0.026696973880711055 -0.12636182917526675 0.9916249087800757
0.45933606393769977 0.22798056047779794 0.083077319626358129 -0.031615773359070773 0.11621507875642886 -0.99272075547182204
0.45930054023599498 0.22790760278756314 0.083069476648503213 0.026696973880714906 -0.12636182917525873 0.99162490878007647
0.46898453509887433 0.24976585553605482 0.085320383829258439 -0.031615764760694658 0.116215097053902 -0.99272075360362466
0.45930062784759895 0.22790757896586647 0.083069471254207633 0.026696973880711159 -0.12636182917526656 0.9916249087800757
0.45933670558969053 0.22798173272590999 0.083077436423133172 -0.031615773359069906 0.11621507875643063 -0.99272075547182181
0.45931714926864398 0.22794150106155664 0.083073348850228018 -0.36215410222591038 -0.83594621630295018 0.41235704151830138
0.45930064374228124 0.22790752738598311 0.083069897899979123 -0.031615859589235934 0.1162148959684972 -0.99272077412405602
0.45933601066040469 0.22798033783436328 0.083077295258859749 -0.031615773359070891 0.1162150787564285 -0.99272075547182204
0.45933595705542751 0.22798021012799868 0.083077776671872355 0.026684524209511624 -0.12638742368831049 0.99162198205825569
0.45930063668713356 0.2279075204526613 0.083069897313005694 -0.031615859589235955 0.11621489596849718 -0.99272077412405602
0.45933580493914983 0.22797995567666657 0.083077257072441207 -0.031615773359071189 0.11621507875642791 -0.99272075547182215
0.45933598381274027 0.22798033383771299 0.083077295646016597 -0.031615773359070926 0.11621507875642852 -0.99272075547182204
0.4593359615010903 0.22798019939700265 0.083077775184517935 0.026684524209513817 -0.12638742368830597 0.99162198205825614
0.45930062105609393 0.22790757228212535 0.083069470585348748 0.026696973880713269 -0.12636182917526234 0.99162490878007614
0.45933575530586229 0.22797994803153518 0.083077257758147866 -0.031615773359071203 0.11621507875642782 -0.99272075547182215
0.45930062964515944 0.22790757738169248 0.083069471003943088 0.026696973880711315 -0.1263618291752662 0.9916249087800757
0.45930062860537518 0.22790756877457502 0.08306946993513975 0.026696973880713234 -0.12636182917526231 0.99162490878007614
0.45933579988827911 0.22797995874334093 0.083077257592306428 -0.031615773359071182 0.11621507875642784 -0.99272075547182215
0.45933609172396062 0.22798054961784942 0.083077317470088216 -0.031615773359070766 0.11621507875642878 -0.99272075547182204
0.45930062730401966 0.22790756513305108 0.083069469506139457 0.026696973880714115 -0.12636182917526045 0.99162490878007636
0.45930072279818068 0.22790747275072701 0.083069888986243207 -0.031615859589235948 0.1162148959684971 -0.99272077412405613
0.45933612987780076 0.22798061115632504 0.083077323459119473 -0.031615773359070717 0.11621507875642899 -0.99272075547182204
0.45916002241655934 0.22761651319441126 0.083040308220610648 -0.031615895296299039 0.11621482033178908 -0.99272078184143175
0.45930063507127544 0.22790751460342401 0.083069896679714067 -0.031615859589235927 0.11621489596849702 -0.99272077412405613
0.45933593206051604 0.22798021266065613 0.083077283108337147 -0.031615773359071009 0.11621507875642832 -0.99272075547182204
0.45930061626847002 0.22790757041124343 0.083069470475838597 0.026696973880714125 -0.12636182917526054 0.99162490878007636
0.45930062923991866 0.22790752143317874 0.083069897664968542 -0.031615859589235934 0.11621489596849717 -0.99272077412405602
0.45924559445937968 0.22779483621216831 0.083058458682505901 -0.03161589529600814 0.1162148203324057 -0.9927207818413688
0.45933608662301373 0.2279805481702897 0.083077317463079309 -0.031615773359070766 0.11621507875642889 -0.99272075547182204
0.45930064707980672 0.22790757535156994 0.083069470275863033 0.026696973880709993 -0.12636182917526897 0.99162490878007536
0.45835819070923145 0.22598622024046894 0.082874991434922676 -0.031615927702670847 0.11621475171129868 -0.99272078884255299
0.45930064175398078 0.22790752830849079 0.083069898071297138 -0.031615859589235927 0.11621489596849707 -0.99272077412405613
0.45933573563172819 0.22797980483630875 0.083077241621251907 -0.031615773359071335 0.11621507875642778 -0.99272075547182215
0.45933608621077121 0.22798045565747052 0.083077804490324356 0.026684524209432944 -0.12638742368847231 0.99162198205823715
0.45930063935981297 0.2279075179230079 0.083069896931747961 -0.031615859589235934 0.11621489596849714 -0.99272077412405602
0.45931714970862736 0.22794150085490089 0.083073348810626182 0.40738040280127269 0.89142265044364899 -0.19851162608142828
0.45933582011843732 0.2279799651923716 0.083077257702994664 -0.031615773359071203 0.11621507875642802 -0.99272075547182215
0.45933606948399608 0.22798052015873735 0.083077314729680773 -0.031615773359070787 0.11621507875642872 -0.99272075547182204
0.45933580337853303 0.22797995649812841 0.083077257218309386 -0.03161577335907121 0.11621507875642789 -0.99272075547182215
0.45935302856544408 0.22801633348492362 0.083080967190886854 -0.031615773359044884 0.11621507875648376 -0.99272075547181637
0.45933611564680804 0.2279806231514446 0.083077325316577966 -0.031615773359070738 0.11621507875642902 -0.99272075547182204
0.45933714463859215 0.22798271111262236 0.083077536977511343 -0.031615773359069219 0.11621507875643217 -0.9927207554718217
0.45933594943282119 0.22798027946155383 0.083077290375267634 -0.031615773359070939 0.11621507875642836 -0.99272075547182204
0.4593006159995095 0.22790758593191582 0.083069472460864352 0.026696973880710854 -0.12636182917526703 0.99162490878007559
0.45930278037501304 0.22791173613614329 0.083070322559150728 -0.031615859589231389 0.1162148959685068 -0.99272077412405513
0.45930063284437883 0.22790756311084825 0.083069469099292012 0.026696973880713994 -0.12636182917526079 0.99162490878007625
0.45930063544166633 0.22790759074802613 0.083069472551146231 0.026696973880707915 -0.12636182917527317 0.99162490878007492
0.4593006248396021 0.22790758112063969 0.083069471609771003 0.026696973880710993 -0.12636182917526678 0.9916249087800757
0.45930063440089713 0.22790751877791221 0.083069897189759087 -0.031615859589235955 0.11621489596849713 -0.99272077412405613
0.4593362746824412 0.22798103127757494 0.083077368029874338 -0.031615773359070426 0.11621507875642952 -0.99272075547182193
0.45931714750303132 0.22794150127772383 0.083073348435567365 0.35891771433051467 0.62667345814715081 0.69170691133864659
0.45930064065130588 0.22790757237770795 0.0830694700699776 0.026696973880711263 -0.12636182917526634 0.9916249087800757
