0.523477 0.227738 0.14166
0.539192 0.232162 0.142694
0.542373 0.230285 0.142905
0.549146 0.231065 0.143162
0.557882 0.231068 0.142384
0.563933 0.230208 0.141564
0.568809 0.229414 0.141359
0.576183 0.227592 0.140535
0.582035 0.228206 0.139388
0.394692 0.235964 0.141424
0.399356 0.23722 0.145532
0.40296 0.236021 0.145903
0.409612 0.236074 0.146174
0.414028 0.235536 0.14525
0.425631 0.233851 0.143648
0.426702 0.234637 0.143773
0.437641 0.235493 0.142293
0.44207 0.237656 0.142631
0.461868 0.23469 0.14246
0.464397 0.235957 0.142864
0.471925 0.238037 0.142973
0.481671 0.236187 0.142115
0.485015 0.23607 0.142086
0.495223 0.239542 0.144121
0.501596 0.237094 0.143625
0.506901 0.236081 0.143352
0.515479 0.236063 0.142149
0.518643 0.237939 0.142225
0.542252 0.235612 0.143031
0.550323 0.232718 0.143273
0.556623 0.233899 0.14307
0.563245 0.234214 0.142502
0.567403 0.234031 0.142029
0.582757 0.235547 0.140027
0.586137 0.235887 0.139152
0.399516 0.243185 0.146083
0.402549 0.241552 0.146883
0.409435 0.241222 0.147998
0.416624 0.244254 0.148445
0.421397 0.243675 0.146901
0.442107 0.245893 0.14443
0.467705 0.242383 0.143922
0.471216 0.242955 0.143848
0.4952 0.243482 0.145137
0.499111 0.243984 0.145601
0.507605 0.244781 0.145617
0.514497 0.245541 0.144934
0.519644 0.244193 0.143954
0.543977 0.244048 0.144765
0.54696 0.245042 0.145274
0.578084 0.243352 0.141789
0.582911 0.241761 0.140838
0.585503 0.240821 0.140053
0.39861 0.248751 0.146525
0.402007 0.249055 0.148123
0.409508 0.250261 0.151196
0.416624 0.248741 0.152287
0.420812 0.249396 0.151856
0.528486 0.27618 0.346439
0.44051 0.247589 0.144896
0.44176 0.247639 0.144328
0.453531 0.252397 0.146449
0.455966 0.251262 0.146245
0.466784 0.250549 0.145516
0.472008 0.250161 0.145729
0.47939 0.250482 0.146965
0.489484 0.249832 0.14811
0.493239 0.249177 0.147991
0.499813 0.247251 0.147575
0.508565 0.24956 0.148135
0.51359 0.249856 0.147837
0.519994 0.248824 0.145441
0.533413 0.250304 0.147209
0.543441 0.251274 0.148031
0.547145 0.249201 0.147165
0.553662 0.254706 0.145398
0.57109 0.251931 0.143022
0.573943 0.251818 0.142669
0.582943 0.248949 0.140939
0.585036 0.245088 0.140134
0.515201 0.273539 0.348665
0.509125 0.272846 0.349862
0.402526 0.255265 0.148046
0.409983 0.256063 0.15213
0.415837 0.253865 0.154817
0.423137 0.253128 0.15578
0.430106 0.252945 0.155101
0.503791 0.271794 0.350685
0.439666 0.271895 0.350794
0.451922 0.255269 0.150708
0.435283 0.275137 0.348114
0.465702 0.254803 0.150323
0.472139 0.254673 0.150593
0.432646 0.277386 0.345207
0.430536 0.280625 0.342478
0.493402 0.252281 0.151923
0.500506 0.252079 0.152766
0.507969 0.252645 0.152622
0.513988 0.271303 0.345831
0.507313 0.270222 0.346443
0.500682 0.268518 0.346676
0.536894 0.254621 0.153411
0.543583 0.256045 0.152238
0.548872 0.25544 0.149656
0.555265 0.257602 0.146659
0.559877 0.258249 0.1453
0.570582 0.253181 0.143122
0.576241 0.254625 0.142583
0.580567 0.256034 0.141818
0.493861 0.267463 0.347017
0.486826 0.266705 0.347986
0.403515 0.263049 0.148645
0.408093 0.261211 0.149951
0.414189 0.262147 0.154657
0.423241 0.257989 0.155759
0.479629 0.265427 0.347994
0.473028 0.264585 0.348357
0.467905 0.264039 0.349509
0.448282 0.265395 0.349329
0.546025 0.257927 0.152523
0.550051 0.261694 0.151579
0.555694 0.26183 0.1483
0.561776 0.263543 0.14591
0.566089 0.263714 0.144664
0.576138 0.261771 0.142683
0.579413 0.261982 0.142155
0.396926 0.269612 0.147841
0.404119 0.269359 0.147719
0.410479 0.269757 0.149832
0.414435 0.26921 0.152662
0.550193 0.268484 0.15479
0.551977 0.268354 0.152208
0.555071 0.268753 0.150442
0.563093 0.270987 0.146402
0.566947 0.268593 0.144797
0.576543 0.270813 0.142571
0.579984 0.268154 0.142041
0.443002 0.267079 0.347786
0.396368 0.276685 0.148557
0.403306 0.276268 0.147734
0.412249 0.27564 0.150024
0.414341 0.274539 0.152701
0.416127 0.277682 0.153983
0.551122 0.272028 0.155157
0.551695 0.275583 0.152888
0.555636 0.276454 0.149202
0.56273 0.273292 0.146666
0.57002 0.277488 0.144439
0.57528 0.275906 0.142856
0.581337 0.277326 0.140866
0.437868 0.270321 0.345926
0.434473 0.273387 0.344244
0.407524 0.283214 0.146748
0.409895 0.283834 0.147278
0.416076 0.284655 0.151319
0.416933 0.28398 0.152538
0.510883 0.26928 0.34293
0.554376 0.283675 0.148686
0.505822 0.268435 0.344024
0.570803 0.283009 0.144538
0.574941 0.285571 0.143484
0.580038 0.284918 0.141406
0.499686 0.267637 0.344794
0.406855 0.290118 0.146031
0.411358 0.290377 0.146593
0.416462 0.291699 0.149094
0.41855 0.291027 0.152427
0.549944 0.291366 0.152012
0.550706 0.290403 0.1514
0.554817 0.290939 0.147982
0.561807 0.291946 0.146326
0.571906 0.291849 0.144615
0.575342 0.290477 0.143459
0.578917 0.288151 0.142357
0.492085 0.266247 0.344884
0.486103 0.265286 0.345156
0.47949 0.264503 0.345602
0.409624 0.298233 0.148326
0.417399 0.296707 0.149361
0.418756 0.29766 0.152511
0.55005 0.299071 0.151581
0.55122 0.297746 0.151046
0.555624 0.29727 0.147826
0.562482 0.298541 0.146696
0.570245 0.29694 0.145596
0.575528 0.295401 0.143963
0.580565 0.299039 0.143573
0.472238 0.263526 0.345819
0.441309 0.266581 0.344259
0.477766 0.264711 0.346513
0.40854 0.302295 0.148319
0.418523 0.304793 0.151603
0.419966 0.304286 0.15285
0.549532 0.304577 0.153972
0.551475 0.304535 0.151787
0.556095 0.304644 0.14812
0.563179 0.304247 0.147335
0.569513 0.305664 0.146379
0.576161 0.305571 0.144891
0.581088 0.304733 0.144218
0.410717 0.308294 0.149554
0.418253 0.310737 0.151019
0.419426 0.310166 0.15357
0.549629 0.311112 0.154598
0.551512 0.311608 0.152174
0.554618 0.310203 0.148814
0.564992 0.311038 0.147299
0.569045 0.312277 0.146564
0.576408 0.311752 0.145139
0.580212 0.311833 0.145006
0.585776 0.311298 0.141502
0.58634 0.311196 0.140567
0.471709 0.262284 0.342223
0.418375 0.316605 0.152435
0.420255 0.317897 0.154388
0.549527 0.319806 0.153681
0.551213 0.318464 0.151495
0.554771 0.319517 0.148709
0.551236 0.338712 0.3423
0.569819 0.318472 0.146583
0.576472 0.318939 0.14577
0.580486 0.319086 0.14554
0.540507 0.342978 0.341656
0.536903 0.34273 0.339322
0.420044 0.326024 0.15708
0.421033 0.321761 0.156445
0.549018 0.3253 0.153265
0.550355 0.325367 0.150749
0.556524 0.326152 0.147783
0.563811 0.325977 0.147505
0.570006 0.32554 0.146456
0.577092 0.325093 0.14662
0.581447 0.325661 0.146035
0.416732 0.328637 0.156094
0.52815 0.341199 0.338061
0.548319 0.332289 0.152059
0.549506 0.33236 0.15061
0.556648 0.332466 0.147389
0.562416 0.332951 0.147507
0.570563 0.332759 0.147804
0.577819 0.332592 0.147376
0.581547 0.333003 0.146959
0.524415 0.340698 0.336394
0.54725 0.340629 0.152164
0.54936 0.339532 0.15076
0.556993 0.339117 0.148083
0.488607 0.340421 0.335593
0.5705 0.339934 0.147986
0.577619 0.339699 0.148364
0.582257 0.339473 0.147156
0.586046 0.34238 0.144431
0.47868 0.341903 0.337271
0.553196 0.336573 0.34081
0.54934 0.338876 0.339234
0.543205 0.342174 0.339241
0.53524 0.342378 0.339641
0.570978 0.346255 0.14889
0.577145 0.346644 0.14886
0.582692 0.346663 0.14783
0.585795 0.344363 0.145253
0.528474 0.341056 0.339876
0.521743 0.33914 0.339313
0.549396 0.353568 0.149615
0.493372 0.337845 0.338586
0.486898 0.338968 0.339486
0.570244 0.353177 0.149002
0.577494 0.353591 0.149237
0.581727 0.353776 0.148589
0.585845 0.354204 0.144514
0.479145 0.340349 0.339865
0.545796 0.362712 0.151858
0.545948 0.360545 0.152797
0.54914 0.360484 0.149266
0.556414 0.360074 0.148717
0.472517 0.340388 0.340299
0.570328 0.360912 0.148807
0.576777 0.360553 0.149013
0.582936 0.360262 0.147752
0.586021 0.358765 0.146005
0.557132 0.3327 0.339345
0.545998 0.366504 0.152914
0.546694 0.367836 0.152783
0.549338 0.367617 0.149788
0.551785 0.335924 0.337139
0.544444 0.341076 0.336127
0.526054 0.339305 0.343732
0.576773 0.367619 0.148941
0.582928 0.367295 0.147788
0.586625 0.369804 0.144977
0.587117 0.371098 0.143261
0.521228 0.337805 0.343299
0.500332 0.335908 0.340498
0.547437 0.373691 0.153116
0.494276 0.336336 0.341066
0.487254 0.337422 0.341883
0.47937 0.337897 0.343415
0.475475 0.338132 0.343783
0.576593 0.374879 0.149491
0.582959 0.375275 0.148465
0.58624 0.374888 0.145454
0.587793 0.375158 0.143135
0.457342 0.335388 0.341669
0.562219 0.324771 0.339506
0.560699 0.327556 0.33844
0.448769 0.329513 0.342815
0.439637 0.323838 0.338368
0.56353 0.318806 0.339155
0.563119 0.318135 0.336886
0.440208 0.322577 0.34251
0.577043 0.381305 0.149148
0.582248 0.381538 0.147572
0.586963 0.382082 0.14438
0.588343 0.382665 0.143317
0.436255 0.319489 0.340165
0.548494 0.389741 0.159528
0.551448 0.388248 0.156606
0.433005 0.316402 0.338922
0.563726 0.311692 0.339342
0.563391 0.310678 0.337277
0.57745 0.388697 0.148892
0.582499 0.388619 0.147083
0.587343 0.38899 0.143829
0.588889 0.388344 0.14248
0.547679 0.39553 0.158946
0.551353 0.394958 0.155849
0.557394 0.395157 0.153203
0.564156 0.396043 0.151895
0.570719 0.395402 0.151132
0.57777 0.395662 0.149087
0.582982 0.395824 0.146121
0.586701 0.395068 0.143885
0.402237 0.404513 0.158466
0.416718 0.406335 0.163464
0.422856 0.406658 0.165098
0.428987 0.408789 0.165448
0.433107 0.31486 0.341684
0.430507 0.311975 0.339753
0.428474 0.30754 0.339206
0.428103 0.304936 0.340316
0.427364 0.304627 0.338238
0.427015 0.29765 0.339984
0.426673 0.297397 0.338612
0.547248 0.285323 0.341613
0.427471 0.290708 0.339827
0.427152 0.290764 0.338413
0.515194 0.408497 0.163642
0.523121 0.409455 0.16432
0.532137 0.4091 0.16485
0.537119 0.408113 0.163493
0.547026 0.404152 0.158738
0.551011 0.402728 0.156623
0.557067 0.402659 0.153432
0.564686 0.401868 0.151926
0.570394 0.402566 0.15113
0.577261 0.403073 0.14922
0.583147 0.403027 0.146039
0.587429 0.403486 0.143593
0.590702 0.404208 0.142112
0.402711 0.408428 0.159551
0.406753 0.412486 0.160771
0.413415 0.4121 0.161376
0.551457 0.288427 0.337966
0.548646 0.285864 0.339308
0.54376 0.281911 0.339689
0.523257 0.410642 0.163806
0.530103 0.409978 0.164508
0.538894 0.414013 0.159345
0.545565 0.411502 0.157366
0.538615 0.278716 0.340168
0.428864 0.283063 0.340033
0.563941 0.409529 0.151381
0.570498 0.409946 0.150649
0.577355 0.409289 0.149145
0.583723 0.409495 0.147113
0.588999 0.409341 0.144093
0.592804 0.410438 0.14236
0.59563 0.413609 0.138636
0.4052 0.418575 0.16067
0.408805 0.417868 0.160086
0.413981 0.418298 0.159549
0.428501 0.28362 0.338903
0.539392 0.278921 0.338969
0.53528 0.276796 0.339455
0.529323 0.274044 0.340066
0.432722 0.273023 0.34077
0.430673 0.276265 0.339566
0.570322 0.415531 0.150143
0.577561 0.415731 0.14932
0.584018 0.416085 0.147841
0.589533 0.415723 0.145244
0.592817 0.41606 0.143001
0.595249 0.41544 0.139441
0.40308 0.429438 0.159266
0.404269 0.425193 0.15912
0.411178 0.426902 0.157172
0.417174 0.424436 0.158505
0.422724 0.428156 0.158326
0.427457 0.428861 0.15892
0.428867 0.279422 0.337652
0.537134 0.277168 0.337028
0.533881 0.275617 0.337879
0.507694 0.267695 0.339663
0.501108 0.265886 0.340075
0.494963 0.264787 0.340948
0.544271 0.423264 0.152275
0.548687 0.424936 0.150025
0.484984 0.264066 0.342777
0.47841 0.263338 0.343052
0.569734 0.421589 0.149367
0.576456 0.423633 0.149053
0.585464 0.421285 0.147422
0.588776 0.422369 0.145362
0.590906 0.423139 0.144398
0.402324 0.431179 0.15886
0.403173 0.433165 0.152954
0.42399 0.430687 0.157888
0.42794 0.431293 0.158389
0.473501 0.262827 0.343615
0.436692 0.268079 0.339889
0.43271 0.271683 0.338865
0.510917 0.268684 0.338915
0.506179 0.267126 0.338346
0.499761 0.265233 0.338637
0.493116 0.263841 0.339339
0.479877 0.261984 0.339779
0.47241 0.261508 0.339792
0.470207 0.261998 0.341527
0.514356 0.430692 0.151754
0.521778 0.431043 0.151763
0.528256 0.431005 0.151241
0.534321 0.342746 0.332036
0.541239 0.428314 0.150346
0.548674 0.428273 0.147979
0.528842 0.342648 0.332345
0.52247 0.341847 0.332019
0.57062 0.429123 0.145595
0.576254 0.428681 0.145847
0.582483 0.427832 0.145176
0.586803 0.426555 0.144159
0.589516 0.425202 0.143773
0.485124 0.34413 0.330726
0.460939 0.342351 0.329879
0.552103 0.334895 0.335611
0.53573 0.3429 0.332703
0.527332 0.342184 0.334124
0.521024 0.341688 0.332816
0.487437 0.342041 0.333823
0.479978 0.342855 0.335536
0.471361 0.433398 0.148686
0.558154 0.327908 0.330352
0.555299 0.331545 0.332602
0.551859 0.33453 0.331767
0.545219 0.340491 0.334618
0.489579 0.339598 0.337307
0.515519 0.43362 0.150343
0.519874 0.435475 0.15095
0.560815 0.324219 0.332636
0.558869 0.327666 0.333245
0.562322 0.31755 0.332167
0.562417 0.318658 0.332598
0.562602 0.319613 0.33458
0.561945 0.430486 0.144427
0.569231 0.430777 0.144075
0.576916 0.430636 0.14403
0.581093 0.430001 0.144168
0.585846 0.427862 0.14331
0.588174 0.426634 0.144385
0.56284 0.313016 0.331995
0.562736 0.31234 0.33233
0.562729 0.309852 0.332871
0.429064 0.312473 0.332727
0.427021 0.306623 0.332873
0.427029 0.306656 0.331574
0.56131 0.304188 0.332216
0.561333 0.304 0.332565
0.426756 0.305342 0.332953
0.426458 0.303483 0.332079
0.4261 0.302661 0.329469
0.559166 0.298964 0.332491
0.557784 0.296761 0.332734
0.425884 0.297804 0.33322
0.425777 0.297363 0.331678
0.556914 0.295612 0.332514
0.554472 0.291935 0.332135
0.402424 0.239721 0.145588
0.542952 0.240935 0.143438
0.54458 0.243203 0.143862
0.555173 0.24049 0.142874
0.402242 0.241624 0.145859
0.420787 0.246378 0.148255
0.49616 0.248056 0.147335
0.497828 0.247901 0.147597
0.507812 0.248829 0.147588
0.543162 0.244915 0.144394
0.544549 0.243972 0.144021
0.41935 0.254178 0.154523
0.422982 0.253772 0.154688
0.416776 0.257729 0.152449
0.418131 0.255858 0.156309
0.423485 0.254443 0.157313
0.429905 0.253196 0.158528
0.551382 0.287821 0.333249
0.548191 0.284026 0.332257
0.425666 0.290866 0.333801
0.425689 0.290544 0.332244
0.551691 0.287922 0.329392
0.549023 0.284864 0.331942
0.544626 0.281162 0.332638
0.539736 0.278081 0.33529
0.426695 0.283086 0.333731
0.426104 0.284193 0.331687
0.540582 0.278103 0.331854
0.535813 0.275623 0.332432
0.530024 0.273092 0.332932
0.524548 0.271278 0.329484
0.428634 0.275677 0.33288
0.542196 0.258044 0.156916
0.544828 0.26021 0.156119
0.551698 0.258975 0.148006
0.410943 0.262835 0.148501
0.413463 0.261798 0.150278
0.418217 0.26355 0.157093
0.427887 0.277376 0.332446
0.538112 0.27671 0.3319
0.533792 0.274578 0.332141
0.544558 0.259843 0.157253
0.547184 0.263186 0.156396
0.550793 0.264519 0.151707
0.561382 0.2645 0.145546
0.573914 0.261805 0.142785
0.400794 0.269833 0.147392
0.405539 0.271259 0.14779
0.417436 0.268699 0.156982
0.549075 0.270715 0.160853
0.549254 0.269089 0.157529
0.550469 0.270101 0.15526
0.407186 0.275597 0.147532
0.413477 0.27674 0.150555
0.416631 0.275261 0.155687
0.549638 0.273811 0.159785
0.549208 0.276921 0.15805
0.410359 0.28138 0.147979
0.411889 0.28258 0.148415
0.527621 0.272111 0.332383
0.508216 0.266384 0.332782
0.50181 0.264073 0.333803
0.507059 0.26593 0.332268
0.500313 0.262968 0.332312
0.548534 0.300275 0.156077
0.548604 0.297354 0.154818
0.549645 0.300777 0.154324
0.45086 0.259704 0.332808
0.491059 0.259062 0.32938
0.420335 0.306906 0.154049
0.486134 0.258695 0.330015
0.548678 0.304181 0.157659
0.548942 0.304946 0.156893
0.549392 0.304813 0.155608
0.41963 0.312402 0.155647
0.418638 0.31162 0.158504
0.548838 0.311601 0.159487
0.548903 0.31144 0.157421
0.549367 0.308991 0.156783
0.574739 0.309011 0.144792
0.458456 0.258723 0.332064
0.419455 0.318013 0.156144
0.419406 0.318822 0.158839
0.548727 0.315215 0.161646
0.54871 0.31829 0.15725
0.453115 0.258976 0.331758
0.419034 0.323933 0.155667
0.420877 0.325999 0.157127
0.446986 0.260763 0.331517
0.468961 0.347515 0.322585
0.537295 0.342032 0.328093
0.533867 0.343321 0.325613
0.528705 0.34371 0.325707
0.547133 0.332172 0.156714
0.578575 0.33587 0.147005
0.579415 0.336257 0.146664
0.521657 0.343074 0.325416
0.54668 0.339133 0.15799
0.546396 0.339434 0.156997
0.579989 0.337652 0.146945
0.515374 0.341541 0.32474
0.579223 0.350103 0.148692
0.509357 0.340578 0.323289
0.479633 0.347357 0.32609
0.472114 0.347357 0.326068
0.465662 0.345654 0.325583
0.578699 0.353594 0.148679
0.579851 0.355238 0.148671
0.459929 0.343035 0.324946
0.456016 0.340895 0.323486
0.545572 0.360194 0.156196
0.546116 0.362051 0.152853
0.578219 0.36283 0.148685
0.581156 0.361333 0.147554
0.536502 0.342895 0.325937
0.405984 0.366892 0.160923
0.408262 0.369993 0.163982
0.545626 0.367521 0.156384
0.546216 0.368574 0.156475
0.577579 0.364947 0.148638
0.580319 0.364928 0.148012
0.402803 0.376331 0.156102
0.405883 0.374542 0.161371
0.40847 0.371637 0.164343
0.525744 0.343627 0.327007
0.546351 0.373834 0.156843
0.521046 0.343046 0.325965
0.514264 0.341288 0.325916
0.463558 0.34474 0.326004
0.457413 0.341474 0.325965
0.576282 0.383039 0.148542
0.579217 0.382468 0.148127
0.4526 0.3385 0.325441
0.546277 0.389362 0.160324
0.547388 0.389078 0.158538
0.448303 0.335414 0.323391
0.576248 0.38671 0.148677
0.557136 0.327984 0.326745
0.408486 0.398183 0.163054
0.411947 0.399248 0.16418
0.545388 0.396434 0.161543
0.548702 0.395754 0.157838
0.554057 0.398182 0.154015
0.561147 0.396672 0.151564
0.402453 0.405154 0.158838
0.409119 0.403773 0.162381
0.415118 0.40399 0.163856
0.422092 0.405525 0.165578
0.428664 0.407932 0.166445
0.435882 0.406808 0.166928
0.555551 0.329938 0.32589
0.505622 0.340755 0.323733
0.449241 0.335899 0.325772
0.440952 0.328388 0.32518
0.559442 0.324755 0.326596
0.55796 0.32623 0.324499
0.555144 0.330693 0.325749
0.438276 0.325103 0.325324
0.56216 0.317034 0.329653
0.561494 0.318353 0.326518
0.522882 0.408781 0.16574
0.53062 0.408679 0.165237
0.537237 0.407836 0.163997
0.54578 0.402941 0.160141
0.549414 0.401983 0.15723
0.553486 0.401846 0.154446
0.563007 0.401368 0.151608
0.56804 0.404986 0.15104
0.573588 0.405796 0.150381
0.402286 0.410681 0.159771
0.409352 0.410483 0.161507
0.413177 0.410812 0.161601
0.561029 0.318803 0.323241
0.562323 0.31317 0.328401
0.562044 0.312035 0.325792
0.561956 0.310885 0.324636
0.522911 0.409962 0.165
0.538865 0.410982 0.159809
0.543189 0.409801 0.159222
0.548018 0.409025 0.157099
0.564864 0.40916 0.151185
0.569166 0.408234 0.150779
0.575037 0.409776 0.14986
0.580143 0.412768 0.148644
0.401681 0.416378 0.159362
0.411246 0.414698 0.160546
0.413485 0.414847 0.160432
0.560758 0.303889 0.326117
0.538193 0.418319 0.156733
0.5416 0.418491 0.1556
0.560882 0.304518 0.324521
0.571395 0.414958 0.149726
0.577094 0.416198 0.148783
0.579965 0.417811 0.148476
0.397573 0.42693 0.160855
0.402338 0.425183 0.1594
0.419423 0.423345 0.158933
0.423951 0.425881 0.159029
0.429704 0.426777 0.159576
0.4341 0.426432 0.159463
0.426594 0.306067 0.326083
0.425982 0.30246 0.325517
0.425861 0.300394 0.326864
0.558979 0.299216 0.326811
0.557889 0.297347 0.325182
0.425203 0.297838 0.327811
0.425291 0.297166 0.325994
0.425628 0.298671 0.326138
0.55699 0.295759 0.327641
0.554219 0.291695 0.325906
0.541824 0.421541 0.153793
0.578866 0.421329 0.148597
0.580464 0.421006 0.148431
0.398803 0.430939 0.158052
0.400376 0.43225 0.154938
0.413274 0.429904 0.156089
0.417896 0.430057 0.156504
0.423899 0.430469 0.157365
0.430483 0.429796 0.158429
0.436084 0.430905 0.157288
0.551734 0.287961 0.325907
0.424477 0.29 0.326043
0.424692 0.290533 0.325619
0.425409 0.282069 0.325686
0.425174 0.284172 0.325236
0.541059 0.278071 0.325721
0.535903 0.275427 0.325664
0.529669 0.273143 0.325277
0.523887 0.271693 0.324837
0.427836 0.275003 0.325691
0.426726 0.277779 0.324649
0.537912 0.276387 0.328065
0.534424 0.427199 0.151805
0.539048 0.425686 0.151995
0.578279 0.425777 0.148384
0.532696 0.274118 0.326055
0.400063 0.434029 0.152963
0.527977 0.272687 0.325625
0.52116 0.271089 0.325651
0.504026 0.263362 0.327889
0.431092 0.269594 0.32574
0.427275 0.276393 0.322337
0.427609 0.275545 0.321986
0.501129 0.26107 0.325962
0.494949 0.258891 0.327358
0.487293 0.257987 0.328587
0.457743 0.25747 0.327138
0.45029 0.258628 0.32612
0.41755 0.24608 0.153633
0.419013 0.245229 0.156933
0.417915 0.248297 0.155602
0.418831 0.248178 0.157698
0.424041 0.255475 0.162838
0.41968 0.258578 0.160372
0.419543 0.256595 0.162776
0.422659 0.25343 0.164654
0.444578 0.261054 0.325471
0.497359 0.257969 0.323698
0.492753 0.257059 0.324912
0.486279 0.255911 0.325168
0.479467 0.255673 0.325216
0.451793 0.258148 0.325149
0.445709 0.260544 0.324686
0.442522 0.262046 0.325706
0.491616 0.255383 0.322243
0.486519 0.254819 0.322783
0.481547 0.254902 0.323585
0.479587 0.349671 0.318016
0.473005 0.349276 0.318013
0.468817 0.348257 0.318227
0.538377 0.34133 0.318497
0.521204 0.343051 0.319361
0.542131 0.257836 0.164114
0.543211 0.260183 0.164232
0.417147 0.261858 0.165035
0.417024 0.256096 0.167316
0.514482 0.3413 0.318648
0.508782 0.340392 0.31853
0.479071 0.34954 0.319003
0.471881 0.349092 0.318779
0.544171 0.260894 0.164638
0.545522 0.263611 0.163357
0.548054 0.268408 0.158851
0.465542 0.346708 0.318426
0.548669 0.27071 0.165748
0.548374 0.269442 0.164387
0.548487 0.269846 0.16146
0.548624 0.275703 0.165138
0.548101 0.276912 0.164081
0.547415 0.284478 0.165117
0.547373 0.282936 0.16418
0.547214 0.289723 0.165477
0.459897 0.343347 0.318389
0.456099 0.341126 0.318767
0.548547 0.306293 0.164923
0.548097 0.305403 0.164652
0.548173 0.30618 0.159831
0.542626 0.339298 0.318432
0.537506 0.341843 0.317718
0.548755 0.310375 0.164541
0.548324 0.311551 0.163836
0.548147 0.310872 0.163115
0.521296 0.342915 0.318146
0.513249 0.341429 0.319869
0.419976 0.321259 0.157472
0.41803 0.321023 0.162695
0.548205 0.318438 0.16431
0.506782 0.340518 0.318405
0.462193 0.344874 0.318811
0.457039 0.341645 0.318684
0.452794 0.338981 0.318542
0.448294 0.335298 0.318371
0.553769 0.330188 0.319572
0.550517 0.333321 0.318236
0.41728 0.341589 0.166613
0.417859 0.338623 0.165634
0.546258 0.335581 0.315197
0.512245 0.340894 0.315682
0.510128 0.340666 0.315735
0.416537 0.344058 0.166656
0.416669 0.344667 0.167482
0.452877 0.338882 0.315775
0.449018 0.335985 0.318069
0.44447 0.332068 0.318702
0.440928 0.328743 0.318335
0.558443 0.323798 0.320443
0.556886 0.325672 0.318386
0.405344 0.369404 0.159755
0.407337 0.368807 0.161818
0.408047 0.369476 0.163534
0.409813 0.369758 0.166169
0.553761 0.328371 0.315021
0.440942 0.328729 0.318042
0.406875 0.37405 0.161198
0.408119 0.373479 0.163782
0.410144 0.372341 0.166504
0.438044 0.324672 0.31868
0.560165 0.318371 0.319401
0.407463 0.37949 0.162186
0.410692 0.383714 0.167988
0.559474 0.319251 0.317627
0.408241 0.390161 0.162057
0.410856 0.388207 0.16802
0.412356 0.390726 0.168463
0.544856 0.391462 0.164219
0.545222 0.388234 0.16377
0.40904 0.39518 0.161792
0.41258 0.392617 0.167499
0.412904 0.392521 0.16857
0.543435 0.395925 0.164713
0.544597 0.394046 0.162291
0.55848 0.394832 0.151652
0.408302 0.402107 0.159824
0.417085 0.402546 0.165774
0.432866 0.407366 0.168275
0.433645 0.407433 0.168268
0.560757 0.311128 0.319453
0.560213 0.311493 0.317481
0.560123 0.305277 0.319791
0.559047 0.30364 0.317589
0.425487 0.302776 0.317688
0.524282 0.41094 0.164899
0.529156 0.410297 0.165138
0.539376 0.406559 0.162334
0.544367 0.398242 0.161726
0.401518 0.410569 0.156515
0.405384 0.408888 0.159013
0.412191 0.407659 0.161923
0.417375 0.40938 0.162365
0.422487 0.409962 0.16204
0.430513 0.407241 0.166542
0.559004 0.300986 0.320552
0.556844 0.297387 0.318592
0.42424 0.297656 0.317855
0.424541 0.297302 0.318398
0.423436 0.290616 0.31964
0.423612 0.290184 0.318378
0.537408 0.278648 0.315542
0.424673 0.281169 0.318208
0.42417 0.284154 0.319334
0.51954 0.409912 0.165865
0.531067 0.409346 0.165925
0.536081 0.408579 0.161556
0.537027 0.40746 0.163261
0.399414 0.414991 0.158183
0.402789 0.414748 0.159767
0.413168 0.415125 0.160028
0.417874 0.414566 0.160599
0.421779 0.411533 0.161499
0.535718 0.276784 0.318448
0.53349 0.410012 0.1629
0.535031 0.409658 0.162281
0.398429 0.421654 0.159702
0.402617 0.421789 0.159373
0.407594 0.422901 0.158408
0.529355 0.274929 0.317772
0.523439 0.273629 0.31742
0.398775 0.427743 0.157394
0.403958 0.427134 0.156949
0.408352 0.427051 0.156947
0.416125 0.430208 0.156189
0.423965 0.430966 0.156779
0.431123 0.430483 0.157545
0.435562 0.427669 0.15835
0.578883 0.42637 0.148613
0.398624 0.430458 0.156448
0.403943 0.430577 0.155686
0.41148 0.431407 0.155017
0.416922 0.43146 0.155697
0.423638 0.432044 0.156375
0.429986 0.43224 0.156934
0.433747 0.431111 0.157285
0.428018 0.274928 0.318384
0.426258 0.278292 0.318546
0.423371 0.255634 0.171366
0.426158 0.278234 0.315855
0.532329 0.2746 0.32184
0.52702 0.273852 0.319721
0.520876 0.272638 0.319091
0.431313 0.27026 0.318988
0.418348 0.255549 0.170676
0.423187 0.254488 0.171473
0.427003 0.276817 0.320326
0.427235 0.275956 0.319858
0.506275 0.262413 0.317801
0.502715 0.259672 0.318955
0.497602 0.257183 0.322055
0.450221 0.258142 0.319662
0.444448 0.261077 0.31865
0.501958 0.258216 0.316643
0.499365 0.256488 0.31778
0.494048 0.254383 0.318802
0.486772 0.252935 0.31866
0.502248 0.258291 0.315002
0.496652 0.254836 0.317775
0.492515 0.253464 0.318134
0.486508 0.252567 0.318504
0.481634 0.252887 0.318639
0.541644 0.256858 0.171555
0.543474 0.259972 0.169903
0.479563 0.350132 0.311445
0.417153 0.256022 0.170746
0.543868 0.26075 0.171639
0.545578 0.263825 0.171288
0.547049 0.265645 0.170824
0.473093 0.349432 0.311686
0.548568 0.268967 0.169804
0.548143 0.268986 0.171421
0.468512 0.347877 0.311198
0.548549 0.275013 0.170567
0.548325 0.27714 0.171897
0.548036 0.27796 0.173675
0.519846 0.341076 0.313047
0.51442 0.34024 0.31313
0.54771 0.283882 0.172014
0.547733 0.283324 0.171601
0.547511 0.285441 0.173907
0.509101 0.340048 0.313951
0.479149 0.349985 0.311654
0.54723 0.290438 0.171976
0.547194 0.290258 0.171859
0.547333 0.287265 0.174523
0.547547 0.29732 0.173629
0.547329 0.297252 0.171328
0.547891 0.303178 0.172862
0.547969 0.304959 0.171564
0.547218 0.306083 0.171321
0.54858 0.312166 0.172159
0.548297 0.311079 0.171762
0.547735 0.311959 0.170564
0.548606 0.316237 0.170854
0.548015 0.318805 0.171567
0.547882 0.315803 0.171438
0.471703 0.349036 0.311615
0.465281 0.346543 0.311616
0.459605 0.342993 0.311601
0.456694 0.341006 0.311998
0.545727 0.335552 0.314365
0.541827 0.337571 0.31227
0.419374 0.339765 0.171263
0.522 0.340861 0.31154
0.506869 0.340017 0.311657
0.462271 0.344727 0.310957
0.417437 0.346424 0.17206
0.417458 0.345928 0.172012
0.457221 0.341328 0.311383
0.452996 0.338318 0.311693
0.448783 0.335138 0.312465
0.416216 0.352539 0.173458
0.416191 0.352246 0.173226
0.552537 0.329256 0.314435
0.543839 0.334675 0.310383
0.527763 0.33868 0.307239
0.51434 0.339732 0.308888
0.510627 0.339993 0.310865
0.453468 0.338539 0.310019
0.449433 0.335418 0.311194
0.445428 0.331901 0.311677
0.551587 0.327417 0.309997
0.546922 0.365679 0.171218
0.546901 0.365323 0.171337
0.55851 0.318655 0.31445
0.54733 0.377002 0.173485
0.557077 0.318479 0.311692
0.409256 0.382424 0.16442
0.411083 0.383677 0.168738
0.554434 0.318148 0.30779
0.557818 0.30994 0.312469
0.557508 0.311757 0.311354
0.410439 0.388367 0.165702
0.411035 0.387974 0.168468
0.412256 0.388674 0.170159
0.554693 0.310417 0.307633
0.427262 0.308449 0.308448
0.410737 0.395095 0.163619
0.413738 0.395415 0.167063
0.41359 0.393433 0.168723
0.558599 0.307542 0.314575
0.556292 0.303621 0.312015
0.553355 0.303181 0.308188
0.410612 0.401615 0.161758
0.414099 0.401497 0.165079
0.416947 0.402201 0.166867
0.432253 0.40692 0.173481
0.435335 0.408063 0.172817
0.426138 0.30617 0.311999
0.424823 0.303544 0.310431
0.42397 0.301908 0.308345
0.554432 0.298937 0.311956
0.552383 0.296167 0.310755
0.512928 0.410372 0.169281
0.523323 0.411434 0.170422
0.530418 0.411284 0.171692
0.53441 0.410892 0.172139
0.543112 0.398223 0.167714
0.40829 0.407736 0.160401
0.412325 0.406256 0.162005
0.418926 0.405975 0.164239
0.423621 0.408701 0.163517
0.430833 0.406095 0.170489
0.423163 0.298397 0.31205
0.422928 0.297027 0.310666
0.42255 0.296588 0.308967
0.422489 0.29278 0.313548
0.421964 0.290228 0.31121
0.421545 0.290828 0.309202
0.536719 0.281154 0.310636
0.530533 0.279786 0.308825
0.424272 0.281257 0.311696
0.423203 0.283455 0.310587
0.512393 0.408449 0.169515
0.529415 0.410924 0.170122
0.53518 0.408848 0.171239
0.538094 0.406138 0.169846
0.539468 0.404337 0.167876
0.400016 0.416945 0.159981
0.403987 0.414898 0.159609
0.421776 0.413329 0.160511
0.425493 0.410662 0.162048
0.422147 0.286669 0.309176
0.51358 0.40808 0.170322
0.52176 0.408658 0.172996
0.528936 0.409825 0.171836
0.533229 0.40874 0.170386
0.534256 0.409063 0.167479
0.413413 0.256385 0.175456
0.418134 0.257058 0.177156
0.423908 0.25534 0.178353
0.534517 0.279054 0.312535
0.527681 0.276906 0.312378
0.42834 0.274804 0.311297
0.42539 0.279325 0.313349
0.425348 0.279524 0.314422
0.524009 0.27476 0.315649
0.432554 0.271039 0.312138
0.503489 0.259577 0.312184
0.501781 0.257533 0.313349
0.500037 0.256278 0.311523
0.494181 0.253152 0.311456
0.48672 0.251458 0.311364
0.501916 0.257628 0.312852
0.538744 0.254289 0.181123
0.417374 0.25744 0.180526
0.418172 0.256844 0.176752
0.423079 0.2547 0.17855
0.498286 0.254914 0.312224
0.492743 0.252478 0.311556
0.487017 0.251312 0.311812
0.484807 0.346597 0.303409
0.479923 0.34778 0.303944
0.473735 0.347527 0.304418
0.468897 0.345994 0.304318
0.524385 0.336576 0.30409
0.520981 0.337998 0.306452
0.51615 0.338894 0.308869
0.48715 0.346895 0.304495
0.478399 0.349131 0.305877
0.47166 0.347766 0.304445
0.465614 0.345376 0.304776
0.460679 0.342273 0.30479
0.527177 0.33741 0.305187
0.541655 0.256564 0.178574
0.54391 0.260525 0.175834
0.417237 0.263584 0.180187
0.417396 0.257719 0.182021
0.544983 0.260421 0.178593
0.522559 0.337479 0.304306
0.51157 0.33816 0.30126
0.4726 0.347594 0.301769
0.549209 0.269158 0.177183
0.549144 0.268881 0.178159
0.463416 0.344319 0.304262
0.549558 0.275438 0.177405
0.549398 0.27667 0.178421
0.549092 0.277022 0.179491
0.457914 0.340557 0.304374
0.45343 0.337199 0.304773
0.547896 0.285964 0.176499
0.548304 0.284268 0.177457
0.548599 0.283067 0.17871
0.548094 0.283453 0.177715
0.527798 0.335813 0.302999
0.522363 0.336792 0.302498
0.547691 0.287933 0.176038
0.547531 0.291333 0.176792
0.547446 0.290525 0.178308
0.54739 0.287782 0.17654
0.515432 0.33809 0.303353
0.547397 0.29754 0.178287
0.547339 0.297425 0.178656
0.511408 0.338867 0.304972
0.547535 0.30417 0.17721
0.547327 0.304644 0.178515
0.547086 0.305235 0.176257
0.548189 0.311745 0.177795
0.548128 0.311512 0.178428
0.548116 0.310538 0.175627
0.54815 0.318516 0.179763
0.548118 0.318549 0.178199
0.454143 0.338016 0.303853
0.55277 0.322565 0.307849
0.553051 0.318599 0.306639
0.556161 0.310753 0.309899
0.55544 0.312049 0.308501
0.550884 0.310296 0.303271
0.429007 0.31186 0.304565
0.426059 0.308224 0.302759
0.418286 0.346908 0.177678
0.41826 0.346756 0.177589
0.547175 0.346268 0.179168
0.546975 0.346465 0.178369
0.417443 0.353061 0.178599
0.417792 0.353828 0.179791
0.552695 0.303165 0.307762
0.549977 0.304037 0.304156
0.425175 0.306221 0.306459
0.417595 0.359934 0.179935
0.547874 0.360102 0.177705
0.547825 0.359984 0.179038
0.424035 0.304496 0.304091
0.548131 0.366284 0.179334
0.548081 0.367599 0.178933
0.548054 0.369768 0.180799
0.548002 0.376597 0.178427
0.547929 0.374309 0.178379
0.548121 0.371318 0.180871
0.548134 0.378448 0.180079
0.547919 0.380479 0.179157
0.423367 0.302496 0.304322
0.552396 0.300664 0.308234
0.548654 0.298151 0.305409
0.422386 0.299979 0.3074
0.421375 0.297779 0.304894
0.421402 0.2968 0.30542
0.546964 0.293269 0.30712
0.420325 0.290195 0.304725
0.420638 0.290323 0.304501
0.420808 0.288608 0.303453
0.530844 0.412109 0.174859
0.539449 0.285418 0.307371
0.535658 0.2844 0.305765
0.424748 0.279882 0.303626
0.42268 0.282988 0.304658
0.421493 0.285967 0.304552
0.421004 0.28828 0.304816
0.539044 0.283024 0.309676
0.479086 0.407862 0.18102
0.532924 0.281382 0.307997
0.425277 0.279785 0.304281
0.4995 0.257216 0.305358
0.497257 0.254499 0.306582
0.536277 0.410147 0.178194
0.539742 0.407968 0.178183
0.494047 0.253343 0.306774
0.490343 0.346052 0.293414
0.484441 0.346743 0.299281
0.528328 0.411082 0.181352
0.535642 0.409859 0.177903
0.536869 0.409668 0.178004
0.539467 0.407988 0.179188
0.420415 0.256416 0.183452
0.424499 0.255058 0.183726
0.432346 0.252247 0.186586
0.479128 0.347011 0.297457
0.47418 0.345985 0.296931
0.451436 0.251426 0.185958
0.469502 0.345092 0.298855
0.5232 0.33533 0.301178
0.521512 0.335128 0.300042
0.479077 0.25211 0.186152
0.486395 0.252304 0.185698
0.493635 0.252271 0.18543
0.490643 0.345937 0.294182
0.485351 0.347417 0.298112
0.48207 0.348141 0.297229
0.471411 0.34643 0.297162
0.466031 0.344521 0.297383
0.535592 0.252643 0.186824
0.539356 0.253607 0.1869
0.419004 0.258453 0.183859
0.418526 0.257055 0.1844
0.423133 0.254664 0.185263
0.429578 0.252678 0.185136
0.46138 0.342201 0.298025
0.521277 0.335881 0.300402
0.451976 0.251295 0.185362
0.511813 0.337799 0.299966
0.494339 0.344374 0.297836
0.475688 0.252241 0.184137
0.479959 0.252173 0.185376
0.486664 0.252249 0.185371
0.493232 0.252221 0.185546
0.488216 0.346864 0.29758
0.479714 0.34798 0.296406
0.470875 0.346257 0.296647
0.464479 0.343759 0.29733
0.457972 0.340327 0.297428
0.535632 0.252727 0.184689
0.54214 0.255682 0.185671
0.545141 0.258974 0.187119
0.41669 0.262595 0.182904
0.417753 0.258817 0.186029
0.545966 0.259746 0.185847
0.453216 0.337379 0.297624
0.415926 0.264959 0.18283
0.415707 0.265815 0.185936
0.550016 0.26863 0.185675
0.55032 0.268528 0.188479
0.549927 0.278546 0.182941
0.55044 0.276752 0.185248
0.549848 0.278537 0.184262
0.55057 0.279049 0.188511
0.549641 0.28394 0.185432
0.549796 0.282392 0.185671
0.550189 0.280882 0.187471
0.55055 0.279603 0.188835
0.528102 0.332035 0.297968
0.549058 0.288347 0.185864
0.548585 0.290452 0.185673
0.522226 0.334444 0.297226
0.515251 0.336654 0.297123
0.511305 0.338029 0.295274
0.454771 0.338288 0.297066
0.547418 0.305155 0.184991
0.530524 0.327591 0.295173
0.548216 0.312976 0.18709
0.548008 0.311478 0.185319
0.548181 0.31811 0.186049
0.548098 0.31854 0.18523
0.548216 0.32209 0.188969
0.526019 0.330441 0.293652
0.429299 0.312953 0.297735
0.426212 0.309352 0.297435
0.424148 0.306447 0.296557
0.423182 0.304695 0.297635
0.422405 0.303646 0.29748
0.547419 0.345466 0.188102
0.547303 0.346521 0.185149
0.418807 0.354291 0.18479
0.418455 0.355132 0.18598
0.548407 0.356109 0.184702
0.54802 0.353697 0.185389
0.548069 0.35313 0.188274
0.418723 0.359989 0.186287
0.418302 0.360114 0.186085
0.548469 0.361638 0.185891
0.548329 0.359786 0.184697
0.419754 0.296992 0.298971
0.419703 0.297067 0.297439
0.548554 0.366786 0.18411
0.548557 0.368107 0.185326
0.54834 0.370245 0.182884
0.41888 0.290247 0.29742
0.419294 0.290342 0.299256
0.548665 0.376295 0.184751
0.548742 0.373049 0.185782
0.548401 0.371476 0.183332
0.548678 0.378972 0.184214
0.548576 0.381658 0.185435
0.426922 0.279487 0.297482
0.423022 0.283198 0.29768
0.420718 0.28632 0.297836
0.420241 0.286679 0.298943
0.426078 0.280181 0.298136
0.448698 0.266117 0.295045
0.457632 0.260565 0.296399
0.49053 0.346145 0.2927
0.46801 0.40698 0.184069
0.472008 0.407784 0.185189
0.478817 0.408549 0.185703
0.485485 0.408771 0.185993
0.492358 0.40936 0.186874
0.498631 0.410177 0.187905
0.525368 0.411918 0.18898
0.526758 0.412258 0.18838
0.489078 0.346751 0.293224
0.477295 0.346404 0.290919
0.474326 0.345748 0.291262
0.497269 0.343271 0.286957
0.492763 0.346345 0.289288
0.465645 0.406851 0.185474
0.472553 0.407718 0.18585
0.479778 0.408389 0.184929
0.486187 0.408559 0.185103
0.49305 0.409091 0.18582
0.486843 0.347972 0.290207
0.504499 0.410598 0.188826
0.479334 0.34782 0.289899
0.530518 0.412348 0.186579
0.534849 0.411303 0.185391
0.540715 0.408755 0.185149
0.472627 0.34568 0.290378
0.475842 0.408418 0.188866
0.480425 0.408591 0.18848
0.502712 0.410341 0.187729
0.507346 0.410636 0.188753
0.466522 0.343797 0.290154
0.461545 0.341965 0.29301
0.527972 0.41127 0.18556
0.534429 0.411311 0.185839
0.538186 0.410361 0.186316
0.517961 0.334848 0.287775
0.421484 0.256367 0.187432
0.426695 0.254355 0.191697
0.431721 0.252622 0.192175
0.513504 0.337004 0.28856
0.508815 0.339001 0.290854
0.494662 0.345574 0.291191
0.487578 0.347913 0.291211
0.477935 0.347614 0.290418
0.47155 0.345639 0.29009
0.479164 0.251329 0.192216
0.486234 0.251568 0.192326
0.464198 0.343069 0.290369
0.457995 0.341022 0.290729
0.45349 0.33698 0.291349
0.525428 0.328856 0.290462
0.520985 0.33326 0.290375
0.528161 0.251306 0.192302
0.535663 0.252409 0.192746
0.539887 0.253695 0.192143
0.5435 0.255321 0.195362
0.418522 0.260206 0.18952
0.420434 0.257763 0.190673
0.423477 0.255904 0.192157
0.427827 0.253046 0.190106
0.515976 0.336038 0.29117
0.510299 0.338422 0.291823
0.45551 0.339258 0.29075
0.449728 0.334944 0.29062
0.479512 0.251341 0.192206
0.486953 0.251715 0.191759
0.493597 0.251995 0.191459
0.445556 0.330554 0.290673
0.528158 0.325514 0.29161
0.525441 0.328794 0.289518
0.446082 0.331997 0.290543
0.528803 0.251352 0.192636
0.535839 0.252187 0.192485
0.542265 0.255156 0.192823
0.545048 0.258233 0.192944
0.418131 0.262066 0.192431
0.420123 0.259849 0.194738
0.546515 0.259512 0.191183
0.5488 0.262272 0.192485
0.418322 0.268092 0.195298
0.550083 0.268923 0.192544
0.550475 0.271653 0.193682
0.442416 0.327342 0.290522
0.418067 0.275648 0.195472
0.550975 0.278253 0.192508
0.550957 0.275433 0.191779
0.551155 0.276423 0.191919
0.550968 0.278238 0.190283
0.529262 0.320702 0.289214
0.527475 0.323564 0.28713
0.550337 0.283602 0.192816
0.550274 0.283807 0.191563
0.550386 0.282653 0.192633
0.55063 0.280343 0.190337
0.432243 0.316314 0.293235
0.549089 0.290987 0.193257
0.549378 0.289785 0.191461
0.429367 0.313263 0.290915
0.426726 0.309888 0.291124
0.548158 0.297459 0.192687
0.54785 0.297916 0.191624
0.424136 0.30638 0.292196
0.424682 0.307345 0.289311
0.547947 0.30397 0.192514
0.548016 0.304854 0.192825
0.423579 0.305531 0.290297
0.418758 0.29102 0.293458
0.548643 0.312291 0.192589
0.548379 0.31103 0.191427
0.429222 0.281601 0.289677
0.548283 0.31845 0.192772
0.548206 0.319547 0.192913
0.548101 0.321023 0.195006
0.548002 0.325254 0.194315
0.5479 0.325169 0.192795
0.424744 0.284143 0.29096
0.421414 0.286687 0.29212
0.420912 0.286316 0.294227
0.547327 0.33216 0.194107
0.427532 0.280884 0.293524
0.497284 0.265148 0.292055
0.458614 0.262993 0.290862
0.452596 0.26528 0.291969
0.448334 0.267576 0.293354
0.547596 0.346638 0.192737
0.54755 0.346384 0.193303
0.521579 0.39107 0.272372
0.494307 0.38979 0.275826
0.486513 0.390457 0.276514
0.548343 0.352488 0.193104
0.548372 0.35381 0.193221
0.548418 0.355681 0.192663
0.419702 0.360058 0.191264
0.419711 0.362501 0.192891
0.548878 0.36165 0.190852
0.548644 0.359612 0.193012
0.548647 0.357408 0.193611
0.419324 0.368471 0.191458
0.419527 0.367119 0.193233
0.549095 0.366504 0.193656
0.549081 0.368534 0.192671
0.549055 0.368078 0.193602
0.476884 0.391325 0.276605
0.471901 0.390554 0.277314
0.549215 0.37496 0.193802
0.549141 0.374301 0.191968
0.465071 0.390535 0.27673
0.458808 0.390599 0.2765
0.549148 0.379188 0.194336
0.548941 0.381452 0.193131
0.452117 0.390058 0.27653
0.446445 0.389986 0.275836
0.547415 0.391525 0.193904
0.548069 0.389019 0.192224
0.548245 0.387995 0.191856
0.441694 0.389487 0.275712
0.456773 0.407842 0.196277
0.546472 0.396939 0.194278
0.546809 0.393368 0.19337
0.438319 0.389283 0.274007
0.524631 0.38535 0.274979
0.520482 0.385649 0.274694
0.514248 0.385795 0.274764
0.452329 0.40746 0.19305
0.458096 0.407683 0.192669
0.466192 0.408305 0.193391
0.471444 0.408727 0.19223
0.479294 0.409338 0.191979
0.485984 0.409746 0.192899
0.493559 0.410134 0.192718
0.49812 0.410276 0.192132
0.504917 0.410776 0.190634
0.524687 0.411742 0.192512
0.530833 0.411506 0.194473
0.539493 0.408367 0.195694
0.54468 0.402465 0.195305
0.545847 0.399938 0.194309
0.425487 0.404193 0.194113
0.507332 0.384897 0.274879
0.500049 0.385196 0.275614
0.493151 0.386322 0.276932
0.486433 0.386999 0.277405
0.460799 0.407261 0.18975
0.466772 0.408154 0.192232
0.47226 0.408577 0.192103
0.478735 0.40933 0.193153
0.486333 0.40974 0.192664
0.492184 0.409731 0.191092
0.500319 0.410231 0.195363
0.509072 0.410419 0.193024
0.512386 0.410786 0.192593
0.525394 0.411614 0.193821
0.529875 0.411623 0.192606
0.535199 0.410599 0.19239
0.540353 0.408553 0.191671
0.542858 0.406694 0.191789
0.474684 0.408826 0.193186
0.480744 0.409169 0.192102
0.486127 0.409377 0.193527
0.494465 0.409874 0.194423
0.500592 0.410025 0.192396
0.50606 0.410467 0.191135
0.515077 0.410698 0.192613
0.521648 0.410852 0.192372
0.527504 0.411207 0.191444
0.535012 0.411049 0.19113
0.539384 0.409338 0.191198
0.483248 0.409152 0.19144
0.484077 0.409131 0.191719
0.441824 0.250765 0.20146
0.445209 0.250227 0.202407
0.428522 0.255956 0.19655
0.433025 0.253212 0.197716
0.438911 0.251554 0.199405
0.479315 0.387103 0.278438
0.471968 0.388407 0.277936
0.465917 0.386845 0.278135
0.458668 0.388073 0.277301
0.451887 0.38844 0.276701
0.446157 0.387426 0.276567
0.441515 0.386329 0.276204
0.439004 0.388456 0.274582
0.530327 0.379557 0.273687
0.526187 0.380849 0.274713
0.52048 0.381041 0.275529
0.512896 0.380028 0.275063
0.508979 0.382289 0.275279
0.535905 0.251513 0.199646
0.53963 0.25247 0.200243
0.543959 0.255182 0.197402
0.418659 0.261973 0.194367
0.421301 0.259779 0.195393
0.425925 0.257534 0.197518
0.431153 0.255845 0.201232
0.435268 0.254198 0.202745
0.498169 0.381594 0.276501
0.493822 0.380668 0.277505
0.488049 0.382419 0.278248
0.476714 0.380705 0.278662
0.472262 0.380412 0.278755
0.465726 0.380852 0.278913
0.458852 0.380926 0.277853
0.453304 0.380244 0.277778
0.440376 0.380792 0.27705
0.536319 0.251523 0.198918
0.543415 0.254467 0.199201
0.54519 0.257331 0.199294
0.41832 0.263552 0.194755
0.420274 0.264241 0.198324
0.424154 0.262779 0.200342
0.428107 0.26111 0.20301
0.431645 0.256846 0.20373
0.546677 0.259119 0.199188
0.548504 0.262286 0.199524
0.548946 0.266223 0.200885
0.418768 0.269105 0.197843
0.420097 0.268869 0.199155
0.422549 0.268185 0.201257
0.426895 0.268107 0.204836
0.549493 0.269452 0.199994
0.549742 0.27003 0.19813
0.421339 0.276522 0.20031
0.425878 0.275922 0.205029
0.5506 0.278602 0.19741
0.549977 0.27598 0.200988
0.550098 0.276839 0.199337
0.438783 0.379363 0.275823
0.421655 0.283488 0.200335
0.425872 0.280326 0.204631
0.549601 0.284875 0.199163
0.549665 0.282665 0.200055
0.549847 0.283012 0.197888
0.525451 0.375155 0.274627
0.520366 0.374425 0.275326
0.548876 0.29094 0.19874
0.548846 0.290084 0.200322
0.548205 0.293039 0.201627
0.515416 0.375899 0.275214
0.54823 0.296652 0.199645
0.548181 0.298 0.200149
0.547975 0.295465 0.201015
0.548469 0.30503 0.200152
0.548098 0.304001 0.199688
0.548261 0.307093 0.200684
0.548751 0.312056 0.199562
0.548569 0.310291 0.200628
0.548518 0.309682 0.200861
0.422323 0.316675 0.20306
0.548463 0.318374 0.199667
0.54817 0.320603 0.200164
0.548112 0.320787 0.197704
0.494065 0.376549 0.27694
0.54796 0.326204 0.199757
0.548 0.32416 0.199691
0.548019 0.323018 0.200198
0.477162 0.377072 0.277829
0.47119 0.375973 0.277888
0.547313 0.332293 0.200011
0.547254 0.332873 0.199514
0.466251 0.376448 0.277801
0.457284 0.376315 0.277197
0.45267 0.374564 0.27696
0.439909 0.374567 0.275617
0.438968 0.374722 0.275581
0.524333 0.369309 0.274932
0.547526 0.346388 0.199918
0.547463 0.346641 0.199408
0.521183 0.369287 0.274903
0.421049 0.356425 0.201816
0.547845 0.351478 0.199131
0.547942 0.353079 0.199342
0.420784 0.359958 0.199985
0.420406 0.360688 0.198757
0.548448 0.362709 0.199339
0.548304 0.360485 0.199226
0.420393 0.366672 0.198575
0.420482 0.368024 0.199024
0.548398 0.368301 0.199968
0.548483 0.367292 0.199337
0.420449 0.375594 0.20004
0.420443 0.374424 0.19977
0.54834 0.374354 0.199908
0.548498 0.374567 0.199066
0.548253 0.376499 0.199752
0.420617 0.38254 0.198773
0.420489 0.381141 0.200217
0.548229 0.381772 0.199509
0.548132 0.381349 0.199309
0.420905 0.385965 0.200024
0.420735 0.387807 0.200167
0.547002 0.390301 0.200925
0.547702 0.388252 0.198657
0.547516 0.390186 0.19606
0.456659 0.366465 0.275831
0.419994 0.393516 0.202188
0.4559 0.407987 0.197117
0.545727 0.396763 0.199368
0.545825 0.3946 0.199502
0.421146 0.400749 0.199291
0.425731 0.403907 0.199709
0.43022 0.405031 0.200193
0.454252 0.367292 0.275952
0.450999 0.407644 0.199643
0.459503 0.407896 0.199286
0.465653 0.408472 0.19848
0.470843 0.409007 0.197541
0.482291 0.409777 0.19654
0.48695 0.410011 0.198817
0.492657 0.409767 0.199996
0.500349 0.410089 0.197834
0.505358 0.409578 0.201031
0.516633 0.409899 0.202866
0.519561 0.409944 0.202916
0.532736 0.410405 0.198277
0.539372 0.407345 0.199569
0.542499 0.403607 0.199362
0.543929 0.399615 0.200497
0.42492 0.404033 0.199116
0.431327 0.405551 0.197004
0.440471 0.368499 0.275256
0.439866 0.368523 0.274688
0.453106 0.40721 0.2007
0.467252 0.408366 0.19824
0.473462 0.409026 0.199563
0.479634 0.409489 0.199869
0.484989 0.409636 0.200415
0.494176 0.409745 0.200191
0.500239 0.409778 0.200677
0.507767 0.409401 0.200472
0.51367 0.409621 0.199545
0.521622 0.409558 0.200722
0.529367 0.410112 0.201236
0.533825 0.40976 0.198255
0.53992 0.406951 0.199272
0.541972 0.405837 0.197648
0.455044 0.407181 0.200692
0.458293 0.407302 0.200628
0.466054 0.408037 0.200328
0.472488 0.408952 0.198707
0.479126 0.409626 0.196848
0.486988 0.409775 0.198646
0.493635 0.409678 0.199212
0.498044 0.40977 0.198628
0.506942 0.409205 0.20206
0.515287 0.410093 0.197331
0.520533 0.410072 0.198315
0.52914 0.409476 0.200626
0.534082 0.409308 0.199455
0.537863 0.408264 0.198256
0.44326 0.250343 0.205675
0.446492 0.248469 0.207552
0.451121 0.247304 0.208978
0.49179 0.359199 0.276999
0.48906 0.358311 0.276908
0.454449 0.362295 0.276097
0.431231 0.256512 0.201028
0.434808 0.255843 0.204279
0.440426 0.251538 0.205219
0.444804 0.249416 0.206592
0.452354 0.247383 0.206793
0.441703 0.361053 0.275265
0.440857 0.363106 0.274592
0.497985 0.349453 0.277873
0.493184 0.349749 0.279456
0.486083 0.351582 0.279463
0.481301 0.351455 0.279962
0.473772 0.348667 0.279379
0.457817 0.35016 0.275964
0.456937 0.350878 0.275748
0.450237 0.35038 0.275945
0.445934 0.354335 0.275413
0.52349 0.342325 0.275015
0.540768 0.252014 0.207262
0.544128 0.253634 0.208145
0.42938 0.258507 0.202197
0.432294 0.257494 0.204932
0.436656 0.254811 0.206353
0.439601 0.252183 0.209471
0.519439 0.340828 0.277246
0.537285 0.250784 0.205758
0.543975 0.253874 0.206173
0.546316 0.256846 0.207026
0.547136 0.25901 0.207329
0.422632 0.26645 0.200891
0.427737 0.264044 0.203551
0.430839 0.262593 0.206319
0.434111 0.260165 0.209043
0.435337 0.259675 0.210055
0.547619 0.260938 0.207615
0.548229 0.262314 0.205607
0.548412 0.262799 0.203408
0.418881 0.270788 0.198364
0.421433 0.272001 0.200792
0.425801 0.270112 0.203899
0.429486 0.269475 0.206729
0.433116 0.268176 0.209664
0.434734 0.265381 0.211264
0.548571 0.268659 0.207701
0.548871 0.269144 0.205716
0.4233 0.274266 0.202347
0.425917 0.276608 0.204637
0.428676 0.276473 0.206902
0.432997 0.276217 0.209761
0.435652 0.275371 0.211988
0.548656 0.275629 0.207759
0.549043 0.276557 0.205965
0.426028 0.283989 0.204498
0.429335 0.283319 0.207138
0.432351 0.282973 0.210305
0.435726 0.28018 0.212775
0.54806 0.283883 0.207945
0.548431 0.283217 0.206517
0.424843 0.292117 0.202929
0.426411 0.290496 0.204814
0.429512 0.290265 0.208236
0.431294 0.289463 0.2105
0.548552 0.290185 0.206362
0.54848 0.291007 0.206481
0.547913 0.293786 0.202978
0.512803 0.341556 0.279495
0.425961 0.297632 0.205484
0.429215 0.295813 0.208808
0.430401 0.296019 0.211491
0.548233 0.29743 0.206704
0.548235 0.297501 0.20637
0.547985 0.295012 0.202884
0.423695 0.306811 0.204404
0.425211 0.304739 0.206131
0.427301 0.304837 0.208874
0.429566 0.303445 0.212256
0.548563 0.304441 0.206812
0.548552 0.304579 0.206532
0.548558 0.307438 0.204014
0.423991 0.311439 0.205317
0.424597 0.311692 0.206558
0.426565 0.311078 0.209138
0.428572 0.310609 0.212165
0.548546 0.312017 0.20669
0.54848 0.311591 0.206981
0.54848 0.310108 0.204579
0.423477 0.31964 0.205089
0.424992 0.318684 0.207059
0.426389 0.318403 0.209532
0.428288 0.317551 0.212685
0.54813 0.318894 0.207182
0.548195 0.31862 0.206256
0.548189 0.320336 0.204041
0.423383 0.325355 0.204264
0.425145 0.325584 0.207284
0.425988 0.324883 0.209379
0.42778 0.325058 0.212775
0.547574 0.325916 0.207294
0.547826 0.324728 0.205494
0.548088 0.322941 0.203573
0.423295 0.332169 0.205159
0.424126 0.332807 0.206897
0.42576 0.332279 0.209883
0.427771 0.33186 0.213141
0.546667 0.332597 0.20673
0.546756 0.332844 0.205848
0.423249 0.340516 0.205725
0.423866 0.339226 0.207195
0.425689 0.339218 0.210583
0.427547 0.337778 0.21361
0.508924 0.341399 0.281784
0.498273 0.345023 0.282135
0.423184 0.346216 0.205844
0.423838 0.346436 0.20728
0.425087 0.346878 0.210003
