0.50165000000000004 0.45288200000000001 0.115037 0.2536943326879218 -0.13828436998522528 0.95734874449169227
0.45906000000000002 0.62058999999999997 0.12961 -0.21980482223208905 -0.059727379249966926 0.97371375685642336
0.51073800000000003 0.44938299999999998 0.112053 0.27108436286735371 -0.12981572207033937 0.95376157739351042
0.50641099999999994 0.448017 0.11307399999999999 -0.26000409911271055 0.13433504110819161 -0.95621753025922307
0.50170000000000003 0.44807399999999997 0.114338 0.24583110053184495 -0.14332050720786624 0.95865859523867103
0.61359200000000003 0.161694 0.060203600000000003 -0.24915889755365939 0.054339653154976464 -0.96693693996291297
0.61804000000000003 0.16267599999999999 0.059134899999999997 -0.25470036707130683 0.052112521832702471 -0.96561483422841921
0.48741499999999999 0.61732299999999996 0.13242699999999999 -0.11228131343784423 0.012162303245795678 -0.99360202547721788
0.49225099999999999 0.44768200000000002 0.116623 -0.19283943027637768 0.15525896775930487 -0.96886924146708109
0.614209 0.16777800000000001 0.0605143 -0.26139481495473599 0.060203000969037967 -0.96335266096539218
0.50197999999999998 0.44272899999999998 0.11350499999999999 -0.24004611831629302 0.14235623906645345 -0.96026692241279188
0.62080000000000002 0.169351 0.0587774 -0.30044839282260921 0.035241456759577239 -0.95314678983657797
0.49235899999999999 0.44278400000000001 0.115663 -0.19203374457815106 0.16334287032959394 -0.96769940976306401
0.48747299999999999 0.44244499999999998 0.116511 -0.14149457600293827 0.16764403080804813 -0.97564069405502918
0.47233199999999997 0.44229000000000002 0.117474 0.0053638734235025871 -0.16289083335138091 0.98662951773803587
0.61407800000000001 0.17737800000000001 0.061173900000000003 -0.29634120425815602 0.061179837339621845 -0.95312062099291683
0.61773699999999998 0.1777 0.059922099999999999 -0.33271647975638347 0.046205175209512908 -0.94189427532095049
0.46741199999999999 0.44239600000000001 0.117462 0.025380406275160729 0.15393171821865415 -0.98775546624838328
0.61456100000000002 0.18195600000000001 0.061287099999999997 -0.31223844711996629 0.055589320685206285 -0.94837596952151249
0.462563 0.44264700000000001 0.11730599999999999 -0.052815121072928711 -0.15020465941274538 0.98724319358340151
0.45246199999999998 0.44268600000000002 0.11651599999999999 -0.12673505700001758 -0.11899517981204674 0.98477325944031469
0.447575 0.44261400000000001 0.115896 0.17015009907894346 0.098289932207116029 -0.9805039688905629
0.44003399999999998 0.43610199999999999 0.113769 0.24577513366976422 0.045228760581939517 -0.96827111021956624
0.496861 0.43290400000000001 0.113124 0.21144522793649079 -0.14682830755834406 0.96629827883652886
0.49163600000000002 0.432751 0.114152 -0.18357686862760061 0.14550243271270494 -0.97217723455117455
0.486794 0.43278299999999997 0.11498800000000001 -0.14641454294307102 0.13868663487135113 -0.97945331635705424
0.48213099999999998 0.43279000000000001 0.11561399999999999 0.099198620312500582 -0.12725347084112559 0.9868972529534078
0.47251500000000002 0.43283700000000003 0.116022 -0.016204092547334053 0.11247986085875197 -0.99352187106571188
0.467443 0.43266500000000002 0.115914 -0.010077555906913872 -0.10415919035478795 0.99450958061326789
0.46249499999999999 0.43257499999999999 0.11586200000000001 0.036765752082503253 0.096008143741857496 -0.99470131989911947
0.61029 0.21698200000000001 0.062701999999999994 -0.35284464542329541 -0.026697178529538478 -0.93530097661376954
0.61201399999999995 0.21770200000000001 0.061996000000000002 -0.36838873304831421 -0.026662535610886218 -0.92928943314656076
0.610765 0.223742 0.062343900000000001 -0.36683058047330358 9.2758838253281101e-05 -0.9302877601180275
0.452596 0.432701 0.115373 -0.092996628221470243 -0.079708715748274345 0.99247072892513999
0.458484 0.61711099999999997 0.129306 -0.22991574860731362 -0.054631894538925266 0.97167592572906036
0.61043199999999997 0.225494 0.062515600000000004 -0.36570366620180605 0.0092899914242766668 -0.93068497601814504
0.44763700000000001 0.43280800000000003 0.114968 0.13361648081216568 0.066937476537176466 -0.9887699481124046
0.613286 0.23213800000000001 0.0616559 -0.39593121471686937 0.029673718911880451 -0.91780060123033425
0.45503199999999999 0.61740200000000001 0.12856400000000001 0.25345299696461204 0.060639807918092897 -0.96544517815633302
0.50410900000000003 0.61017900000000003 0.127884 0.30895141865167214 -0.036751347150133569 0.95036748649970637
0.495838 0.61466699999999996 0.13083 0.23941519167967848 -0.019061372673741764 0.97073015306251575
0.44244899999999998 0.43277900000000002 0.114117 0.18613045515698162 0.0517755051112255 -0.98115990069587122
0.495834 0.42891699999999999 0.11271100000000001 0.20939733055420759 -0.14176326314329604 0.96749983730217592
0.48708600000000002 0.42766100000000001 0.11426799999999999 0.15401107160373795 -0.12326388564416198 0.98035024573841534
0.48221999999999998 0.42792799999999998 0.11508599999999999 -0.11291120891171284 0.1076791752613472 -0.98775313419757427
0.47271099999999999 0.61251299999999997 0.13200200000000001 -0.10574621501243678 -0.042042134327071372 0.99350399946440449
0.467976 0.61257700000000004 0.13128000000000001 -0.15829046614537037 -0.036904145965055507 0.98670269703597668
0.47234799999999999 0.42756499999999997 0.115594 0.021915247030297742 -0.082864532992273449 0.99631982371102801
0.46737499999999998 0.42755599999999999 0.11551599999999999 0.0033230558224724765 0.075797192098810987 -0.99711771770936708
0.46257500000000001 0.427672 0.115341 0.029267146544200515 0.067689004171778477 -0.99727710935696945
0.45280900000000002 0.42784100000000003 0.115022 -0.080899133245092694 -0.059247830066827226 0.99495981068210237
0.44788899999999998 0.427508 0.114677 0.11870595018561098 0.050810955372773123 -0.99162853135871287
0.439467 0.42771599999999999 0.11344600000000001 0.19820554653757683 0.046840970632503753 -0.97904059404702182
0.45559100000000002 0.61483399999999999 0.12848300000000001 0.25108465380947453 0.055482862865417974 -0.96637371060559873
0.29730499999999999 0.044932399999999997 0.062445500000000001 -0.075361716542721405 -0.1130562227388584 0.99072645174122409
0.48712499999999997 0.42289100000000002 0.113762 -0.17755718986479874 0.11036826226167165 -0.97790198435868547
0.50551400000000002 0.60803399999999996 0.12736 -0.31827605387620223 0.034955512626435425 -0.94735340061986162
0.50302100000000005 0.60794199999999998 0.128247 0.30316166630239971 -0.036597754499319582 0.95223610961271565
0.51328799999999997 0.0443507 0.067980299999999994 0.072147282998164988 -0.16044114574738208 0.98440510375924495
0.51822999999999997 0.043946199999999998 0.067828899999999998 0.075383355294235399 -0.14650583646933371 0.9863333055438227
0.472524 0.422485 0.115383 -0.038775231210131572 0.058867396014422542 -0.9975124616419998
0.52802300000000002 0.043967199999999998 0.066807699999999998 0.089219774098623791 -0.15818447959611748 0.98337048070637956
0.53459000000000001 0.043706000000000002 0.066177100000000003 0.090101205446587132 -0.17416111314588797 0.98058639570659811
0.53827400000000003 0.043407099999999997 0.065664 0.083029831271532004 -0.16673836088276625 0.98249904128663113
0.46760099999999999 0.42264400000000002 0.115393 -0.0060639829383720865 0.046505426320526275 -0.99889963131120918
0.54608000000000001 0.043725800000000002 0.064982999999999999 0.057313719282028719 -0.13719957210542841 0.98888392392441471
0.55772900000000003 0.041553199999999998 0.064493900000000007 0.03580240868639048 -0.11546010846479404 0.99266668670080327
0.46256700000000001 0.42254399999999998 0.115235 0.024734665138678946 0.042376021915885284 -0.99879550915443216
0.56772599999999995 0.042155600000000001 0.064166399999999998 0.10661077608961218 -0.10760920642142194 0.98846062193439055
0.57272800000000001 0.042492000000000002 0.063515100000000005 0.15245913083153648 -0.1073449577589814 0.98246286111476755
0.57746900000000001 0.0426208 0.062509300000000004 0.20200197748275883 -0.10564221056587379 0.97367085015410137
0.443274 0.42261399999999999 0.11388 0.15271929052703676 0.04516378756041016 -0.9872370792236872
0.43809399999999998 0.42262 0.113007 0.18940102291503319 0.044692452721357273 -0.98088217293846669
0.48677999999999999 0.41815099999999999 0.113273 -0.20816860688710379 0.11391486282502962 -0.97143668611713296
0.48172599999999999 0.418018 0.11435099999999999 -0.15088208661640803 0.092958461397676842 -0.9841713877129612
0.45272499999999999 0.41765600000000003 0.114839 0.085170497032086234 0.054128390047333524 -0.9948950215104061
0.27274700000000002 0.048062100000000003 0.060588999999999997 -0.15945830866143576 -0.065252041397785898 0.98504579532743342
0.44764100000000001 0.41761900000000002 0.114284 0.12005339130864756 0.057037530616467241 -0.99112759185508925
0.491925 0.60748899999999995 0.13138900000000001 -0.17304055883700264 0.049324460467371552 -0.98367884118597404
0.48630499999999999 0.41412100000000002 0.112982 0.19829854181119352 -0.12659062650256769 0.97193235443483494
0.29263499999999998 0.047788299999999999 0.062468900000000001 -0.076913352324494963 -0.11536839679084174 0.99034058245439971
0.48216599999999998 0.41266799999999998 0.11379300000000001 0.17556231780248219 -0.12273794524281154 0.97678721805999957
0.47681600000000002 0.41304600000000002 0.11455899999999999 0.11617939641284251 -0.097366572270095875 0.98844428191654776
0.47210999999999997 0.41267900000000002 0.11491999999999999 0.066151030258360152 -0.083220370046737741 0.99433314900240666
0.31239899999999998 0.047974500000000003 0.064155400000000001 -0.093335473177556472 -0.14170663664058172 0.9854987156656958
0.31723299999999999 0.0478506 0.064582200000000006 -0.092997172843110126 -0.15044869829435337 0.98423407532188356
0.46748600000000001 0.412719 0.115088 -0.021007568510302374 0.076397618275780205 -0.99685610094289601
0.32640400000000003 0.049096099999999997 0.065645099999999998 -0.094437826716437939 -0.15046674154660672 0.98409412993545631
0.33149699999999999 0.049147099999999999 0.066124699999999995 -0.10081092451306195 -0.14190257429953448 0.98473388126233719
0.33709600000000001 0.048728 0.066635100000000003 -0.11012980603113294 -0.14629347994153943 0.98309187950574572
0.33971099999999999 0.049342799999999999 0.067150899999999999 -0.1159670363442071 -0.15010020691269454 0.98184600338663475
0.34693600000000002 0.049248300000000002 0.068136799999999997 -0.11280737515246339 -0.10105794887012265 0.98846435802277388
0.35078199999999998 0.048430599999999997 0.068571900000000005 -0.1015699687082439 -0.093208378432281844 0.99045229044443672
0.50487899999999997 0.045498299999999998 0.068747199999999994 0.081279374177336924 -0.18669222009123193 0.97905039619559286
0.46243699999999999 0.41270000000000001 0.11522 -0.020822358454266152 -0.069090081408876847 0.99739309704815848
0.45272000000000001 0.412553 0.11448 -0.085748356307917092 -0.070451220672821738 0.99382284381885688
0.44776899999999997 0.41270000000000001 0.11398800000000001 0.12659045881877745 0.08198687770059529 -0.98856107935774984
0.442635 0.41250399999999998 0.11324099999999999 0.15419509277823695 0.077626006361667735 -0.98498633315363793
0.52771000000000001 0.047166800000000002 0.067459000000000005 0.096088421794967127 -0.15714312975515624 0.98289015254386747
0.532694 0.047210099999999998 0.066887000000000002 0.10287299955407356 -0.15674019481678375 0.98226760981493433
0.53765799999999997 0.0472121 0.066344899999999998 0.096248984543990931 -0.15455058433685248 0.98328543661308643
0.48137099999999999 0.40890900000000002 0.113478 0.17858657302052477 -0.1414873221825311 0.97369819430786753
0.47229500000000002 0.40768399999999999 0.114463 -0.08043523707228431 0.12805290356623567 -0.98850019045288096
0.55816399999999999 0.048069000000000001 0.065213599999999997 0.049729082312660794 -0.091743507367408245 0.99454016873541462
0.46724700000000002 0.40787899999999999 0.114707 0.028533926198978578 -0.11844402884245403 0.99255066726451779
0.46243400000000001 0.40782600000000002 0.114774 -0.015209170039403919 -0.11336267062519252 0.99343725823800078
0.57241900000000001 0.047754400000000002 0.064155599999999993 -0.14870215312836293 0.078156521202168885 -0.98578863244032378
0.45269599999999999 0.40786600000000001 0.114077 -0.089819858158450075 -0.10683998354768254 0.9902108921820274
0.447849 0.40779199999999999 0.11348999999999999 -0.12107544373190569 -0.10342604990854563 0.98724049204104114
0.58737300000000003 0.0475492 0.060638900000000003 -0.24611013703777226 0.090005590460838891 -0.96505377784507129
0.43937199999999998 0.40785100000000002 0.11230800000000001 0.16593886639671357 0.076666849967634135 -0.98315130409058282
0.47223999999999999 0.40274399999999999 0.11368200000000001 -0.087952119152278491 0.1655239915098643 -0.98227604723482176
0.46744999999999998 0.40276499999999998 0.113985 0.038863164891891913 -0.15648246842007707 0.98691584823213041
0.46274599999999999 0.40251700000000001 0.113986 0.0085178797313738615 0.15131326112276097 -0.98844916041912723
0.45760200000000001 0.40281099999999997 0.113842 0.054682781616640003 0.14449136371184323 -0.98799394694874443
0.45255699999999999 0.402889 0.113425 0.081674875997841206 0.13231267018068282 -0.98783732058492046
0.476879 0.400173 0.112584 -0.14515701281073334 0.18285600347523703 -0.97236470710578982
0.47186 0.39917900000000001 0.112999 -0.090886157798673234 0.18060823515733501 -0.97934691081043757
0.46685100000000002 0.39801500000000001 0.11305999999999999 -0.037432752125547829 0.17782375439262038 -0.98335014183251157
0.45341700000000001 0.39845700000000001 0.112774 -0.065058956954606673 -0.14957260148923218 0.98660801182826519
0.44819799999999999 0.39958300000000002 0.11246299999999999 0.087051150141906883 0.12928059533054662 -0.98777964391353512
0.46221600000000002 0.39305400000000001 0.11221 0.0026877884719372375 -0.18186289073698311 0.98332022493484705
0.46135599999999999 0.38909500000000002 0.111429 0.012180172770907303 -0.15756970152047403 0.98743274837024697
0.490178 0.68351700000000004 0.12909599999999999 0.31293961868318321 -0.00055687645029186758 0.94977285966016267
0.492618 0.53250500000000001 0.126301 -0.092699889719039127 0.098268976021243792 -0.99083295201452326
0.44465500000000002 0.68602700000000005 0.134074 0.11167671943936938 0.11792579883395544 -0.98672276567667871
0.48744300000000002 0.53750200000000004 0.12717400000000001 -0.032198659355090031 0.12150943194891903 -0.9920678929807103
0.49239100000000002 0.53759400000000002 0.12693599999999999 -0.095098363546035639 0.11768856666656941 -0.9884865717483643
0.54557199999999995 0.65690400000000004 0.109893 -0.29071920363497472 -0.028873363125232598 -0.9563726645715489
0.48748200000000003 0.54227599999999998 0.12786500000000001 0.036549285959222341 -0.13602179820966151 0.99003142379809395
0.49248599999999998 0.54244400000000004 0.127641 -0.10155991419721364 0.12999234305028148 -0.98629994148664146
0.53286100000000003 0.051883600000000002 0.067560200000000001 -0.11115700692596971 0.14204199938495327 -0.98359960869348917
0.53762399999999999 0.052192799999999998 0.067121399999999998 -0.11106787057817002 0.13355763884507291 -0.9847975859187309
0.47215000000000001 0.54765900000000001 0.12776000000000001 -0.13236120238163429 -0.10844115695535236 0.98525175847712776
0.54665900000000001 0.051964799999999998 0.066118700000000002 0.078781984543345132 -0.11554918217363171 0.99017260384764083
0.47728799999999999 0.54736399999999996 0.12833600000000001 -0.085325723473422474 -0.12330874146545132 0.98869331705637808
0.48768400000000001 0.54738299999999995 0.12862399999999999 -0.040598561841515196 0.13613126942749451 -0.98985859306289758
0.49264200000000002 0.54740599999999995 0.128279 -0.11052665629345762 0.13026068783091055 -0.98529996014127896
0.49760300000000002 0.54746099999999998 0.12748599999999999 0.17534126604092487 -0.11981796162031856 0.97718938619712714
0.54727899999999996 0.60249900000000001 0.111208 -0.38910825030628604 0.023873588030079364 -0.92088263168448936
0.54224899999999998 0.60263299999999997 0.113271 -0.35990995320261282 0.021775004729063768 -0.93273290643932061
0.551261 0.59706499999999996 0.109279 -0.42327391302992107 0.043098153505198709 -0.90497610118321981
0.547037 0.59214699999999998 0.110832 -0.39796482012990847 0.048394381420923588 -0.91612334638183723
0.54250299999999996 0.59261299999999995 0.11267199999999999 -0.36829236720095265 0.039445827920621408 -0.92887284324668218
0.53780099999999997 0.59230899999999997 0.114402 -0.35039954886841096 0.031938484142463489 -0.93605560165168378
0.55011699999999997 0.587974 0.10915900000000001 0.4203315786984404 -0.055444832056141723 0.90567501596717526
0.54219200000000001 0.58745000000000003 0.112571 0.38009335387967463 -0.040881155739658455 0.9240442486385001
0.27266299999999999 0.057541399999999999 0.061324999999999998 0.17681710430164496 0.10035259144931312 -0.97911443101191631
0.47299000000000002 0.60747200000000001 0.13181000000000001 0.10136658279988592 0.051223232383162329 -0.99352956491273803
0.46832000000000001 0.60745499999999997 0.13115599999999999 0.1523158474566389 0.048201558672114883 -0.98715575891302199
0.53771000000000002 0.58754099999999998 0.114312 -0.35862384159960331 0.031985188248815792 -0.93293402123034985
0.29228300000000002 0.057348000000000003 0.063579999999999998 -0.090116264430069218 -0.12592094264657475 0.98793875067646153
0.54654400000000003 0.58245100000000005 0.110441 0.40964708084043422 -0.047925984213275138 0.91098428592160674
0.30233500000000002 0.057349200000000003 0.064674800000000005 0.095955354507395438 0.14301076791634695 -0.98505862272320466
0.54244099999999995 0.58247599999999999 0.112262 -0.38590575323954385 0.04083052911461265 -0.921634210253092
0.31225599999999998 0.056332800000000002 0.065438200000000002 -0.094485103875028481 -0.15551417273622589 0.98330458517383734
0.32874500000000001 0.055382899999999999 0.067044800000000002 -0.087160002674769518 -0.14429119195232631 0.98568919333566363
0.33225300000000002 0.057010900000000003 0.067584699999999998 -0.082662547748998019 -0.13683324832677382 0.98713908105797732
0.33711200000000002 0.056639099999999998 0.0678951 -0.083548111574426931 -0.11563656088571417 0.98977163974265869
0.54253899999999999 0.57257000000000002 0.11176800000000001 -0.40857922674436553 0.039727402407063191 -0.9118578556830903
0.533918 0.056410000000000002 0.068053699999999995 -0.11683604211200142 0.12319916306189498 -0.98548024104212817
0.538184 0.057292299999999997 0.067671300000000004 -0.11803923872603253 0.11622239101725465 -0.98618410753125152
0.54315500000000005 0.057129199999999998 0.066987900000000003 -0.10679721930727495 0.11026946067074773 -0.98814725622834998
0.54713400000000001 0.0569857 0.066564999999999999 0.0902444030636467 -0.10314098256214731 0.9905644277036203
0.55965299999999996 0.055326100000000003 0.065662999999999999 -0.068833579283265223 0.064672298617700213 -0.99552972439528764
0.54246899999999998 0.56745599999999996 0.11154799999999999 -0.41764747850235778 0.048944946542505689 -0.90728990731109393
0.56798199999999999 0.056865699999999998 0.065033499999999994 0.11698260727351718 -0.045282556889189758 0.99210108337662228
0.57310799999999995 0.0573906 0.064498799999999995 -0.15529495154588277 0.037893037676461488 -0.98714112249465757
0.54234199999999999 0.56216999999999995 0.11125400000000001 -0.40960800713586332 0.050492888206054611 -0.91086318881091999
0.49179299999999998 0.60280400000000001 0.13101399999999999 -0.16396823272156544 0.060470508921801461 -0.98461044896390637
0.58718599999999999 0.057464899999999999 0.061338700000000003 0.23988541719256568 -0.052044799701169007 0.96940513999174482
0.54511299999999996 0.55294100000000002 0.109254 -0.4141328123035285 0.059179208829507689 -0.9082906115422994
0.54190400000000005 0.55244199999999999 0.110738 0.41541921405248883 -0.057124546938423386 0.90783460097811464
0.54539199999999999 0.54886500000000005 0.108864 0.41581662957810955 -0.056953067057084986 0.90766341708757448
0.53284399999999998 0.54749899999999996 0.114671 -0.40756932031550669 0.041952817350861427 -0.91221006914738734
0.53258399999999995 0.53256400000000004 0.114245 -0.390902024261012 0.026883601683358984 -0.92003960751109737
0.46766400000000002 0.55247000000000002 0.12750400000000001 -0.18448560186754406 -0.091296544690609105 0.97858571603673339
0.54027800000000004 0.52307700000000001 0.110735 0.41503215231471308 -0.034646001168342211 0.90914683475666325
0.52808900000000003 0.52237299999999998 0.115756 0.35186691236599071 -0.053417831204383523 0.93452459105763741
0.26760400000000001 0.0624918 0.060876600000000003 -0.19567625175135628 -0.10952426332615997 0.97453334485968313
0.54036099999999998 0.51472799999999996 0.11024 -0.41289513121966026 0.070711456560184544 -0.90802946016428165
0.53569900000000004 0.50219400000000003 0.11104600000000001 -0.38600279369959017 0.096605082362539271 -0.91742536552999177
0.28262100000000001 0.062458600000000003 0.063511700000000004 0.12304979503686565 0.10444976327191588 -0.98688854228520961
0.53964299999999998 0.49743900000000002 0.10878500000000001 -0.41397721421738592 0.1014785822745447 -0.90461315679596499
0.29245300000000002 0.062373600000000001 0.064382599999999998 0.10045146640645809 0.11838766937180539 -0.98787340415536251
0.29711799999999999 0.062066799999999998 0.064875799999999997 -0.099792032554016447 -0.13075301756338267 0.98637984500739251
0.30224099999999998 0.061145999999999999 0.065320299999999998 -0.1042140348516585 -0.14369135955661025 0.98412002729784454
0.52796699999999996 0.49757899999999999 0.113638 -0.341103774096637 0.10583903733499933 -0.93404834643236267
0.33229300000000001 0.062082699999999998 0.068160399999999996 -0.064276168916043167 -0.10483550380651466 0.9924102434231068
0.33553899999999998 0.061500199999999998 0.068281900000000006 -0.065001890063554307 -0.093683372603522108 0.99347782058070888
0.53398199999999996 0.062469900000000002 0.068832400000000002 -0.12381379837294218 0.10214691839223385 -0.98703401683803926
0.53770499999999999 0.062463600000000001 0.068297800000000006 0.12157033969202584 -0.098944250061058475 0.98763894611696046
0.54052699999999998 0.49331599999999998 0.10793999999999999 -0.41077538359669286 0.10119484888741768 -0.90610329807900081
0.54785200000000001 0.062063599999999997 0.066978399999999993 0.099074912334460655 -0.091003029159445928 0.99090999108381395
0.55113199999999996 0.064620999999999998 0.066925399999999996 -0.091410065532743251 0.081821523895218448 -0.99244618904339799
0.57419399999999998 0.062219499999999997 0.064368300000000003 -0.15518172733004526 0.030541489474486205 -0.98741371720446691
0.57811500000000005 0.062652700000000006 0.063733700000000004 0.18234678259321185 -0.032852687464460927 0.98268527606974276
0.53664299999999998 0.492585 0.109621 0.3898963291921127 -0.10754014165494009 0.91455780047810575
0.58723899999999996 0.062694399999999997 0.061630299999999999 0.24032840532432242 -0.044353808542060211 0.96967778012187267
0.53917499999999996 0.48702499999999999 0.10785400000000001 0.39145099616408302 -0.10459565409295223 0.91423512662061635
0.53647299999999998 0.48752899999999999 0.109024 -0.37954220910775699 0.11119374497589611 -0.91846810645979371
0.53140799999999999 0.48257800000000001 0.11032699999999999 0.34340725678723111 -0.12948942196170707 0.93021714969457081
0.52719000000000005 0.48254900000000001 0.111803 0.32595969441506256 -0.14037247680797593 0.9349041904770955
0.53141300000000002 0.47341699999999998 0.10901 -0.31951413100122233 0.12321332565249006 -0.93953669245654636
0.52669299999999997 0.47295999999999999 0.11047999999999999 0.30560225570585187 -0.13678827763694595 0.94228245680826139
0.53007400000000005 0.46920899999999999 0.108834 0.30536386066973131 -0.11655076168648897 0.94507609881277632
0.26282299999999997 0.067751599999999995 0.060422799999999999 0.1795040706098944 0.13457850660038884 -0.97450855008854953
0.52158400000000005 0.46754699999999999 0.11121200000000001 0.29047587716130241 -0.14116340535185462 0.94641251987536579
0.27246300000000001 0.067563999999999999 0.062561400000000003 -0.16763858149479235 -0.11129433399623305 0.97954626088549235
0.52674500000000002 0.462696 0.109125 -0.29023253061407728 0.12918992655331579 -0.94819567656180437
0.28220600000000001 0.067382899999999996 0.0640651 -0.12671513054134367 -0.1005223553342813 0.98683257534899949
0.52171999999999996 0.462723 0.110527 -0.28838357904067846 0.13136692530681235 -0.94846066986202593
0.50766800000000001 0.457148 0.11401799999999999 -0.27018499393102319 0.13243887264785059 -0.95365612988448811
0.32205 0.068576600000000001 0.068298700000000004 0.064442801472839692 0.11532263510398387 -0.99123549934967803
0.32708700000000002 0.067103800000000005 0.068453 -0.055176351137390132 -0.10196078870540744 0.99325705023510147
0.52551199999999998 0.45313399999999998 0.108114 0.28767355527742733 -0.13559775475869817 0.94808078479549662
0.52147600000000005 0.45274700000000001 0.10927199999999999 -0.28777870222706931 0.1303502190130105 -0.94878461146235049
0.52477399999999996 0.448685 0.107668 -0.29409422856907402 0.13927598595831731 -0.94557431461398089
0.52161500000000005 0.44779600000000003 0.108614 -0.29423103738227907 0.13624269570475361 -0.94597358552342781
0.50285199999999997 0.44717699999999999 0.113912 -0.24997192873126001 0.14081800902251168 -0.95795841411895843
0.54790399999999995 0.066748399999999999 0.067396800000000007 0.10911273711239518 -0.085478294013365014 0.99034734909142141
0.55247900000000005 0.067862000000000006 0.067126900000000003 -0.1051035863357129 0.075198051080907241 -0.99161408282305297
0.55759499999999995 0.068473900000000004 0.066612000000000005 -0.10876280921097682 0.060950645325072626 -0.99219739475922497
0.507525 0.44235600000000003 0.112007 -0.2578083416657489 0.1391506263056041 -0.95612340321023137
0.49795899999999998 0.441882 0.11434 -0.22335906543653214 0.15096736137254713 -0.9629743421750806
0.44267800000000002 0.442214 0.11487799999999999 0.22981479415051692 0.066022074495717231 -0.97099240268337705
0.587175 0.067665600000000006 0.061844200000000002 0.23742580605094538 -0.04209061322368856 0.97049336262517172
0.59204800000000002 0.067595799999999998 0.060452400000000003 -0.25109674667776366 0.045641599495912892 -0.966885343876562
0.47232800000000003 0.55244099999999996 0.12833700000000001 0.13790870413781176 0.099468965144508065 -0.98543752429878084
0.51614899999999997 0.43843399999999999 0.109027 -0.29071416112506443 0.1468742189723837 -0.94546985162013597
0.51519599999999999 0.43288399999999999 0.108339 -0.28890965786921541 0.15631368525852324 -0.94450899487024054
0.50651299999999999 0.43283100000000002 0.11086799999999999 0.25354986085668263 -0.15479653268580854 0.95485627270705431
0.493147 0.43244899999999997 0.113913 0.19048367252373444 -0.14530764885090405 0.97087674690832559
0.51467499999999999 0.42773499999999998 0.107542 0.28819834381895404 -0.16089737112116703 0.94395643468663804
0.50703900000000002 0.42817699999999997 0.109997 0.25654640330256367 -0.15946324622480648 0.95328663897904531
0.50227200000000005 0.42762 0.111057 0.23834195891469087 -0.15772050973961227 0.95828876202749291
0.51458099999999996 0.423568 0.106874 0.2856245516229588 -0.15800155170888075 0.94522702308375062
0.50193200000000004 0.42261700000000002 0.110251 -0.24545135290113312 0.15579433861257228 -0.95680810898281698
0.49263400000000002 0.42243599999999998 0.112515 -0.21689353547124285 0.13487835364212766 -0.96683246945351065
0.43480600000000003 0.42174800000000001 0.11219899999999999 0.21653649533783256 0.044736903229439587 -0.97524897112288644
0.510737 0.41975200000000001 0.107486 -0.26988151803370675 0.15968935804646195 -0.94955951638142766
0.50610999999999995 0.41868300000000003 0.108541 0.26137457045655665 -0.16118552101487169 0.95168406613424772
0.50110399999999999 0.41305900000000001 0.10886999999999999 0.25530218071798266 -0.16251466586628571 0.95310533515399665
0.54905000000000004 0.071811100000000003 0.067749699999999996 -0.10762059185605877 0.070187755252878889 -0.99171139310845546
0.49215799999999998 0.41259899999999999 0.11124299999999999 0.24492321661235475 -0.14418355467579044 0.95876155561500853
0.433087 0.41204299999999999 0.111317 0.22271271313668553 0.042354138012905267 -0.97396364121073842
0.50129999999999997 0.40843000000000002 0.108027 -0.25978911997772464 0.16503243208631974 -0.95145883226804584
0.56574800000000003 0.073909199999999994 0.065796400000000005 0.13652609527615545 -0.040393691567983024 0.9898125958938675
0.49208800000000003 0.40768900000000002 0.110484 -0.25034220116344585 0.16202111105331693 -0.95450402926844125
0.48735899999999999 0.40760200000000002 0.111806 -0.22377784693933006 0.15885252291489874 -0.96160769089206521
0.432753 0.40745100000000001 0.111011 0.20985457276684805 0.04092458825097782 -0.97687575277787075
0.44246600000000003 0.402389 0.112222 -0.12525726490862082 -0.097565315292691315 0.98731536341710457
0.59615499999999999 0.072998300000000002 0.059590999999999998 -0.24881690124848749 0.056075982961657535 -0.96692586778303968
0.42928500000000003 0.402335 0.109929 0.22053953381393521 0.023044924022012039 -0.97510576118796055
0.49560500000000002 0.39894800000000002 0.107891 -0.24706660523634896 0.18425108894273423 -0.9513199402936966
0.48706500000000003 0.39784199999999997 0.109919 -0.22745091208155835 0.19595009156952509 -0.95387087396940795
0.43285299999999999 0.39781100000000003 0.110593 0.16363876211795858 0.047364000387549399 -0.98538267033665161
0.49191600000000002 0.39306799999999997 0.107608 -0.23636829641653145 0.1909050936438319 -0.9527251826576153
0.25261899999999998 0.078234499999999998 0.060621599999999998 -0.13561139254552343 -0.15037137149739752 0.97928443306623403
0.486925 0.39297199999999999 0.10882699999999999 0.21868255944545728 -0.19682513541831761 0.95573940185698369
0.26244099999999998 0.077685199999999996 0.0620104 -0.1463511460734756 -0.12934371907235817 0.98074030424955594
0.48208800000000002 0.392988 0.11 0.19871446970602324 -0.20113476255348561 0.95919620871957523
0.27254099999999998 0.077519400000000002 0.063425300000000004 0.12732475570645049 0.080465656111961756 -0.98859176851254615
0.47240500000000002 0.39248499999999997 0.11161600000000001 -0.1088199544408131 0.19125727099270126 -0.97548904340742026
0.282163 0.077040800000000006 0.064638600000000004 0.11269428753253302 0.046747463007005753 -0.99252943143261152
0.46745300000000001 0.392681 0.112056 0.057552620945105951 -0.18371045241288689 0.98129412792322457
0.31800699999999998 0.076238399999999998 0.068935399999999994 0.057879182799892973 0.085399590467461164 -0.99466421979802133
0.54935999999999996 0.077066399999999993 0.068032700000000002 -0.11232119162532496 0.057597851722184713 -0.99200122852184824
0.55319499999999999 0.077202400000000004 0.067695500000000006 -0.10498264362503526 0.057465778012938444 -0.99281233317020523
0.55821699999999996 0.076921400000000001 0.067089599999999999 -0.13080704918648534 0.050686114131662262 -0.9901113239011845
0.45262400000000003 0.39274500000000001 0.111709 -0.048949209824200639 -0.1376589032232991 0.98926942802299567
0.57408899999999996 0.077800800000000003 0.064837800000000001 -0.15874943073314571 0.025856738158807149 -0.9869802669423986
0.57806000000000002 0.077640200000000006 0.064230700000000002 -0.16905226954291372 0.028347376872441061 -0.98519934855177504
0.44749699999999998 0.39266699999999999 0.111371 -0.063053631985460448 -0.11357984807284563 0.99152602467368023
0.58739399999999997 0.077421699999999996 0.0622003 0.22384693778235148 -0.047065263716390332 0.97348724151720178
0.59256399999999998 0.077549599999999996 0.060879900000000001 -0.23620373720892135 0.06322784939789719 -0.96964428198646924
0.59684999999999999 0.077701000000000006 0.059762099999999999 -0.24483641083003685 0.068873415799470025 -0.96711508339389418
0.442691 0.392646 0.111169 0.076607262606885385 0.090315423945881629 -0.99296246228815499
0.43263600000000002 0.39277499999999999 0.110248 0.14680642023936402 0.041365668751750378 -0.98829993242194636
0.42781999999999998 0.39256099999999999 0.109587 0.18261338747801609 0.022778101765112808 -0.98292090668261911
0.49085899999999999 0.38959300000000002 0.1071 -0.233230892801811 0.19306664954407177 -0.95306275736527268
0.487099 0.38917400000000002 0.10793800000000001 0.21708156940906254 -0.19424347887126672 0.95663214619773573
0.247832 0.082600300000000001 0.060692799999999998 -0.13042188313163736 -0.13772833826501374 0.98184572985737195
0.25264599999999998 0.082377699999999998 0.061344500000000003 -0.12944918310673015 -0.13482431786841284 0.98237737774458
0.25762000000000002 0.082304199999999994 0.061959800000000002 -0.12903677862448459 -0.1299480687050571 0.98308850527408831
0.26246700000000001 0.082774799999999996 0.062816999999999998 -0.1216343332820387 -0.11627688953900168 0.98574072347964237
0.48212300000000002 0.38800400000000002 0.108919 -0.20129842623582198 0.19658379887263203 -0.95960083035384336
0.272366 0.082412399999999997 0.063814200000000001 -0.10717994124338651 -0.071482803698478536 0.99166661180583704
0.27743099999999998 0.082548499999999997 0.064244399999999993 0.10012948940620039 0.049755322698346267 -0.99372958757120489
0.28212700000000002 0.082365900000000006 0.064747899999999997 -0.10441588034515924 -0.029958376472519789 0.99408240081538324
0.47219 0.38792399999999999 0.110712 -0.1173557416308609 0.18760266414336946 -0.97520914183193608
0.54917199999999999 0.082865900000000006 0.068376699999999999 0.11263767378672301 -0.04443325966367085 0.99264215096860364
0.55267699999999997 0.082435999999999995 0.068018200000000001 -0.12074782669008151 0.051456765312346692 -0.9913486589758479
0.467219 0.38792700000000002 0.111128 -0.067394270450782515 0.17483705553801251 -0.98228815340571274
0.57325199999999998 0.082687399999999994 0.064966200000000002 -0.15761351526854567 0.035442847190697305 -0.98686462313111045
0.45239400000000002 0.38774500000000001 0.110974 0.027956608744456948 0.11590823294883591 -0.99286641073318005
0.44756299999999999 0.38771600000000001 0.110791 0.040844942722909908 0.093334346230732376 -0.99479665784905213
0.58724500000000002 0.082743999999999998 0.062509400000000007 0.20468185172676448 -0.050006138366008167 0.97755036990398725
0.59217299999999995 0.082498600000000005 0.061346400000000002 -0.22497617912355822 0.065598470520632182 -0.97215356785454354
0.59708700000000003 0.0823575 0.060135500000000001 -0.2364861853532548 0.081551443203189133 -0.96820640684130099
0.44264999999999999 0.38768200000000003 0.110581 -0.057978462558118102 -0.078868444788763439 0.99519760163296167
0.43267899999999998 0.38775900000000002 0.110046 0.1153552916908807 0.045438049125566288 -0.99228450575960048
0.42827999999999999 0.387824 0.109554 0.14149476457274646 0.033320159071250632 -0.98937808677874484
0.42285299999999998 0.38226100000000002 0.10853699999999999 0.15061179523844517 0.056886094256025095 -0.98695494295096742
0.47638799999999998 0.37824200000000002 0.108139 0.17204805840946491 -0.17538702867402958 0.96934970767542339
0.46709800000000001 0.37798199999999998 0.1094 -0.10748346241186789 0.15380196979095304 -0.9822383923449437
0.46242699999999998 0.37774999999999997 0.109828 0.074016136865911006 -0.12541022984382208 0.98934012641455438
0.45247900000000002 0.37775700000000001 0.110169 0.014714502868767014 -0.084143932307978939 0.99634496137686923
0.25752900000000001 0.087469099999999994 0.062671599999999994 0.12196259635589587 0.11234712396760548 -0.98615579338476544
0.44756499999999999 0.37766699999999997 0.110253 0.0087763362994861017 0.061296140078252043 -0.99808103835944384
0.44250800000000001 0.37769799999999998 0.110161 0.034176997529858283 0.054483064246019237 -0.99792962104058647
0.43339100000000003 0.37786399999999998 0.109671 0.093917028975977535 0.050039632670575471 -0.99432169182338526
0.27739200000000003 0.087798600000000004 0.064401899999999998 0.078912637430475191 0.051410685057898281 -0.99555498949864329
0.41972599999999999 0.37990400000000002 0.107892 0.16510680797519614 0.0585887950259193 -0.9845339481488955
0.287522 0.089174600000000007 0.065199599999999996 0.1136205788100933 0.036085932094596353 -0.99286865675965597
0.29022399999999998 0.089682899999999996 0.065526500000000001 0.12371126179246619 0.032763908138915283 -0.9917772179422053
0.475406 0.37407499999999999 0.107502 0.17572205589920048 -0.16588573740797505 0.97036265447263104
0.55561000000000005 0.089266100000000001 0.067984299999999998 -0.12397042424369133 0.041602761575900149 -0.99141340728381189
0.57360900000000004 0.087473400000000007 0.064976599999999995 -0.15926812592279685 0.033768536054534844 -0.98665766608169303
0.57771700000000004 0.087389800000000004 0.064338699999999999 -0.16726174304992417 0.038144762757401141 -0.98517434314241192
0.46728799999999998 0.37293100000000001 0.108736 0.13203351304727243 -0.15548356165224098 0.97897498103288083
0.46222099999999999 0.37276900000000002 0.109302 0.097742573492628396 -0.11305303956829096 0.98876963928480799
0.59231699999999998 0.087521199999999993 0.061661199999999999 -0.20766929629263534 0.068422790482699919 -0.97580314875485119
0.45264300000000002 0.37266500000000002 0.109957 0.036891752201119066 -0.086871090080956226 0.99553624360325421
0.44767200000000001 0.37249599999999999 0.110045 0.0057530099048933173 -0.076766136985380831 0.99703252860143743
0.43748999999999999 0.373002 0.10985300000000001 -0.066667274424349401 -0.067943738061655837 0.99545925229465715
0.43255500000000002 0.37262800000000001 0.109362 0.10347580286764098 0.067683224486402654 -0.9923264278169861
0.42771100000000001 0.37259500000000001 0.108708 0.13957369776438006 0.072539867134158512 -0.98755108757397259
0.461677 0.368593 0.108888 0.11211333069984057 -0.13381002630418842 0.98464484863318125
0.45237100000000002 0.36791099999999999 0.109542 0.047818642051201919 -0.10680831224246495 0.99312907615691903
0.447959 0.36825400000000003 0.10972800000000001 0.016363223765540474 -0.090939987302935274 0.99572193087093375
0.43772299999999997 0.36757899999999999 0.10953599999999999 -0.065240786479520793 -0.086690463329540599 0.99409677765660376
0.43248500000000001 0.367844 0.109003 -0.10340783074730597 -0.083580045562203678 0.99112118155347495
0.42798700000000001 0.36814999999999998 0.108371 -0.13874142867375119 -0.083905675523242448 0.98676778098220985
0.44525500000000001 0.35839399999999999 0.1086 -0.0086784458483216663 0.15094344167062204 -0.9885043055011371
0.442355 0.35789500000000002 0.10849200000000001 0.013400246218092668 0.14837849420563018 -0.98883985349426751
0.433805 0.36014699999999999 0.108265 0.090565195130034692 0.12705087662593018 -0.98775301577856056
0.47753400000000001 0.55244400000000005 0.129 -0.09010159129843924 -0.10770704473749466 0.99009135727942021
0.48744500000000002 0.55238399999999999 0.1293 0.039929827635891757 -0.12446817069123713 0.99141983203370743
0.492649 0.55232899999999996 0.128971 -0.11510852701082648 0.10956940171062005 -0.9872915340557592
0.49780999999999997 0.552342 0.128134 -0.18803997760026128 0.10404971685638087 -0.97663433446003745
0.50204800000000005 0.55245599999999995 0.127111 0.24672143220274245 -0.10396812771267834 0.9634932087522714
0.55806999999999995 0.093364299999999997 0.067755899999999994 -0.13274727093658159 0.044521063594765382 -0.99014950232542176
0.562971 0.093956399999999995 0.067008300000000007 -0.14829528866754796 0.048786661744492484 -0.98773901866577973
0.56850800000000001 0.093448500000000004 0.066111400000000001 -0.15399980994191018 0.05350453098466075 -0.98662116524123233
0.46726299999999998 0.55738399999999999 0.12787599999999999 -0.19455673143552227 -0.073265586542162586 0.97815123170282769
0.47237899999999999 0.55722400000000005 0.128778 0.14826252674206147 0.081836946996710888 -0.98555615632510596
0.47734199999999999 0.55750900000000003 0.129551 0.095027321750467894 0.08525589118134129 -0.99181714097902574
0.487516 0.55718199999999996 0.12993099999999999 -0.041491037813010646 0.0897020402656412 -0.99510403363335864
0.492479 0.557361 0.12958600000000001 -0.11855235033395065 0.086711051372725695 -0.98915445396567514
0.49759399999999998 0.55729600000000001 0.128721 -0.18836884368756027 0.083377212032528389 -0.97855271663896282
0.55638600000000005 0.58644300000000005 0.10593 -0.45006734285876332 0.0560573875544974 -0.89123339041612293
0.55269699999999999 0.58743500000000004 0.107863 -0.43701942763179591 0.057130766269132452 -0.8976358367500038
0.55249000000000004 0.58267100000000005 0.10763300000000001 -0.43554243779625912 0.055236416372251088 -0.89847188224498353
0.23302899999999999 0.098096900000000001 0.060486100000000001 0.14478182488434957 0.12758714499608567 -0.98120321219149387
0.55656700000000003 0.57389599999999996 0.10498200000000001 -0.44637880555919912 0.037978619589082746 -0.89403779920182924
0.55079500000000003 0.57447099999999995 0.107943 -0.43526866697687561 0.046835810339620025 -0.89908152823757037
0.55240900000000004 0.55242599999999997 0.106028 -0.41590481776140664 0.051856735501595835 -0.90792844516843307
0.252417 0.097534899999999994 0.062793799999999997 0.11622525356185856 0.10752880067181191 -0.98738505531558629
0.25754300000000002 0.097573699999999999 0.063441600000000001 0.10345940810805385 0.10135390772565925 -0.98945618208320363
0.26253199999999999 0.097448800000000002 0.064055600000000004 0.097233167113509211 0.097903160473409551 -0.99043459268262335
0.55521500000000001 0.54891900000000005 0.104466 -0.41043083400356534 0.048585867907291684 -0.9105964770076993
0.27230500000000002 0.097163600000000003 0.064708699999999994 0.065129739059928277 0.090037335321520084 -0.99380651805982112
0.27675499999999997 0.0970057 0.064851699999999998 -0.071798976882074594 -0.088064550438157974 0.99352380035649501
0.28233599999999998 0.096994700000000003 0.065174700000000002 0.079925281662157052 0.089489671156935152 -0.99277567864419847
0.54746899999999998 0.51756800000000003 0.10706499999999999 0.43728608883210579 -0.067688620033613325 0.89677150224115876
0.292244 0.097200300000000003 0.066254300000000002 0.12510981837488086 0.080441551894686492 -0.98887647867414585
0.54754899999999995 0.51242699999999997 0.106653 -0.44569007686920858 0.083231509597286507 -0.89130963822370712
0.55419099999999999 0.098526799999999998 0.068475499999999995 -0.11324611072313585 0.04185402483530893 -0.99268502507651868
0.55784400000000001 0.097060800000000003 0.067956699999999995 -0.12722418260291926 0.047161998478911789 -0.99075211494121695
0.54711900000000002 0.50720100000000001 0.106237 -0.44915609154345199 0.096158135681980325 -0.88826370992604209
0.567828 0.097362799999999999 0.066469100000000003 0.15096661895136193 -0.0613087056706196 0.98663586118252766
0.57320000000000004 0.096961800000000001 0.065654799999999999 -0.15802326715644083 0.062989012866137561 -0.9854242899864778
0.57788799999999996 0.097481799999999993 0.064963000000000007 0.16272151329600373 -0.063498242641577315 0.98462667153195171
0.54272699999999996 0.50737399999999999 0.108524 -0.43065222499401634 0.088790932151633278 -0.89813965031911747
0.54665699999999995 0.50245799999999996 0.105853 -0.45166922464432252 0.10009945847196335 -0.88655231651765287
0.59250100000000006 0.097251199999999996 0.062300000000000001 0.1957601635045868 -0.05921017356306256 0.97886266336564742
0.54278999999999999 0.49745499999999998 0.107295 -0.43137473027910039 0.098592649038212007 -0.89676938598073364
0.54503100000000004 0.49118899999999999 0.10553 0.43448187888232059 -0.086717142660335866 0.89649631013837172
0.542744 0.492421 0.10675999999999999 0.42325859201132549 -0.091136846027761981 0.90141346760779095
0.54388999999999998 0.48899599999999999 0.10587199999999999 -0.42570736520239749 0.08760242903860252 -0.90061037837622626
0.22289 0.102788 0.059598699999999998 -0.1613889587960998 -0.14833233342634508 0.97567982598750402
0.54152599999999995 0.48839300000000002 0.10695399999999999 -0.41145353761400411 0.097575578076857364 -0.90619258049704254
0.53805700000000001 0.48259999999999997 0.107779 -0.37590226534033799 0.10871583391237355 -0.92025993847865573
0.54672299999999996 0.47664000000000001 0.103423 -0.39501625017626141 0.070020872216340069 -0.91600176831202029
0.54232000000000002 0.475908 0.10524600000000001 -0.37196923329427645 0.085954980345544801 -0.92425679918314119
0.537713 0.477352 0.107256 -0.35626722352356649 0.10767338273030458 -0.92815952728732065
0.54908999999999997 0.473798 0.10234600000000001 -0.39417240680264432 0.058026847862380777 -0.91720281216455457
0.54660799999999998 0.46787099999999998 0.102969 -0.36653692858328402 0.073722892572492843 -0.92747809413240423
0.26238800000000001 0.102657 0.064487199999999995 -0.094872733651974656 -0.11209478149097164 0.98915818976132064
0.54213999999999996 0.46795300000000001 0.104671 -0.34472134861392323 0.091065228734777431 -0.93427742984901474
0.27200299999999999 0.101851 0.065176399999999995 -0.071244842351606552 -0.11677695741241634 0.99059947236801693
0.27727499999999999 0.10205699999999999 0.065416799999999997 0.077710863410514197 0.12062446653787316 -0.98965183765829789
0.28236499999999998 0.10241500000000001 0.065867800000000004 -0.07995498507214803 -0.12905360294663962 0.98840900842141455
0.53254999999999997 0.46751599999999999 0.107818 -0.30685344299448991 0.11837981131337724 -0.94436602268179737
0.29200999999999999 0.102309 0.066790299999999997 0.10926744763340326 0.12294517270034236 -0.98637979977155066
0.296545 0.103128 0.067304299999999997 0.11781134016916313 0.11422705411669132 -0.98644445775490475
0.54173000000000004 0.46278900000000001 0.10441 -0.33108151615696835 0.10237838479457995 -0.93803182034835897
0.55443799999999999 0.102615 0.068582299999999999 -0.1112954550143351 0.047883907594545666 -0.99263309086823681
0.55775200000000003 0.10213899999999999 0.068221799999999999 0.12014945776223629 -0.050411506067578764 0.99147505659771329
0.53648200000000001 0.46253499999999997 0.106123 -0.31134644745500589 0.11416640683635293 -0.94341370628543642
0.56773499999999999 0.102351 0.066848900000000003 0.14327176254881985 -0.068111867770242224 0.9873368095665247
0.57288300000000003 0.102224 0.0660028 -0.15575771628571261 0.073307965405337155 -0.98507130504628404
0.57793099999999997 0.102129 0.065176600000000001 0.16289393871233682 -0.076999227153248459 0.98363442586592298
0.540381 0.45310600000000001 0.10363700000000001 -0.31290640740854592 0.14053842906228531 -0.93932876574678714
0.58763200000000004 0.10234699999999999 0.063552200000000003 0.18574125598882743 -0.074905909323535871 0.97973939931601584
0.59233199999999997 0.102563 0.0626221 0.2000584570635392 -0.072334970056244466 0.97711016055730293
0.59740800000000005 0.102466 0.061569199999999998 -0.21496516150695785 0.06458119296020276 -0.97448409368964295
0.53195099999999995 0.45293899999999998 0.106114 0.29492271916472945 -0.13994729249373425 0.94521708884475597
0.52764100000000003 0.452291 0.107326 -0.29781617313732967 0.13754180804847957 -0.94466278536660442
0.53677399999999997 0.44780799999999998 0.103798 0.29887207374063646 -0.1526419419183675 0.94200632752936519
0.52718200000000004 0.447575 0.10675 -0.29843792283605514 0.14519086020031916 -0.94332095297814289
0.22270200000000001 0.10767400000000001 0.060317700000000002 -0.16034537041199809 -0.15243650853592619 0.97521919231156218
0.53603100000000004 0.442828 0.10312200000000001 0.29628343638726079 -0.15394667483733399 0.94261155659639773
0.526698 0.44285099999999999 0.106193 -0.30412165786307876 0.14726729075592493 -0.94118136524902696
0.52275499999999997 0.44244800000000001 0.10750999999999999 -0.3009868934807699 0.1435604335451566 -0.94276046367734501
0.24263299999999999 0.107625 0.062831499999999998 0.11351052409912626 0.1270927781691272 -0.98537443982274808
0.52240699999999995 0.43781300000000001 0.106823 -0.30644044686459154 0.15420232670818432 -0.93931671706789699
0.53076199999999996 0.43354599999999999 0.10331899999999999 0.29984559899045615 -0.15341523166849 0.9415712312184128
0.52664900000000003 0.432647 0.10456600000000001 0.30747553904765457 -0.15734565367666525 0.93845678544961098
