0.57542341224796445 0.31719562017194769 0.078721147051197843 0.19625159355071872 -0.10669863413684595 0.97473109804814118
0.58955143166721458 0.29064251172286837 0.07306463420028067 -0.2314906567196949 0.071646926340138722 -0.97019523488702786
0.59460754270680249 0.29242382934493888 0.071915149324649361 -0.2333822503905317 0.071528658760818542 -0.96975067732821385
0.5671097079683749 0.31749276431401013 0.080444795864385507 -0.2360627730859019 0.084993227463988075 -0.96801369744867183
0.5751255290722419 0.31310220479236828 0.078392654169639017 0.19410561996462466 -0.10461498834063415 0.975386442653699
0.59430559042009323 0.29734170407199478 0.072252882816977157 -0.23549509052931025 0.072952936440774316 -0.96913359832443147
0.59867039823447155 0.29720126541258568 0.071165484036463833 -0.23596289650790106 0.072464757612349676 -0.96905643301914313
0.56686191171624034 0.31270088471053192 0.08013115629556096 0.192026207825679 -0.1071258992924691 0.97552548772898229
0.58992176447339084 0.30363620571965627 0.073707667426789372 -0.23746334469096145 0.075588355472577182 -0.96845111412251106
0.59568417399164642 0.30288035192556972 0.072225329816248657 -0.23788497661024691 0.074562143683860146 -0.9684271911880673
0.59838182600970147 0.30226408472425137 0.071516885263312083 -0.23792556915014715 0.073906977371483357 -0.96846743994849394
0.56211479642385376 0.31263785340595207 0.081125692087136256 0.19052807257857374 -0.10776335372627889 0.97574900110282392
0.52962039247428028 0.31214301203454808 0.088660925733889617 -0.19668468503671166 0.10739167826448143 -0.9745676795951872
0.57548373301501576 0.30761104996371685 0.077831069452456061 0.1914135071241404 -0.10208725479685869 0.97618597700360255
0.56692371505273209 0.30752764300284929 0.079713032123004665 -0.23146480949839457 0.082350183657658102 -0.96935158183985126
0.5619331331486872 0.30778375691285115 0.080941362204761155 -0.2293499560522001 0.083651025206076979 -0.96974280283012471
0.59493891259627629 0.31184751915852399 0.072939779886085992 -0.24149074161475426 0.077497482947137403 -0.96730365545221331
0.59832696544366681 0.31224334025865996 0.072092317624905186 -0.2422133467694299 0.077172357859631266 -0.9671489656868465
0.55739911685562293 0.30762114364947318 0.082023551775055978 -0.22605042829807212 0.085749830515184811 -0.97033405094991654
0.59875440061889174 0.3166980166194665 0.072249180904225704 -0.24408084579972 0.078365264420786979 -0.96658337770000646
0.552461917239227 0.30737013680784009 0.083190657002412807 -0.2200019274139618 0.089022627730222917 -0.97142890819974459
0.57067841256100249 0.29970613736290713 0.078241848495514993 -0.22884492058862729 0.078881507354406827 -0.97026167095185289
0.56639081340670305 0.29861350925611807 0.079180694713552768 -0.22688806047849727 0.079777665838257336 -0.97064789292807152
0.56184580802021211 0.29748321891963997 0.080166137116411379 -0.22389565623826074 0.08111416926213158 -0.97123180892233596
0.55699486346670035 0.29774838048089386 0.080739021260134297 0.18106300931443997 -0.10292019628552758 0.97807137768904551
0.55221447865363582 0.29774386507300971 0.081698474089230505 0.17899781679632498 -0.10438579116781489 0.97829616588455393
0.56495795994153586 0.29468363528628666 0.07922121457614896 -0.22439953224119866 0.079231264334365142 -0.97127094915986711
0.56171576413998614 0.29243401302369493 0.079807511864531472 -0.22156282211340736 0.079826659322635357 -0.97187325321696683
0.55688582635325845 0.29258573310718639 0.080303092696694264 0.178118391304007 -0.10063148263613106 0.97884990850575593
0.55184423317159192 0.29287735938124843 0.081290006358343311 0.17671710396593793 -0.10188088937220215 0.9789746419323746
0.52523509264145096 0.044014741376520457 0.070342888803231238 0.10350303232451248 -0.082765132399024971 0.99117962809906601
0.54739394331614755 0.29253218751202675 0.082954144217471451 -0.20770319771048568 0.087505885898378669 -0.97427003525407618
0.57060404216345606 0.28626417745627603 0.077330728187683759 -0.22341985719746965 0.074827209466416328 -0.97184590143362304
0.56732292627933933 0.28709475323326666 0.078138841473952003 -0.22239280698604624 0.076172605354991568 -0.9719769408758111
0.5621577895806612 0.28746131248216111 0.079346588356546552 -0.21885410263825603 0.078422931783404815 -0.9726010104502768
0.5523581584593702 0.28754277877887768 0.081505213115901212 -0.21018533637553127 0.083500770389281206 -0.97408918776316433
0.54728508004660159 0.28760919791531386 0.08255001174187783 -0.20421041359941597 0.086484076999044396 -0.97509928284415159
0.54248640122603697 0.2877232631802048 0.082617642301720001 0.16959099083303825 -0.10434276114158984 0.97997524663922886
0.5525028417982486 0.2824830380916391 0.081056154107210052 -0.20708828424666456 0.082170274281342937 -0.9748653694497007
0.5664694177165025 0.27884890120135397 0.077441055769248229 0.17433236852456699 -0.091349752085937902 0.98044043576264861
0.56195586802103759 0.2776891777446161 0.078704198020801336 -0.21431711613657925 0.075297506579535267 -0.97385751485204697
0.55686702098074714 0.27772662672261 0.079093905180184929 0.17085601430099651 -0.093791199322468016 0.98082181526861989
0.54753696540961383 0.27743683477356407 0.081628188914831104 -0.19897152994703912 0.08341922475245879 -0.97644844370413808
0.54249329185300699 0.27760260421141569 0.081660063423055818 0.16332163158817339 -0.099414245179449523 0.98155124803077765
0.53271188697577831 0.27766772739919654 0.083384006183868958 0.15720295328553704 -0.10337157992469231 0.98214130752258777
0.56096036349580602 0.27395692333332294 0.07867689860786363 -0.21100804574523505 0.074313332830434925 -0.97465539202038465
0.5569052838798173 0.27311380481207242 0.078719986610087722 0.16930286019723284 -0.092318662876031563 0.98123076083754013
0.54688341309126731 0.2726713161679411 0.0804666955464996 0.16385017273762151 -0.096034302380616277 0.98179964028314859
0.5420920693499055 0.27285582183825102 0.081300442647966251 0.16119079651290905 -0.09779016209222452 0.98206650045580435
0.55249042189453501 0.26754289594532626 0.079905709246346754 -0.19781535302113731 0.07753020646169978 -0.97716843645050722
0.54716933733006912 0.26752365029867337 0.080875121671338798 -0.1929853565281959 0.080632510768989349 -0.97788294308305312
0.54232590748523013 0.26754433883159717 0.080805902125975423 0.15863036986122067 -0.096487764064907805 0.98261208884454854
0.5373480212055477 0.26759628601283147 0.08164816843871367 0.15557617270144042 -0.097988939502819075 0.98295179038581759
0.53277185264023197 0.26739613325736372 0.082366189775338869 0.15264298706202739 -0.1002854187971336 0.98318002078839317
0.55139897696577667 0.25743742450599116 0.079402096209701442 -0.19026599505976272 0.07412709051981213 -0.97893004120569616
0.54736081887396104 0.25773937916177686 0.080133840695799347 -0.18639972463428142 0.07593951515962738 -0.97953475318315519
0.54243511351179552 0.25745876164565129 0.080933626630573116 -0.18205991711922806 0.078217225669616114 -0.98017154222466996
0.53264230465469697 0.25760945772048527 0.08240520019341524 -0.16855309690378931 0.0852504570190038 -0.98199909017381115
0.52771202969473618 0.25742587807542239 0.083032225843919977 -0.16154819632582479 0.088613399964639211 -0.98287834730986912
0.52279485018880945 0.25750355521636364 0.083638615670666147 -0.15492517025936525 0.092520895483925711 -0.98358430015884213
0.55117397609513175 0.25285461226368067 0.078195930733724217 0.15918827574108332 -0.088166222353164569 0.9833035188091992
0.54742398294698014 0.25255705517939614 0.079743039515860606 -0.1832585256349363 0.074494632980456429 -0.98023816618167681
0.54238116223343424 0.25276921655040602 0.079594051000492869 0.15249521712864658 -0.091971049923810305 0.98401551549190469
0.53244827463314393 0.25264542132511819 0.081073166023913429 0.14641416331349685 -0.09567169226985292 0.98458611613176383
0.52748690895513062 0.25241297043884348 0.081803627125654019 0.14188215652753794 -0.097562827677833905 0.98506393107990731
0.52261311784070874 0.2525086839310493 0.083198457072276286 -0.15239902150822446 0.090287316383249536 -0.98418633334529027
0.54236956445884776 0.24754178691188916 0.080205084373971197 -0.17584734171822305 0.075138369405242739 -0.98154568811327148
0.53229610187302301 0.24762327978204726 0.080652854414509811 0.14402193046447928 -0.093850106309732451 0.98511412592193426
0.52760828686078809 0.24741863763504637 0.08217752293448731 -0.15626924991314295 0.08456321216505619 -0.9840878947939109
0.52256381421641707 0.24756532774430959 0.08206465171632564 0.13599338928462079 -0.098074117389484863 0.98584342852663731
0.51270106177843211 0.24733758157762578 0.083716518737876486 -0.13535849632452013 0.094995040249588422 -0.986232234212989
0.50763413235790056 0.24715832652492237 0.084244982965878346 -0.13061387740095784 0.097694330326341353 -0.98660824690065063
0.52262023921868428 0.24260602148992591 0.08232265300463594 -0.14680603207374338 0.085744640290528654 -0.98544195445912031
0.54542451697563055 0.23689866110632474 0.079059247153576886 -0.17332673289667852 0.06958138498771417 -0.982403315612562
0.54184514880695134 0.23775566127884004 0.078561956096321869 0.14544764572618729 -0.086488831508716918 0.9855783400506356
0.53218193849504913 0.2376590261603401 0.079893081002294031 0.13680698785204656 -0.090072043589173464 0.98649423467069486
0.52768699919868334 0.2374835151013131 0.081365250032198383 -0.15038336678551276 0.080589925701680568 -0.98533755985938731
0.52253991459838534 0.23755571161431605 0.081167232887191257 0.12941746693212847 -0.094097071084650513 0.98711542408482389
0.51248052442889891 0.2375364888391126 0.082464099318726447 0.12132442125476002 -0.098140399482250132 0.98774938460960937
0.5076055989991376 0.23732208830445917 0.083062878365981682 0.11829468369828404 -0.10038694985556512 0.98789110134033464
0.50276402297003475 0.23741977255781721 0.083700639276917621 -0.12013627349850847 0.095257820194570519 -0.98817671672716023
0.33137829915835665 0.23684021659081778 0.089838286397612627 -0.037272194428245607 -0.12742143104775097 0.99114810317744451
0.3080882122446113 0.23518619024996359 0.088023035639719929 -0.054385869039610797 -0.12404133471446609 0.99078550884187844
0.5458319307197973 0.23404446666975132 0.077728467279704436 0.14656204763296266 -0.084175520706042881 0.98561353882112424
0.54276802183067674 0.23402993822158172 0.078176072108607789 0.14410933081393293 -0.084994371502345442 0.98590489276871007
0.53193313547662469 0.23294172624720738 0.079550596247483632 0.13485194431553194 -0.088819767293833382 0.98687689305819182
0.52752086816063737 0.23253334503542089 0.08008170381910705 0.13190916670845168 -0.090052013089930188 0.98716290787120486
0.52257706097887102 0.23248835856676359 0.080715781656393856 0.1275388195929005 -0.092565242334196676 0.98750469639817973
0.51249899109987285 0.23263851472022115 0.081981888325958388 0.11995424347633303 -0.096678906650475058 0.98806081213703101
0.50772721722533176 0.23239584480287237 0.082799451097428728 -0.1225037677869642 0.090600861017798448 -0.98832399083540978
0.50269335428032536 0.23236758002678193 0.083147864604746491 0.11317015827738597 -0.10031580363259349 0.9884984849846854
0.33599723688262778 0.23122540936354388 0.088649157678213505 0.052473850037415247 0.11703609548309697 -0.99174041332211638
0.53124541980559736 0.2271876900782476 0.080246642289400399 -0.14978343462364777 0.074736929883522971 -0.98589011255003911
0.52735567309519382 0.22746008631534487 0.080684083003972826 -0.14480486130709827 0.076979387581343622 -0.98646121364675721
0.52236839181314942 0.22768485313306475 0.080349965086924213 0.12598071304366396 -0.090482965425109252 0.98789761256361408
0.51250610328054291 0.22750685297838255 0.081519731258614628 0.11814644932039257 -0.094323761348887661 0.98850616819420101
0.50749106845407399 0.2274992334508521 0.082374238660949631 -0.11919559882524412 0.088738225438163162 -0.98889733368372323
0.50241491987363351 0.22748644164417672 0.082709313481256333 0.11016394940891375 -0.098904981508060139 0.98898013573757926
0.49258803687342917 0.22731886345535812 0.083555139263811432 -0.10488155993134309 0.095786822460283375 -0.98986097156587116
0.36687926596884107 0.22061206316079834 0.088917841014653567 0.031810254878792209 0.11612767344263045 -0.9927247710948629
0.52547358800749788 0.21531233079403841 0.080052172007977651 -0.13717775769159818 0.074099643832475179 -0.98777097830347571
0.52218840097731656 0.21731114953094607 0.080491661660460026 -0.13427756986815101 0.076165909231666176 -0.98801229167516813
0.51241028042325787 0.21758197796115192 0.081219822258373597 -0.12051641968919777 0.082289877150360763 -0.98929478352201761
0.50751329839752257 0.21718782248176499 0.081530038845072331 -0.11401976909270578 0.084646462034496342 -0.98986588420911281
0.50268770391052531 0.21748751443722608 0.081916734295889512 -0.1096715710062246 0.086832988403687819 -0.99016775277622104
0.49243522000583245 0.21765699258196564 0.082638963415921751 -0.099391145578494475 0.091558863123579304 -0.99082711648607602
0.48742539725623041 0.217596315967618 0.083039209700616692 -0.096266646947627349 0.092989093718233343 -0.99100240218423408
0.47241228891256326 0.21743491539612758 0.084650499153963221 0.074525224061837467 -0.10805755342952747 0.99134734383330947
0.29735198453877043 0.21745494363600595 0.084730442274526294 -0.067298227540582539 -0.12159679280793324 0.99029549557125651
0.29232321259501021 0.21731862108833988 0.084296375642976193 -0.07083995885239526 -0.12124858233819798 0.99009114808221987
0.49844211888552253 0.61241098251983339 0.13272463846796456 -0.1859688596742522 0.028123917386785425 -0.98215305757416416
0.52244673670934183 0.21227990960616572 0.079226969045973608 0.11887670085952039 -0.084123362612225167 0.98933896610593897
0.51232749629532703 0.21264489743810988 0.080344371690153127 0.1115184002439857 -0.088234049013363985 0.98983756192707173
0.50734779135157138 0.21248253239788084 0.080822383687210481 0.10792203776932044 -0.090349798494732805 0.99004532607132623
0.49243926602044785 0.21247207678278304 0.08233381751773633 0.092210750207103329 -0.097001223481016655 0.99100350160301098
0.48733202680806131 0.21254400036982365 0.082565929650419589 -0.094266337842088793 0.091507279881711145 -0.99133257551564968
0.482432725506588 0.21255652236671094 0.08293418343504172 -0.091354833234226912 0.093073178210204582 -0.99145936777187094
0.47266911934898076 0.21245766249019857 0.084057116344173885 0.072518130352385066 -0.10540808280280524 0.99178135536519918
0.29739513090320502 0.21249123595098959 0.083532421770824344 0.070759875431225888 0.11833564645158751 -0.99044924898141162
0.29243214710467347 0.21244283903559508 0.083628273590312829 -0.07286012604290204 -0.12091814170199457 0.98998495192621427
0.28759752435983538 0.21224330029073971 0.083198102638982238 -0.076192639573197316 -0.12076080594309829 0.9897532568387144
0.27794982204820312 0.21219787943831275 0.082315589170948708 -0.082110375987711884 -0.12048625212121701 0.98931337259987506
0.27277769599885232 0.21128802303236105 0.081717629000039135 -0.08538346596122634 -0.12053391687129776 0.98903045384058386
0.5220268751341659 0.20787281106348601 0.078989539220744948 0.11721309143771659 -0.082573391376608921 0.98966798787885368
0.51239850359475358 0.20744601937839763 0.079984387497269202 0.1099480663384487 -0.085863487830382293 0.99022163386084316
0.50740565324904852 0.20757017810532349 0.080846668262570517 -0.11043736565814266 0.080968678413775252 -0.99057945737957664
0.502396251384437 0.20780395048413838 0.080987891779708124 0.10039115925685056 -0.089818923621386174 0.99088555146523427
0.49746720874098094 0.207482919948836 0.081437740198318856 0.09532249810945595 -0.091544586065942013 0.9912281322259715
0.39756783550515645 0.057200916358245264 0.073326559927441526 -0.030261983907808047 -0.089933206670328031 0.99548793597308638
0.49242992801069457 0.20753316040276959 0.081776430821072998 -0.095973431489582442 0.087495248008083559 -0.99153097885246044
0.48747022578355786 0.2074398197565987 0.082135096446385891 -0.092935860025578604 0.089293370872168557 -0.99166003238992717
0.48258873954697745 0.20754111049325938 0.082468372195812045 -0.089471519243323014 0.091150068224372105 -0.99180971577565413
0.47257604358927879 0.20753026798463425 0.083542999906746282 0.070324755737086894 -0.10258253973674419 0.99223548176412157
0.45235474590393299 0.2074712461687854 0.084912001126125 0.047639217145026475 -0.11145202304154442 0.99262729740308675
0.50877538866927086 0.61243308983367528 0.13037642462988772 -0.20619513464561753 0.026338792361314017 -0.97815634459191803
0.28752298428274475 0.20742446827798547 0.082152836622711084 0.075722951916903397 0.11961976824618807 -0.98992784868278083
0.27782403015681195 0.2074535852369612 0.08166933743113719 -0.083557647128385024 -0.12039486129430253 0.98920331427886643
0.27262449604233679 0.20743053722511154 0.080930088815076753 0.080987342213106384 0.12125722122356518 -0.9893117489964407
0.49249399936738153 0.20262249273265423 0.081379026164216994 -0.094157087478647511 0.085726808787113959 -0.99185954506306784
0.48748404774035109 0.20243533364277497 0.081722888426585927 -0.090727522947550904 0.087093961325999419 -0.99206005789989704
0.48245756160058667 0.20240396184996987 0.082040230459313759 -0.087136307849876291 0.088881788136558171 -0.99222340810522081
0.28256213754223458 0.2023919833613064 0.081112179968194156 0.078644974392248837 0.12041979490543359 -0.98960297139700215
0.46751691627866443 0.057420602716679293 0.074479920123926707 0.037211658676336141 -0.08358483691750955 0.99580563740924322
0.47250060504915992 0.057452882984891825 0.074365766387673518 0.042935619157394904 -0.083410947946607306 0.99558984846683707
0.52177266804741163 0.19767003046612741 0.078462902702167173 0.11305999865666168 -0.07841309339711415 0.99048918393269247
0.51178290754345124 0.19828282793802293 0.07992968988233283 -0.11186691857494253 0.076130576376991083 -0.99080266848099185
0.48765989093855111 0.056964645161617346 0.073825039332246628 0.060321287105184432 -0.082987060365508458 0.99472332340900982
0.50738597782211758 0.19762912362571072 0.079847082153527746 0.099629477142553213 -0.083008414952528489 0.99155613574389734
0.50255415403755455 0.19748511211219727 0.080255765127431641 0.095720482059181114 -0.085048177087802893 0.99176831815116961
0.49237120047225263 0.19762313065546241 0.081019608122232634 -0.091372244274772169 0.083887569751813926 -0.99227717328240794
0.4876530269364418 0.19760736038871113 0.081343410757527906 -0.088797197429415706 0.085205188652008074 -0.99239867671992443
0.48257226663909386 0.19735698272823798 0.081629294988092543 -0.084861296729475066 0.086740898221746285 -0.99260998226548003
0.47240974583882478 0.19745702002561219 0.082580624310742326 0.064398745303677812 -0.098191506894685962 0.99308168323510171
0.46755590376092165 0.19753415291003593 0.082597042160889325 -0.073572014767548127 0.092051937653902655 -0.99303252686767807
0.32749725595787532 0.19738722540864778 0.083664598756334863 0.062232727683448355 0.11599772423409983 -0.99129794490737622
0.31763996341621265 0.19755774635166995 0.083437463089182609 -0.059895490905133429 -0.12116872059812815 0.99082322909681819
0.31256356904035371 0.19750803995707919 0.083112086526203291 -0.063627932773348161 -0.12096240837055189 0.9906157589762975
0.2926624293011581 0.19759643891765344 0.081669198500216603 -0.077217316610808509 -0.1202975973888108 0.98973025318917363
0.31823442497667381 0.064508856280176191 0.067901556385569897 -0.087538337418716847 -0.10675432357928179 0.99042443118043944
0.28767316392358472 0.1974184083886204 0.081221085055102199 -0.080792267187278194 -0.12022678092709788 0.98945345050216849
0.28281880833112877 0.1974822674516665 0.080500133441915186 0.079587984875940182 0.12061914882128354 -0.98950329640735213
0.27821858430694879 0.19765888721360192 0.080137629420907588 0.081360246942575876 0.1212136485726981 -0.98928649117287426
0.27488750521900551 0.1999454846303291 0.080149316779461924 0.082285669870512682 0.12157860161202207 -0.98916515919437142
0.51690086310591055 0.190116586031711 0.078505090164498345 0.10545281277144253 -0.078041390245700337 0.99135727449144662
0.51154204957320104 0.19204768419453425 0.07957955439548256 -0.10983635724655101 0.074208210002034217 -0.99117562328535003
0.50729244052750078 0.19262702789681643 0.079544412169458664 0.098557616574890025 -0.081447839476231867 0.99179264247106158
0.50263283777450984 0.19270068017820774 0.079958471945257598 0.094419266126445064 -0.083187661449987391 0.99205081279470053
0.49257488725137655 0.19251321959557277 0.080769721694650021 0.08366938632479283 -0.087373220281330141 0.99265570777067647
0.48740982842750397 0.192604912668638 0.081009666461023935 -0.087003683330508161 0.083292889593898578 -0.99271982635083056
0.37764240796851672 0.062480515680319704 0.072415017808492188 0.038812830720962782 0.086323250362242379 -0.99551085409367768
0.48263302331496344 0.19262999360027039 0.081303635075821015 -0.083301261002945895 0.084704565920994096 -0.99291794042984993
0.38733426042592739 0.062342614908234999 0.073229159453295431 -0.038668770458831811 -0.091801858960837146 0.9950262031135344
0.39239616634423446 0.062538587591927972 0.073251707633795501 0.026022364891416242 0.081384637419975855 -0.99634300184097091
0.39732346037892596 0.062365115287374144 0.073733991795349826 -0.030138402089263511 -0.08997328137621495 0.99548806389524447
0.47250659757156543 0.19246934194002135 0.082135527817995796 0.063408666000064104 -0.095848555575729147 0.99337424743655334
0.40693959065887469 0.062353125835475018 0.074135546307339706 -0.02216480708240871 -0.088542817729709095 0.99582573312577294
0.41259338358324099 0.062032658212971346 0.074062209081800986 0.0082373555776733311 0.075304829965055081 -0.9971265358804875
0.4173549434332649 0.062672761299795293 0.074268696611124813 0.0034611741121295865 0.073863564542442542 -0.99726234968881178
0.46737381724689581 0.19237643119345385 0.082398163978237238 0.057762401227801977 -0.098521974562931325 0.99345705771946646
0.46254784291333945 0.19246014536472605 0.082466783127554733 -0.069419307014376486 0.091352830010836009 -0.99339600374807979
0.45251372330237211 0.19251187831098929 0.083222402675616328 0.044121024806469428 -0.10406133119317847 0.99359175445468073
0.44732138459406218 0.19252774486573337 0.083444987697505454 0.0382407278881619 -0.10669763668983376 0.9935558671032988
0.44236222361744604 0.1925005988695018 0.083665123420799875 0.034646486964184389 -0.10761334354776843 0.99358894379492291
0.43265953670340174 0.19239213989288928 0.084062288908387725 0.027335519450459034 -0.11031495675513202 0.99352069917666386
0.39267589768453032 0.19230691232583802 0.085313933776824447 0.0039571043890670714 0.10776489695043968 -0.99416853114052806
0.3875716918767419 0.19232326049546292 0.085303348483334374 0.0097432980302135618 0.10825949971497724 -0.99407492115280593
0.38230314668774273 0.19253977193129099 0.084985125312933729 -0.012409303419026491 -0.12148508799871843 0.99251568379678423
0.46734083623227785 0.062409826067200462 0.074854840346618032 0.037300287460143619 -0.083311933427460502 0.99582519063536901
0.47243580432169641 0.062524563210590647 0.07454172002816993 -0.049711821098165354 0.063231151373215541 -0.99676002946502706
0.33758517246345321 0.19242036553005246 0.083822138545013636 -0.046352893512436232 -0.1217614080396789 0.99147645901212389
0.48222740020582505 0.062550037819082333 0.074426395718344709 0.054041186124467393 -0.082734722508735245 0.99510527879901389
0.33252310756095532 0.19247499712747096 0.08360036474472203 -0.049619224019658903 -0.12161620439008991 0.99133618487243502
0.49249278710039862 0.062569645369192711 0.073996062963581424 0.066281640835083602 -0.082341589763585243 0.99439760995459681
0.32756325221377974 0.19262043482211591 0.083075179387985559 0.062815993624318986 0.11588268441636183 -0.99127461099205372
0.31754864932293198 0.19259776877798909 0.082781254463992482 -0.061075844942555232 -0.12078247503367186 0.9907983320985625
0.5076095428537295 0.062344504218715471 0.073078778492208243 0.082613197097760827 -0.081843972529017719 0.99321529580748802
0.31267203577547459 0.19255455900257851 0.082102104146346749 0.06897722815103266 0.11730646539622051 -0.99069739838804749
0.29767473521037002 0.19253638623204569 0.081030837572806283 0.075498347689976208 0.11918013626396518 -0.98999802758196753
0.2925713947357963 0.19260600067039238 0.080647800511811474 0.077332496844902371 0.11974456363417002 -0.98978832303265507
0.2874877455982055 0.19252534274271457 0.080562020323466224 -0.081925960002837805 -0.12010379609504011 0.98937516405111692
0.51244602786352111 0.18748867140885192 0.079264931986985365 -0.10955656739853861 0.072344629446216571 -0.99134434639540814
0.50753680449245586 0.18754554434634615 0.079586319671986247 -0.10436902369058121 0.074281832454145588 -0.99176071522375242
0.50233401817275447 0.1876614267146714 0.079649752511818536 0.092742603368708862 -0.081669756890680664 0.99233505446991621
0.49258181795689154 0.18743063427404838 0.080313852811326372 -0.088276639215448302 0.080325741534108139 -0.99285195785465474
0.48744892662428629 0.18753227549576668 0.080638611986081923 -0.084980352418416685 0.081834102332586547 -0.99301637418436439
0.48228059943700824 0.18761417813642925 0.080956998204068251 -0.081282827670308269 0.083089038203288598 -0.99322168404458999
0.47261422568881623 0.1873891700308262 0.081702184534385686 0.061868192768170724 -0.093688068858231888 0.99367744891248067
0.46754256110604347 0.18742195448192367 0.081768272190606964 -0.06979517116458625 0.087469055128297724 -0.99371917485629158
0.46230303369615583 0.18752468131160149 0.082091763352535554 -0.067034288182371629 0.088720376357344602 -0.99379831909039473
0.45238238515237711 0.18760342549590797 0.082621487991438605 -0.058727177606969244 0.091902599765052537 -0.9940347231192399
0.44748137256943504 0.18758876804633959 0.082916417546204685 0.03718586342831931 -0.10421469939056434 0.99385940051499477
0.44256707832913578 0.18743350457445268 0.083180570371947371 -0.050209356211368912 0.094876732259605287 -0.99422202058925402
0.43249218807235712 0.18762443131673864 0.083668829830860797 -0.037708154441187441 0.098354038567035326 -0.99443681457707189
0.42769224430882236 0.18726599459860058 0.08382943315544196 -0.032233647430180749 0.099127353908987428 -0.9945525424432583
0.41240132156778558 0.18714972937503316 0.08404793325841943 0.010822107621323468 -0.11415319593712457 0.99340421271704549
0.4074350097373225 0.18726763342245148 0.084452343538834851 -0.012498064311531937 0.10356086555942204 -0.99454459201840129
0.38736741457364676 0.18732312618178545 0.084659748933666235 0.011113591956737747 0.10706084438706273 -0.99419035585392213
0.38244062802330692 0.18731092947514749 0.084638395653186635 0.017718098194345173 0.10789580387846064 -0.99400430809015927
0.35749326321878921 0.18751333241860199 0.083887508703725869 -0.032378383376403377 -0.12108469710790669 0.99211397350113817
0.35269468592735609 0.18752999180281876 0.08378557426337116 0.047129555220832592 0.11238865725452103 -0.99254601643712836
0.34764360974696984 0.18754606528627724 0.083579257006921204 -0.039789856593487494 -0.12125206124508137 0.99182392840467848
0.39753564509687617 0.067406803275912308 0.073886822416175071 0.021262721919495273 0.079856814500488427 -0.99657954315468911
0.40242519321832571 0.067314145181055995 0.074351328024021987 -0.025596567558492371 -0.089121430068232435 0.99569181297820097
0.33754429985164092 0.18743410237243546 0.08300631845860626 0.057795653641552515 0.114377263527618 -0.99175476001281659
0.4122849396655805 0.067694638897497328 0.074450023541802537 0.0089761612071919007 0.075692960653589339 -0.99709077031004389
0.33252134094624874 0.18753357047842506 0.082732833555424615 0.061244704040691246 0.11518361102726013 -0.99145439732631635
0.32747430582867526 0.18742085818607723 0.082399793327942436 0.064189513261299846 0.11574675006346066 -0.9912025001164112
0.31744112597552726 0.18759720489571916 0.081795070475439657 0.067968114460384921 0.11678850788368228 -0.99082833015765315
0.31248621009526539 0.18758510766475386 0.081466653314083565 0.06962855662763473 0.11727017747771445 -0.99065613084273474
0.43762571027535235 0.067407983396630206 0.074963837919178003 -0.014965157448217704 0.069198174363385365 -0.99749068002028196
0.29746447533234921 0.18755953941478937 0.080374228153867258 0.076480566682997825 0.11928078132636513 -0.98991051016039799
0.44716713636542177 0.067297187817294171 0.075351691173858676 0.015184777529116202 -0.084290881503545981 0.99632548387901154
0.29249916839253459 0.18754982953072052 0.079994916910105116 0.07841421591253267 0.11994479669804214 -0.9896789663764145
0.45769645502275008 0.06751524131804941 0.075000725102708984 -0.035254260709904173 0.065158079830464274 -0.99725200512939804
0.28785568547722235 0.18791184693189114 0.079677967998077276 0.08006176593181466 0.12054727675072523 -0.9894738337641189
0.46769871905796584 0.0671051833726687 0.075177805094234315 0.037206905900007053 -0.083063121387706537 0.99584946855369616
0.47281545820464282 0.06722082708393938 0.074756532078091922 -0.049128747077995055 0.063294067361132897 -0.99678494533546746
0.4776204488675766 0.067406596683712336 0.074703452124078903 -0.055322506190630692 0.062652470485889455 -0.99650092235321197
0.27953254901216457 0.18583366986375754 0.078994591220980404 -0.08807808319769847 -0.12033235852350817 0.98881867637721599
0.46757918127943721 0.18234895886528416 0.081380964519335394 -0.066891336284182923 0.085229164121819134 -0.99411344358338316
0.50850978476353337 0.61738388415142142 0.13044993732281604 -0.20436285900322088 0.023892589267720397 -0.97860357961644184
0.32733977553317234 0.18238287703920117 0.082008283382826119 -0.055768759702900655 -0.11999565333459598 0.99120678398707684
0.31751968756048937 0.18260649745434263 0.081484811611498245 -0.063800384745762925 -0.11998541808981532 0.99072347824814611
0.31246049145332955 0.1827190173565299 0.081173157879181085 -0.067724597189114596 -0.11984657208050903 0.99047977167437573
0.29285967717855688 0.18293815599556285 0.079427246988256567 0.079057874416896379 0.11997769865762636 -0.98962376907464289
0.50183486112765008 0.17840868231790183 0.079209155466541226 0.089190103182159197 -0.078657375679031957 0.99290389401273038
0.49210476358285171 0.17766851780831155 0.079798863759670088 -0.083829449743948334 0.076683412506621015 -0.99352517713541921
0.48724250106282391 0.17757622587705271 0.080056908804508678 -0.079465915374063847 0.077832445607941322 -0.99379438452048474
0.48263715811199137 0.17729223771577804 0.0803902933355988 0.06986136458336499 -0.086215810531105247 0.99382404063949603
0.47227638423379276 0.17762975924188046 0.080954681722612262 0.058642152212463938 -0.090652394876875583 0.99415453591832359
0.46738058487834655 0.1776231999015021 0.081181815204172045 0.054200482899017889 -0.092238665766700326 0.99426069830356478
0.4626043234791547 0.1773650368383958 0.081382222746982411 0.049324016889074521 -0.094072067620122685 0.99434279172305629
0.4575095160839433 0.17748946711792271 0.081591694810082979 0.044504056654052077 -0.096015685848876903 0.99438442114320291
0.45243305837193054 0.1775537877893982 0.081783308681836198 0.039841752077228863 -0.097880122285575868 0.99440038035631162
0.44747924477443923 0.17757854132640413 0.081939944657374891 0.035502353234330118 -0.099948582328805463 0.99435902158389788
0.44255918613318779 0.17752126627381828 0.082096942342321774 0.032461110252938477 -0.10149499605298219 0.99430631200719621
0.43753264293496114 0.17753165114592898 0.08225938298200354 0.029698509263723957 -0.10269766064083674 0.99426917333608011
0.432574020717095 0.17742768584728427 0.082419567522423021 0.026317176495025539 -0.10390341940366558 0.99423914912738953
0.42751607015865251 0.17757704370635072 0.082576860053775819 0.022177198679387479 -0.10552372325425714 0.99416946024774566
0.42258261980199646 0.17773321186530233 0.082730214387798165 0.018388634756123904 -0.10697517398133581 0.99409163071794782
0.41256061734924343 0.17772128914515672 0.082947843515836575 0.0088486128968992793 -0.11054678343477629 0.99383153035211436
0.40760982253861799 0.17747806539070937 0.082992676727671591 0.0051439342972734517 -0.11134799770285179 0.99376816378243427
0.3824118841218373 0.17751360645525979 0.083428233742994115 0.020399903799863534 0.10558178114264744 -0.994201353557569
0.45234817235146391 0.62694982095115448 0.13893497436162586 -0.11695468000930354 0.030828621088471758 -0.99265865177597923
0.34733732802393996 0.17740370203025346 0.082270592759152439 -0.041907906553650856 -0.11897890127077779 0.99201196989788842
0.33739984929075795 0.17747736869191935 0.081870538895449818 -0.048885759513626906 -0.11941900241181022 0.99163969483867676
0.33236186530415296 0.17745515838969633 0.081444115944352843 0.062345824397103768 0.11439060918679538 -0.99147757751253218
0.32748276060299053 0.17747053251288811 0.081385236912503198 -0.056697547441535399 -0.11945034984636725 0.99121995643534899
0.31744308655128944 0.17769530419939072 0.080848144831815988 -0.065007917034570262 -0.11955243151361858 0.99069732352621598
0.39238484304307275 0.072687918185658618 0.07432715046758348 -0.033339262247832034 -0.09085592528453558 0.99530582959885316
0.31234156964234672 0.1777259747047884 0.080201179802007277 0.071228657853380756 0.11712943930134602 -0.99055902032607746
0.30759518857013646 0.17756979561456429 0.080174929384187965 -0.07200084827085404 -0.11960772214337219 0.99020698374226357
0.29768662986716637 0.17788142767855883 0.079505949670641715 -0.078586494149103944 -0.11977982201820787 0.98968528188239691
0.29251242519458476 0.1780234956687724 0.078760271671143758 0.080184483736596604 0.12015398932328075 -0.98951173182413377
0.4172985221391789 0.072284813887393454 0.074947129153463118 0.0030266773962964654 0.074037134899705065 -0.99725089214288576
0.28774216367520944 0.17800264445749406 0.078369150888982109 0.082744710287395454 0.12109548600842354 -0.98918612818207197
0.27894591920756151 0.1777304742811775 0.077915825194012106 -0.089488304362636384 -0.12054542161656027 0.98866609363808255
0.49715143010186058 0.17250546686213991 0.07918059642664374 0.083948581895356408 -0.079169634453554974 0.99332009170168767
0.49239780992275445 0.17251324982714433 0.079497692852405363 -0.081307606687971809 0.074948933528430892 -0.99386705874459136
0.48693556546842054 0.17255928552034441 0.079766837659080034 -0.077214073823401105 0.07645871143285253 -0.99407849400820569
0.48241132589965341 0.17249136757077449 0.08008341105061105 0.068881760230927722 -0.084586676946216299 0.99403239242525965
0.45246266311830552 0.072460461971217818 0.075269991222726332 -0.028649487773814885 0.066307486316656172 -0.99738785039154376
0.47252761213653399 0.17252812529688621 0.080567162116065516 0.057913660594462853 -0.089084657048840582 0.99433894210929896
0.46717694980996571 0.1728081674660964 0.08081115036848481 0.053007949020123554 -0.09119882372417025 0.99442090278312623
0.46249703439100825 0.17246648879252005 0.080978523259544494 0.048265365065042712 -0.092896787176082088 0.99450522445460277
0.45263221099593343 0.1723726472405416 0.081303579317434552 0.039497777383480648 -0.096733415236730458 0.99452630531243535
0.44759348078162764 0.1725136019150964 0.081459119154634094 0.035485361346640508 -0.098674460736805164 0.99448687267776392
0.44247913377022213 0.17264150869760694 0.08163985076791451 0.03173238718510301 -0.10014608002644594 0.99446659987094155
0.43267055147018191 0.17232838871821804 0.081915898115741237 0.025560924869353057 -0.10243936030312653 0.99441078864848886
0.42754835919018935 0.17258240643590181 0.082078958630285567 0.021467275421571171 -0.10405765939154665 0.99433955951069719
0.42239850278586066 0.1724898455407132 0.082187782160194608 0.017331173034299804 -0.10544074151390415 0.9942745498453901
0.41246624153001982 0.17267134835421274 0.082404245898602499 0.0082499833425926841 -0.10867539683561644 0.99404305535397619
0.40757883920165283 0.17253119981124546 0.082776598263633927 -0.0057190206080980199 0.097061899249930861 -0.99526191553644838
0.37746349963182912 0.17259806389473223 0.08241808396066419 -0.018654226125491891 -0.11515339792802064 0.99317255036236773
0.37259534166614061 0.17257972405068395 0.082614257493177412 0.032266507243641503 0.10633933673549635 -0.99380622757806814
0.50834842610082942 0.62746192640788201 0.13049247627131144 -0.19937468547217232 0.019418309231555679 -0.97973091410828728
0.34751990532930294 0.17242201902179577 0.08165524899843439 -0.043000428028807769 -0.11796854328384382 0.99208587631556733
0.34252568593950206 0.17249245226421658 0.081463140271278794 -0.046301820152252066 -0.1183114605344877 0.99189643600367117
0.33749903482039523 0.17247423659804786 0.081233801090455304 -0.050218821838285944 -0.11853529608535393 0.99167910813686699
0.33250453907479416 0.17255938895153641 0.0808487339778447 0.062517991996842576 0.11403683622585067 -0.99150748895824337
0.32732473345036184 0.17258037760434342 0.080750089498130354 -0.057821070048864651 -0.1187808359084843 0.99123551029979051
0.31794779997366368 0.17275325339519737 0.080224486145559729 -0.065388764194949836 -0.1189971945592765 0.99073910652809039
0.31309539251603685 0.17318668381399807 0.079667348233569912 0.071684891802569789 0.11689977763569921 -0.99055323848644194
0.30851858357975637 0.174089553836518 0.079795165908041851 -0.072126498712044004 -0.11950555132346333 0.99021017535996692
0.29323133934992385 0.17326262939668297 0.078561113870025789 -0.082335427853686471 -0.11989315495217089 0.98936672104723888
0.28826384657251025 0.17368910886238373 0.078212804191100063 -0.085067787568110079 -0.12011630379671487 0.98910845971535499
0.49745294009267205 0.1675783874499473 0.078866054047299933 0.0831498545920826 -0.078136712306338535 0.99346905129011043
0.49238413827873334 0.16739687053340307 0.079232032441267961 -0.079815947357126923 0.073148801737980829 -0.99412205857821201
0.48716118892949489 0.16766359549495763 0.079487674395749774 -0.075788184838670739 0.074721849080142372 -0.99432026847937882
0.47721459808930561 0.16752483885290897 0.080030618252259419 0.06232961810114869 -0.0854321338568345 0.99439246236686285
0.47247988862086765 0.16735647588681477 0.080188588935581354 0.056902636749114305 -0.087827601975406316 0.99450912628404164
0.46738997687963219 0.16753472475638856 0.08041261785715749 -0.05991110907381695 0.079363722738680947 -0.99504374703959775
0.36260083057857506 0.077717680292446509 0.072700309397638302 0.050881147401063802 0.092116376000332734 -0.99444742551414789
0.45740693685988987 0.16757716322302538 0.080761251762151792 0.04288419137789929 -0.093581741628417064 0.99468759103733462
0.45264575899218346 0.16739331998766149 0.081049450293766409 -0.046712062247622484 0.083234683681210425 -0.99543456373237471
0.44770689831805716 0.16742880246778877 0.081285156956299037 -0.042368141199499741 0.083850768199577236 -0.99557721412436917
0.3820451340692716 0.077363149736011425 0.074174670207685353 -0.041305033731400105 -0.092881888940896246 0.9948200082905545
0.38737986603532382 0.077454106116230242 0.074125633778981459 0.031122466223540882 0.08395284271644754 -0.99598359037485751
0.39250355832561246 0.07715182201643403 0.074351624996026433 0.026840076232201686 0.082300244810824458 -0.99624609410121556
0.39697351625038912 0.077215473674319177 0.07458052505597082 0.021869034387628029 0.080492087483990241 -0.99651531307221886
0.40265361818621254 0.07711117269247969 0.075103104274785365 -0.02512873408790485 -0.089226196779527506 0.99569434694157055
0.442579980225415 0.16754139693631387 0.081178890186951569 0.030956137866723049 -0.098625923927565459 0.99464297346224206
0.41254592347279961 0.077352585366028709 0.075107004663775873 0.0090582059266426512 0.076205412731512739 -0.99705099366873429
0.4173092722534229 0.077707054995993022 0.075613899643453941 -0.013405331396564048 -0.087149883500093783 0.99610501198220491
0.43253765543696837 0.16750126366515647 0.081780932658080147 -0.026176245106833858 0.089237365403871394 -0.99566635817822169
0.42746267686139844 0.077033725159134703 0.075840922998599999 -0.0033906433496918831 -0.085757307778445147 0.99631028685860124
0.43252590591653828 0.077176942455089353 0.075523853838585411 -0.010078662744915234 0.070673293616355728 -0.99744859823786947
0.43773673139248537 0.077260547695895701 0.07596614856579105 0.0061510501696345893 -0.084705574504121528 0.99638703836899511
0.42762030138577656 0.16744207688247542 0.081905196036657302 -0.0222662370766879 0.090317041518188895 -0.99566412343613475
0.4474849120755805 0.077174543162650849 0.075570132647364716 -0.023274645412598872 0.06755572209283621 -0.99744399105585535
0.45262268326732391 0.077406865436243699 0.075561485700804371 -0.028871537082649033 0.06641219256215164 -0.9973744808373497
0.45771327989059218 0.077321563920243086 0.076018066706521933 0.026826121476369823 -0.083068465359819918 0.99618270877851489
0.42262976138609187 0.16755755404417108 0.081691332494425395 0.016383912245373909 -0.10373946569657648 0.99446955241300605
0.46735397228976033 0.077360209820577119 0.0754334252997413 -0.043779483147657373 0.064039113336030712 -0.99698663422257527
0.47251964810631664 0.077349673208663039 0.075311356018982117 -0.04901369448196858 0.063371546999986983 -0.99678568648634625
0.47763791714396003 0.077303713277428077 0.0752127814073313 -0.054494923371285989 0.062806727510376373 -0.99653681231863933
0.41236393708568242 0.16757650667936103 0.081873836714580039 0.007488814463979105 -0.10687967696945339 0.99424375899918493
0.48765223726453411 0.077269549005408431 0.074942198282077391 -0.064639934211750016 0.061831583877667386 -0.99599123195953865
0.40725436591040187 0.16745625119603538 0.082244104983499683 -0.0034047586719331883 0.095434899232075515 -0.99542985068107614
0.40242751054543002 0.16746045028308024 0.081926596810180635 -0.00016195895964302127 -0.10933240073280071 0.99400523133396923
0.39762690036576182 0.1676093743211457 0.081973455595546002 -0.0043426492876772705 -0.11044702893416493 0.99387252462113063
0.39254393843633018 0.1674288625797023 0.082265565699700463 0.011882620416618809 0.099502147033995486 -0.99496639444136992
0.37248389140689803 0.16751131302777211 0.081999346572627863 0.033041741225130698 0.10514825097536765 -0.99390748495704195
0.51755210453165212 0.077436129654005523 0.073444406120286437 -0.10158695175902042 0.0593414026987387 -0.99305522966150106
0.36737714858513454 0.16745873183661258 0.081629241920498516 -0.028450003103085715 -0.11501457075078564 0.99295631617833369
0.5276659182167367 0.077349948532715818 0.072382575189462145 0.1021914398754355 -0.07903953898820984 0.99161971586526876
0.35265426298957897 0.16744603671840833 0.08125640757232265 0.04862625647712137 0.10940688764180811 -0.99280694000271474
0.34762585503985077 0.16744109228817716 0.081051473582073694 -0.043935429188263965 -0.11704579078462965 0.99215420218917771
0.33744890242131009 0.1675550476857976 0.080503293877762311 0.060692421515535055 0.11277427907253137 -0.99176529075696707
0.41247409374753474 0.16239853599810028 0.081683370985636758 -0.0057395176805167718 0.092826379573560061 -0.99566576781169913
0.39251122848203851 0.16252784394467334 0.081436178958274721 -0.0094241871682482093 -0.10940416407512943 0.99395267169983503
0.35749602631633021 0.16246414970848475 0.08088227271495875 0.045337402138778411 0.10753411485282766 -0.99316712295067722
0.35247132350402965 0.16263991804354314 0.080670925431186105 0.049464999969173744 0.10888051993350714 -0.99282337107718144
0.33279747998978032 0.16332398583021854 0.079706900864400673 0.063151364990795655 0.11299988132325914 -0.99158606884159517
0.32831249489060477 0.16357624291443554 0.079449500263822373 0.065993183906895528 0.11393168298691841 -0.99129434139896055
0.50105730612803301 0.1583470849731852 0.078210798944460036 0.084778493895917253 -0.074925026118907917 0.99357880786267827
0.49208217916359803 0.15834126550970937 0.078811471093386223 -0.077050708338846904 0.070701107001558502 -0.99451724058119584
0.48718331698569356 0.15825841724526779 0.079028805071482605 0.071130043235788226 -0.079375607004747398 0.9943037915858024
0.48246882279369968 0.15797378415719274 0.079207314735599402 -0.06818413146893483 0.072750251924755163 -0.99501674612074331
0.47153434228260177 0.1578837689239756 0.079662611904978656 -0.058716361273399305 0.075483454806618333 -0.9954168156954496
0.35260406782316855 0.082455136461785636 0.072712760990266606 -0.062527484897109409 -0.099398208318697695 0.99308122015043387
0.35760320442268673 0.082654113811442997 0.073089814217201801 -0.058942084765541893 -0.098320026562465357 0.9934077727802656
0.36260649969193331 0.082546026714098469 0.073430460215197904 -0.055046435594456149 -0.097024822167923908 0.99375855911364508
0.46722622022023086 0.15785693092640285 0.079845261652195618 -0.055566662404552859 0.076217215911446465 -0.9955417028070328
0.37255102588486794 0.082416643374402701 0.073731936423935648 0.043069420913824943 0.089209367334106587 -0.99508125987880824
0.3773092192774396 0.08228345367810283 0.074300970725544618 -0.044461037072839729 -0.094041638353646401 0.99457497778607395
0.3825020284184476 0.081558254711409844 0.074219182842013939 0.035054286137929207 0.085862818540008573 -0.99569009908491402
0.46253943010173659 0.15728789832040063 0.080005681352466898 -0.05085740485737008 0.076919679234157962 -0.99573936716275702
0.39225893369944614 0.081708634479512515 0.07469402661696152 0.026503604714839892 0.08248505038290814 -0.9962398182167026
0.39737385170021844 0.082036325742120816 0.07494291809703453 0.021620238609704964 0.080770027986387022 -0.99649825281409188
0.45246490250058397 0.15751320760532975 0.080400918973657587 -0.041229086963215457 0.079604357632470105 -0.99597354815984007
0.40772880069894452 0.082077867796625209 0.075669647310782878 -0.020306144323282271 -0.088397903026140839 0.99587824117374057
0.41270254891059976 0.081906292159885305 0.075800786805543557 -0.016721757419797121 -0.087778601052646496 0.99599964860738466
0.41736366786267909 0.08231775334040993 0.075957796806616948 -0.012749676579021594 -0.087150134033592078 0.99611359788181653
0.44748783339919879 0.15777755281623418 0.080595584422393229 -0.037594823324073136 0.080625934814860856 -0.99603518406452973
0.42732482700825514 0.082090326327899837 0.076140531839924211 -0.0035183638240351375 -0.085692773908371309 0.99631539665704782
0.43211184472962111 0.081844939000628877 0.076231012454563013 0.0010275294417221121 -0.085179902550372916 0.99636505778994244
0.44271597317815076 0.15735268556880541 0.080728356164117443 -0.032867940074346395 0.081489446852612141 -0.99613210397362684
0.44277980497390096 0.08193639401387498 0.076348881253796977 0.012095972270290401 -0.083971673907471289 0.99639472370944127
0.44746744054312532 0.082293599511899074 0.075878209751087472 -0.023811136278281884 0.067640487102015701 -0.99742558333629028
0.45260916901384979 0.082379604280256563 0.075835287689627912 -0.028496001751451585 0.066714355782818521 -0.99736511499884772
0.45726959798480166 0.082394025478697161 0.075816467244701508 -0.033482735937005174 0.065719546344071927 -0.99727621430700042
0.43248788415030121 0.15756047459141845 0.08065552788113256 0.021939016573754171 -0.097721202840951996 0.99497198255382757
0.46745757379927322 0.082103635685185403 0.07615398937197386 0.037586851685375865 -0.082016381989278492 0.99592195560986119
0.47225628262540387 0.082379676998656254 0.07557926223832373 -0.048682592488757448 0.063453064136257481 -0.99679672643939476
0.47783713096209629 0.08211587656920448 0.075887990547025955 0.04901511136106676 -0.081163680978660405 0.99549483963918983
0.42728540876230087 0.15753121971464612 0.080736820389552252 0.017315226123661778 -0.099073752066722226 0.99492943196776928
0.42253453827319704 0.15748628002768655 0.080798497854654178 0.014263370040558379 -0.099969389756556545 0.9948882738211301
0.41260026327408872 0.15739669071748455 0.080916754562768672 0.005715758904093364 -0.10263331563793698 0.99470283633923251
