0.628162 0.387363 0.0535848
0.632084 0.386977 0.0516292
0.636175 0.387765 0.0496162
0.638424 0.387151 0.047779
0.641695 0.387141 0.0453127
0.642736 0.387171 0.0427268
0.611937 0.392869 0.0609673
0.615349 0.392471 0.0593561
0.619132 0.392858 0.0574752
0.624274 0.392636 0.055258
0.628494 0.392413 0.0532904
0.632136 0.392378 0.0514205
0.636564 0.392495 0.0494292
0.638843 0.392229 0.0474313
0.641617 0.392383 0.0450908
0.643265 0.390345 0.0423721
0.611595 0.397117 0.0610788
0.615816 0.397658 0.0590359
0.618847 0.397167 0.0574721
0.623923 0.397286 0.0551763
0.628133 0.397296 0.0533351
0.632145 0.397725 0.0516143
0.635742 0.396692 0.0499755
0.638462 0.397696 0.0476886
0.641188 0.397295 0.0452488
0.642122 0.398093 0.0438745
0.611501 0.401995 0.0612814
0.615676 0.402141 0.0592439
0.619251 0.402555 0.0573495
0.623809 0.402306 0.0552595
0.628002 0.402383 0.0535295
0.632291 0.402326 0.0517783
0.636603 0.402543 0.0498065
0.638596 0.40288 0.0478414
0.641288 0.402098 0.0451483
0.641681 0.402593 0.0437775
0.612598 0.407218 0.0607816
0.615977 0.407381 0.0592586
0.619528 0.40731 0.0574912
0.623814 0.407389 0.0555276
0.62827 0.407405 0.0537136
0.632426 0.407387 0.0520577
0.636585 0.408117 0.0501036
0.63916 0.408065 0.0477198
0.641699 0.406996 0.044884
0.641468 0.406005 0.0437056
0.611748 0.412243 0.0614315
0.615659 0.412322 0.0595366
0.619778 0.412342 0.0574448
0.623447 0.412311 0.0556738
0.628375 0.412394 0.0536067
0.632354 0.412421 0.0519886
0.636702 0.412058 0.0502207
0.639294 0.412657 0.0476383
0.641486 0.411858 0.04501
0.612322 0.417045 0.0612152
0.615189 0.417228 0.0597744
0.620156 0.417245 0.0574665
0.623638 0.417485 0.0557839
0.628334 0.417375 0.0535674
0.632576 0.417613 0.0518626
0.636089 0.417177 0.0503913
0.639245 0.417859 0.0472879
0.641093 0.41708 0.0450265
0.612742 0.420626 0.061103
0.615484 0.422575 0.0596069
0.620486 0.422427 0.0573219
0.623486 0.422383 0.0558014
0.628295 0.422686 0.0535125
0.631922 0.422552 0.0518273
0.635716 0.422864 0.0499933
0.639105 0.422806 0.0473562
0.640687 0.422387 0.0450003
0.615361 0.427341 0.0599067
0.620449 0.427532 0.0573568
0.623841 0.427812 0.055697
0.628181 0.427655 0.0535368
0.632082 0.42732 0.0517045
0.636045 0.427972 0.0494231
0.638354 0.427206 0.0474219
0.640554 0.427006 0.0444951
0.61553 0.432668 0.0599455
0.619955 0.432167 0.0577003
0.62365 0.432571 0.0558209
0.628138 0.432654 0.053725
0.631838 0.432364 0.0518965
0.635597 0.431601 0.0496128
0.638014 0.432004 0.047387
0.639147 0.431951 0.0453645
0.615565 0.43697 0.0599844
0.620632 0.437306 0.0575225
0.623505 0.437437 0.0558089
0.627733 0.437366 0.0537655
0.631975 0.437688 0.05179
0.634659 0.437211 0.0501276
0.637953 0.437205 0.0468357
0.638993 0.436102 0.0455648
0.613249 0.443323 0.0611152
0.615967 0.442474 0.0596188
0.619798 0.44324 0.0577694
0.623688 0.442417 0.0555144
0.627689 0.442402 0.0535231
0.631859 0.442312 0.0515047
0.634678 0.442334 0.0497563
0.637883 0.441847 0.0467121
0.616162 0.446976 0.05949
0.619969 0.447536 0.0576886
0.623675 0.44779 0.0554488
0.62777 0.447552 0.0534057
0.63162 0.447336 0.0515257
0.634075 0.44775 0.0500443
0.637644 0.445424 0.0468889
0.61706 0.451962 0.0593858
0.619886 0.452597 0.0578818
0.62395 0.452367 0.055602
0.627782 0.452574 0.0536321
0.631238 0.45255 0.0518734
0.617777 0.457802 0.0594355
0.620534 0.457183 0.0579261
0.6237 0.457207 0.0559724
0.628177 0.457168 0.0535606
0.631412 0.457379 0.0518655
0.617522 0.459744 0.0597185
0.620877 0.461976 0.058124
0.623753 0.462036 0.0563093
0.628202 0.462311 0.0537492
0.631628 0.462781 0.0518424
0.636563 0.462813 0.0466476
0.636315 0.463925 0.0466642
0.624555 0.466874 0.0561497
0.628083 0.467579 0.0540465
0.631487 0.467668 0.0519799
0.635827 0.467331 0.0474626
0.636624 0.465651 0.0462703
0.625422 0.472462 0.0560575
0.628868 0.472643 0.0542062
0.631652 0.471974 0.052109
0.625484 0.476607 0.0565909
0.628555 0.477626 0.0548717
0.631588 0.477615 0.0525573
0.629181 0.482392 0.0547616
0.631708 0.482568 0.052649
0.6291 0.487478 0.0548704
0.631804 0.48785 0.0523293
0.629153 0.49261 0.0551435
0.631348 0.49196 0.0529138
0.62634 0.498555 0.0573081
0.629416 0.4976 0.0551643
0.631546 0.497375 0.0528498
0.626546 0.501507 0.0571757
0.629499 0.502482 0.0550206
0.632017 0.503109 0.0522199
0.626301 0.507273 0.0575645
0.629501 0.507416 0.0551657
0.632144 0.507931 0.0519765
0.62663 0.514337 0.0574774
0.629379 0.512723 0.0554155
0.631973 0.512307 0.0518889
0.626491 0.515835 0.0576422
0.629099 0.517529 0.0555831
0.631493 0.517649 0.0524339
0.62938 0.522434 0.0551165
0.631412 0.522251 0.0525487
0.629128 0.52752 0.0551841
0.631082 0.526375 0.0526866
0.629087 0.532604 0.054939
0.630706 0.532516 0.0531542
0.628942 0.537665 0.0546514
0.629995 0.536065 0.0536907
0.626162 0.544118 0.0565785
0.628574 0.542628 0.054628
0.625948 0.546338 0.0566582
0.628424 0.547758 0.0541729
0.625731 0.553677 0.0563339
0.628357 0.552444 0.0538405
0.625667 0.558245 0.0560532
0.628454 0.557304 0.0534699
0.625677 0.562338 0.0558822
0.62778 0.562789 0.053486
0.625502 0.568072 0.0556832
0.627678 0.567442 0.0534167
0.625658 0.573152 0.0553933
0.62736 0.570891 0.0536856
0.625663 0.577876 0.0548273
0.625066 0.582767 0.0545772
0.62566 0.583291 0.0539304
0.624749 0.587417 0.0538282
0.625619 0.588462 0.0525019
0.624018 0.592751 0.0534998
0.625019 0.592192 0.0524156
0.620363 0.599801 0.0557269
0.623207 0.597315 0.0535158
0.620053 0.602944 0.0556022
0.623013 0.602325 0.0534362
0.62006 0.607156 0.0555498
0.623373 0.607756 0.0531583
0.624142 0.609836 0.0529167
0.620006 0.610976 0.0557525
0.623274 0.612492 0.0539119
0.626117 0.612317 0.0519339
0.62309 0.615839 0.0546824
0.625235 0.615811 0.0535273
0.565741 0.0252281 0.0525689
0.497011 0.552784 0.122458
0.493088 0.552426 0.123526
0.487972 0.552547 0.124816
0.483364 0.552202 0.125723
0.477666 0.552423 0.12659
0.542481 0.0284702 0.0569588
0.547147 0.0289714 0.0564364
0.552213 0.0289923 0.0555973
0.557238 0.028792 0.0547383
0.562501 0.0281881 0.0537366
0.567287 0.0279785 0.0530234
0.570171 0.0283975 0.0527075
0.47379 0.550928 0.126885
0.461452 0.551291 0.127237
0.457505 0.552514 0.127152
0.452337 0.551862 0.126245
0.522765 0.0325669 0.0592395
0.527626 0.0327022 0.0590826
0.532669 0.0323591 0.0588022
0.537467 0.032491 0.0585253
0.54251 0.0323045 0.0578429
0.547356 0.0324146 0.0572426
0.552484 0.0325899 0.0564328
0.557431 0.032634 0.0555244
0.561603 0.0329077 0.0548211
0.567264 0.0326878 0.0538179
0.570916 0.0329946 0.0532563
0.519245 0.0374425 0.0603031
0.523207 0.0371104 0.0600088
0.527589 0.0372587 0.0598042
0.532628 0.037418 0.059538
0.537593 0.03736 0.0592569
0.542599 0.0374594 0.0586621
0.547788 0.037455 0.058022
0.552553 0.0375154 0.0572083
0.557295 0.0376827 0.056296
0.561453 0.0376519 0.0554909
0.567095 0.0377072 0.0543971
0.571326 0.0379089 0.0536832
0.447299 0.552542 0.125022
0.510012 0.54851 0.117323
0.506624 0.547653 0.118572
0.501497 0.547634 0.120475
0.497558 0.547332 0.121888
0.492953 0.547212 0.12324
0.487784 0.547465 0.124495
0.483306 0.547242 0.12537
0.478189 0.547532 0.126069
0.474334 0.545977 0.126324
0.518763 0.0420312 0.0609485
0.522906 0.0423776 0.0606545
0.527728 0.0418862 0.0602568
0.532697 0.0420612 0.059989
0.53758 0.042264 0.0596812
0.542561 0.0424645 0.0592117
0.547697 0.0424835 0.058548
0.552581 0.0422854 0.0576971
0.557391 0.0425444 0.0567797
0.562377 0.042732 0.0557513
0.56678 0.0428632 0.0549124
0.571301 0.0429516 0.0539926
0.467058 0.545436 0.126631
0.462333 0.5473 0.126771
0.457575 0.547107 0.126508
0.452496 0.547149 0.125811
0.44732 0.547393 0.124585
0.506274 0.542856 0.118369
0.501816 0.542735 0.120039
0.496584 0.542599 0.12185
0.493009 0.542437 0.122958
0.487643 0.54251 0.124277
0.518686 0.0470413 0.0615745
0.522249 0.0474995 0.0612171
0.527593 0.0471089 0.0606825
0.533149 0.0473756 0.0603671
0.537708 0.0473587 0.0599525
0.542672 0.0474696 0.059493
0.547521 0.0472892 0.058873
0.552474 0.047521 0.0580224
0.557574 0.0474925 0.0570936
0.562308 0.0474403 0.0561142
0.566698 0.0475479 0.0551864
0.571644 0.0478386 0.0541624
0.483028 0.542114 0.125077
0.477697 0.542701 0.125678
0.472886 0.541979 0.126115
0.467593 0.542589 0.126327
0.462383 0.542363 0.126233
0.45759 0.542411 0.125989
0.452807 0.542397 0.125401
0.447537 0.542485 0.124291
0.505802 0.537838 0.118265
0.524101 0.0515633 0.0613622
0.527543 0.0522874 0.0610301
0.532595 0.0522406 0.0606639
0.537934 0.0524078 0.0602487
0.542581 0.0523344 0.0597574
0.547855 0.0525089 0.0590799
0.552698 0.0525633 0.0583015
0.50148 0.537535 0.119824
0.562459 0.0525321 0.0563597
0.566824 0.052772 0.0554047
0.571544 0.0524051 0.0543631
0.496923 0.53785 0.121405
0.492454 0.537451 0.122779
0.487928 0.537476 0.123967
0.482763 0.537348 0.12488
0.477627 0.537464 0.125333
0.472802 0.537442 0.125781
0.46758 0.537658 0.126012
0.462505 0.537287 0.125837
0.457631 0.537031 0.125667
0.533748 0.0578671 0.0606601
0.53797 0.0577333 0.0603726
0.542591 0.0572003 0.0598937
0.547511 0.0574301 0.0592803
0.552464 0.0573587 0.0585256
0.452052 0.537068 0.125038
0.562432 0.0576006 0.0565277
0.566621 0.0573775 0.0555686
0.572033 0.0576235 0.0543971
0.575541 0.058905 0.0536962
0.447663 0.537312 0.12413
0.50567 0.532614 0.117934
0.501675 0.532887 0.119416
0.496516 0.532661 0.121157
0.492169 0.532407 0.12256
0.487806 0.532172 0.123565
0.482899 0.532533 0.124571
0.477838 0.53251 0.125072
0.472826 0.532297 0.12552
0.245098 0.0612386 0.0601372
0.524904 0.0647862 0.0621255
0.528608 0.0627699 0.0613808
0.532551 0.062308 0.0608544
0.537926 0.0624066 0.0604908
0.542672 0.0624095 0.060047
0.547784 0.0623747 0.0594481
0.552827 0.0624972 0.0587054
0.467622 0.531967 0.12573
0.562323 0.062438 0.0568289
0.567077 0.062881 0.0557731
0.572226 0.0628035 0.0545722
0.576318 0.0623573 0.0536294
0.462536 0.532619 0.125682
0.456796 0.531957 0.125333
0.452438 0.532505 0.124882
0.505261 0.528187 0.117728
0.501516 0.527707 0.119069
0.49669 0.52793 0.120707
0.492305 0.527445 0.122042
0.488052 0.527425 0.123195
0.482552 0.527461 0.124248
0.528029 0.0670858 0.0617634
0.532876 0.0675649 0.0610558
0.537904 0.0673032 0.0605984
0.542897 0.067301 0.0601232
0.547519 0.0673226 0.0596085
0.55278 0.0675386 0.0589197
0.478128 0.527297 0.124805
0.472915 0.527219 0.125311
0.567512 0.0675765 0.0559201
0.571068 0.0666359 0.0550525
0.4676 0.52725 0.12556
0.46248 0.527255 0.125511
0.457097 0.527527 0.125179
0.452437 0.527365 0.124635
0.500872 0.523077 0.11894
0.496863 0.522808 0.120187
0.491793 0.522605 0.121799
0.487825 0.52227 0.122825
0.482924 0.522255 0.123898
0.528634 0.0727477 0.0621902
0.532693 0.0721338 0.0614233
0.537681 0.0724983 0.0607678
0.54309 0.0722023 0.0601366
0.547741 0.0724655 0.0596509
0.552647 0.0724692 0.0590733
0.557644 0.0722812 0.058265
0.562619 0.0725112 0.0572895
0.567308 0.0724878 0.0561945
0.571554 0.0730677 0.0552781
0.477635 0.522286 0.124582
0.472882 0.522728 0.125104
0.467297 0.521773 0.125377
0.462553 0.521896 0.125277
0.457042 0.522184 0.12488
0.452359 0.522602 0.124287
0.500162 0.517003 0.11867
0.497059 0.517774 0.119819
0.492127 0.517528 0.121236
0.48712 0.517456 0.122556
0.483026 0.517464 0.123447
0.477532 0.517421 0.124295
0.528097 0.0773051 0.0625762
0.533015 0.0774034 0.0617873
0.53762 0.0775961 0.061032
0.542991 0.0773966 0.060326
0.547497 0.0776199 0.0597803
0.552532 0.0772919 0.0591954
0.557763 0.0773885 0.0584623
0.562629 0.0775128 0.057541
0.567297 0.077401 0.0564653
0.571835 0.0778105 0.0554288
0.576495 0.0780502 0.0543244
0.472915 0.517002 0.124788
0.4677 0.517339 0.125197
0.46234 0.517284 0.125108
0.457472 0.517254 0.124698
0.452577 0.517437 0.123985
0.500373 0.512831 0.118204
0.497047 0.512653 0.119326
0.491589 0.512611 0.120858
0.487291 0.512644 0.121926
0.482533 0.512354 0.122956
0.477494 0.512539 0.123837
0.472683 0.512288 0.124356
0.52861 0.0813587 0.0627929
0.532685 0.0824489 0.0622221
0.538032 0.0822045 0.0612651
0.543442 0.0822798 0.0604912
0.547841 0.0825689 0.0599006
0.552727 0.082427 0.0593207
0.557863 0.0825177 0.0586616
0.562682 0.082445 0.0577667
0.56743 0.0825465 0.0566848
0.57215 0.0825986 0.0555485
0.57699 0.0825426 0.0543485
0.579816 0.0841963 0.0536915
0.467658 0.512389 0.124676
0.462704 0.512072 0.124678
0.457518 0.51226 0.124328
0.452268 0.512343 0.12352
0.499879 0.508024 0.117775
0.496584 0.507665 0.118818
0.49204 0.508019 0.120145
0.486685 0.50764 0.121333
0.482469 0.507593 0.122204
0.472578 0.507468 0.123403
0.53419 0.0874262 0.0623095
0.537729 0.0871954 0.0617
0.542405 0.0873877 0.0608861
0.547904 0.0868792 0.0600337
0.552738 0.0873867 0.0594337
0.557763 0.0875388 0.0587975
0.562659 0.0875881 0.0579148
0.567345 0.0874222 0.0568943
0.572423 0.0875984 0.0556508
0.576947 0.08768 0.0545378
0.580511 0.0884657 0.0536452
0.467685 0.507377 0.123754
0.462463 0.507426 0.123892
0.457533 0.507193 0.123639
0.452605 0.507087 0.122961
0.496736 0.502997 0.118225
0.491726 0.502612 0.119446
0.486724 0.503287 0.12064
0.482169 0.50267 0.121207
0.467456 0.502378 0.122375
0.462472 0.50233 0.122485
0.457538 0.502436 0.122427
0.452466 0.5023 0.122031
0.534239 0.0923564 0.0625756
0.537892 0.092615 0.0619523
0.543054 0.0922851 0.0610694
0.547889 0.0925457 0.0603431
0.553257 0.0922578 0.0594822
0.557601 0.0924863 0.0588983
0.562413 0.0923219 0.0580654
0.567141 0.0926911 0.0570451
0.572185 0.0923563 0.0558839
0.576664 0.0926463 0.0547407
0.580211 0.0906999 0.0537944
0.447756 0.502291 0.121042
0.495856 0.498244 0.117976
0.491937 0.49782 0.118855
0.486915 0.497916 0.119795
0.481892 0.49766 0.120376
0.477495 0.497681 0.12078
0.472337 0.497716 0.121077
0.467533 0.497595 0.121104
0.462657 0.497647 0.12129
0.457543 0.497674 0.121293
0.452472 0.49738 0.12102
0.533006 0.0953174 0.0629682
0.537526 0.0958757 0.0621616
0.543019 0.0961131 0.0613118
0.547685 0.0975645 0.0607133
0.553295 0.0971914 0.0598082
0.557727 0.0975337 0.0590052
0.562684 0.0973202 0.058118
0.567357 0.0976217 0.0570961
0.572313 0.0974693 0.055972
0.577448 0.0975283 0.0547359
0.580131 0.0992536 0.0541263
0.448258 0.498149 0.12052
0.494681 0.495057 0.1179
0.491843 0.492732 0.118273
0.486873 0.492858 0.119157
0.481991 0.492668 0.119659
0.477058 0.492677 0.12008
0.472557 0.492653 0.120274
0.467473 0.492641 0.120293
0.46243 0.492757 0.120422
0.457561 0.492664 0.120553
0.548167 0.102073 0.0611037
0.552568 0.10249 0.0604561
0.558272 0.102158 0.059272
0.562527 0.102425 0.0584598
0.567562 0.102441 0.0573341
0.57237 0.10259 0.0561808
0.577195 0.10245 0.0549574
0.580948 0.102961 0.0540452
0.452902 0.492715 0.120334
0.449513 0.492815 0.120073
0.491509 0.487707 0.117857
0.486881 0.487822 0.1186
0.481898 0.487861 0.119269
0.477456 0.48781 0.119609
0.472454 0.487641 0.119821
0.467561 0.48788 0.119835
0.462809 0.487589 0.119798
0.45766 0.487725 0.120001
0.452275 0.487727 0.119936
0.548806 0.10729 0.0617099
0.552782 0.10742 0.0610079
0.558303 0.107637 0.0598559
0.562753 0.107282 0.0588012
0.567303 0.107616 0.0577807
0.572252 0.10749 0.056524
0.577211 0.107521 0.0553066
0.58171 0.107846 0.0542225
0.449202 0.487151 0.119856
0.490989 0.483286 0.117833
0.486719 0.482715 0.118612
0.482164 0.483108 0.119048
0.47692 0.482758 0.119341
0.472537 0.482681 0.119492
0.467375 0.482719 0.119605
0.46222 0.482701 0.11967
0.457727 0.482746 0.119859
0.453188 0.483003 0.119776
0.448591 0.482734 0.119676
0.44498 0.480279 0.119363
0.490157 0.47948 0.117686
0.549308 0.111128 0.0622359
0.552972 0.112082 0.0615884
0.558028 0.112082 0.0604121
0.562818 0.112347 0.0592834
0.567843 0.112394 0.0580683
0.572372 0.112681 0.0569601
0.577432 0.1125 0.055679
0.581777 0.112743 0.0545707
0.585318 0.113245 0.0536441
0.487081 0.478129 0.118204
0.481893 0.477957 0.118872
0.476849 0.477989 0.119169
0.472402 0.477826 0.119337
0.467367 0.477602 0.119657
0.462316 0.477648 0.119819
0.457814 0.477694 0.119744
0.451341 0.47721 0.119853
0.447028 0.477656 0.119537
0.443207 0.476526 0.119094
0.55362 0.117417 0.0620641
0.558356 0.117202 0.0608408
0.562949 0.117353 0.0596515
0.567701 0.117379 0.0585375
0.572352 0.117441 0.0573525
0.577405 0.117626 0.0560705
0.581968 0.117749 0.054943
0.585514 0.117357 0.0539083
0.486476 0.474374 0.117572
0.482037 0.473092 0.118018
0.477053 0.472998 0.118684
0.472149 0.473021 0.119198
0.467849 0.47284 0.119561
0.462581 0.473277 0.119713
0.457948 0.47312 0.119845
0.454668 0.474302 0.119814
0.44661 0.47351 0.119483
0.553598 0.122432 0.0623939
0.558177 0.122334 0.0612149
0.563149 0.122638 0.0598342
0.567838 0.122413 0.0587661
0.572615 0.122426 0.057566
0.577199 0.122526 0.056373
0.5821 0.122551 0.0551832
0.585677 0.122632 0.0542329
0.442558 0.472732 0.118893
0.481703 0.468151 0.116936
0.476884 0.468152 0.117741
0.471993 0.467823 0.118395
0.467368 0.467815 0.118964
0.46267 0.467942 0.119205
0.458889 0.469284 0.119605
0.480394 0.463737 0.11581
0.476964 0.463027 0.116307
0.553779 0.127288 0.0624634
0.558279 0.127547 0.0612675
0.563212 0.127307 0.0599261
0.567544 0.127378 0.0588933
0.572624 0.127382 0.0577347
0.577104 0.12771 0.0566117
0.582126 0.127512 0.0554007
0.586604 0.127472 0.0541772
0.590337 0.12879 0.0530822
0.472369 0.463195 0.117029
0.467234 0.462683 0.117609
0.462279 0.462687 0.118194
0.458258 0.460844 0.11792
0.476106 0.458865 0.115277
0.472827 0.458503 0.115787
0.466712 0.458466 0.116637
0.461692 0.458055 0.117075
0.549684 0.133889 0.0633152
0.55313 0.132337 0.0625139
0.558247 0.132418 0.0611684
0.563412 0.132279 0.0598352
0.567643 0.132466 0.0588922
0.572609 0.132598 0.0578329
0.577363 0.132476 0.0567232
0.582224 0.132647 0.0554885
0.586435 0.132252 0.0543288
0.589961 0.131119 0.0532852
0.457412 0.457832 0.117405
0.453704 0.457661 0.11752
0.464849 0.455393 0.116287
0.461503 0.453383 0.116234
0.457137 0.453084 0.116466
0.45411 0.454882 0.116882
0.549511 0.137657 0.0632417
0.552956 0.137559 0.0623074
0.557875 0.137228 0.0611346
0.562617 0.137518 0.0599595
0.567781 0.137245 0.0587996
0.572507 0.13761 0.0578809
0.577263 0.137546 0.0568366
0.582392 0.137426 0.0555094
0.586319 0.137719 0.0544703
0.46078 0.44914 0.115653
0.457411 0.448415 0.115796
0.485861 0.781778 0.114639
0.486863 0.777248 0.114543
0.482135 0.777291 0.116054
0.477271 0.777235 0.117657
0.473249 0.777181 0.118902
0.548927 0.142026 0.0633905
0.553272 0.142285 0.0622065
0.558076 0.142521 0.0610498
0.563456 0.142372 0.0598115
0.568166 0.142496 0.0588275
0.572518 0.14236 0.057967
0.577193 0.142487 0.0570038
0.582074 0.142629 0.0557626
0.586416 0.142767 0.0545791
0.590239 0.144653 0.0535367
0.4689 0.775082 0.120303
0.491007 0.77147 0.113716
0.486972 0.772328 0.114818
0.481944 0.772432 0.116345
0.477386 0.772503 0.117848
0.472935 0.772512 0.119217
0.125986 0.147672 0.0599811
0.550719 0.146293 0.0632271
0.553326 0.146973 0.0625154
0.557766 0.147448 0.0613265
0.56274 0.147444 0.0601726
0.568149 0.147301 0.0590998
0.572418 0.147596 0.0582772
0.577268 0.147569 0.0572155
0.582347 0.147536 0.0559682
0.586773 0.147503 0.0548407
0.590634 0.14829 0.0536675
0.468788 0.772006 0.120519
0.49189 0.767282 0.114035
0.487089 0.767229 0.115344
0.482166 0.767308 0.116842
0.558915 0.151947 0.0615409
0.562708 0.152508 0.0606996
0.568116 0.152294 0.0594712
0.572506 0.152396 0.0585802
0.577549 0.152468 0.0575737
0.58226 0.152601 0.0564605
0.586564 0.152691 0.055383
0.591634 0.152927 0.053747
0.559586 0.157128 0.0620056
0.563008 0.157422 0.0611984
0.567989 0.157474 0.0600421
0.573096 0.157307 0.0589336
0.577548 0.157584 0.0581527
0.582471 0.157441 0.0569543
0.586881 0.1577 0.0558874
0.591942 0.157533 0.0542517
0.595439 0.158518 0.053073
0.559752 0.162597 0.0624914
0.563107 0.162316 0.0616229
0.567772 0.162104 0.0605083
0.573156 0.162337 0.0594987
0.577882 0.162379 0.0586073
0.582449 0.162557 0.0575945
0.587127 0.162454 0.0564644
0.591959 0.162608 0.0548759
0.595262 0.162635 0.0536287
0.559146 0.166946 0.0628807
0.56305 0.167508 0.062008
0.568375 0.167163 0.0607671
0.573523 0.167506 0.0598675
0.577742 0.167503 0.0590608
0.582612 0.167441 0.0579835
0.587458 0.167538 0.0567987
0.592051 0.16777 0.0553211
0.595629 0.168003 0.0539546
0.559597 0.170474 0.0630197
0.563094 0.171858 0.0622803
0.567676 0.172368 0.061206
0.573461 0.172231 0.060072
0.577781 0.172366 0.0593271
0.5827 0.172536 0.0582423
0.587064 0.172544 0.0571289
0.591575 0.172758 0.0557751
0.596136 0.172976 0.0540324
0.564562 0.176849 0.0622475
0.568441 0.177484 0.0613943
0.573214 0.177383 0.0603474
0.578111 0.177512 0.0594494
0.582684 0.177464 0.0584211
0.587346 0.17743 0.0572096
0.592016 0.177647 0.0557799
0.596403 0.177455 0.0540946
0.564833 0.18151 0.0623869
0.568087 0.182355 0.0616308
0.573221 0.182283 0.0604606
0.578273 0.182275 0.0595167
0.582909 0.182536 0.0583873
0.587385 0.182557 0.0572128
0.591974 0.182475 0.0559219
0.596053 0.182271 0.0544109
0.568009 0.187365 0.0618224
0.573382 0.187388 0.0606015
0.578304 0.187202 0.0595403
0.582595 0.187497 0.0584675
0.587343 0.187592 0.0572268
0.591733 0.187393 0.0559603
0.596372 0.187777 0.0544342
0.568779 0.192337 0.0618925
0.573137 0.192499 0.0608565
0.578426 0.192192 0.0595862
0.582939 0.192487 0.0585016
0.587761 0.192468 0.0572589
0.591685 0.192669 0.0561199
0.596891 0.192772 0.0543728
0.599968 0.192606 0.0531691
0.569136 0.197306 0.0623051
0.572873 0.197196 0.0612958
0.578038 0.197342 0.0599755
0.582762 0.197417 0.0588446
0.587632 0.197734 0.0575362
0.591564 0.19761 0.0563579
0.596487 0.197779 0.0548265
0.600736 0.197732 0.0532079
0.603557 0.19902 0.0521516
0.569723 0.202502 0.0628636
0.5736 0.202174 0.0617538
0.57873 0.20212 0.0602279
0.583158 0.202385 0.0591459
0.587855 0.202409 0.057749
0.59193 0.202705 0.0565818
0.596816 0.202572 0.0549736
0.601304 0.202902 0.0533854
0.604041 0.202668 0.052356
0.569287 0.207185 0.0637337
0.573184 0.207168 0.0627459
0.578643 0.207304 0.0610958
0.582956 0.207339 0.0597705
0.587709 0.207288 0.0582145
0.592264 0.207535 0.0568895
0.596763 0.207733 0.0555586
0.601067 0.207747 0.0539443
0.570037 0.211533 0.0642603
0.573662 0.212516 0.0634533
0.578809 0.212113 0.061743
0.583327 0.212323 0.0601114
0.587957 0.212387 0.058596
0.592399 0.212405 0.0572018
0.596608 0.212777 0.055852
0.601649 0.212702 0.0539621
0.574444 0.216417 0.0636743
0.57892 0.217001 0.0622405
0.583288 0.217266 0.0607002
0.588288 0.217356 0.0589056
0.592468 0.217357 0.0575851
0.596872 0.217669 0.056155
0.601829 0.217609 0.0542515
0.606183 0.21964 0.0525926
0.608298 0.220319 0.0517446
0.575454 0.222121 0.0639469
0.578879 0.221879 0.0626701
0.583281 0.222313 0.0610726
0.58825 0.222309 0.0593784
0.5927 0.222361 0.05788
0.597107 0.222578 0.056388
0.601709 0.22256 0.0547084
0.605031 0.223079 0.0533536
0.608889 0.221856 0.0515754
0.575882 0.225868 0.063963
0.579296 0.226935 0.0628354
0.583379 0.227429 0.0614824
0.588233 0.227289 0.0597159
0.593084 0.227442 0.0580458
0.596688 0.227511 0.0569048
0.601993 0.227554 0.0550605
0.604603 0.227793 0.0540851
0.578747 0.232251 0.0631855
0.583407 0.232273 0.061765
0.588191 0.232236 0.0600023
0.592978 0.232305 0.0583378
0.596811 0.232477 0.0570985
0.601665 0.232571 0.0554386
0.604883 0.232917 0.0542221
0.579567 0.237421 0.0632932
0.583725 0.237175 0.0620275
0.588236 0.237304 0.0602413
0.593294 0.237442 0.0586028
0.59741 0.237537 0.0572535
0.601883 0.237474 0.0555546
0.605139 0.238176 0.0542868
0.580068 0.241456 0.0635114
0.583872 0.242162 0.062327
0.588304 0.24232 0.0607013
0.593294 0.242354 0.058891
0.59699 0.242532 0.0576467
0.601938 0.24251 0.0558805
0.605873 0.242595 0.0541614
0.610842 0.243172 0.0517274
0.613674 0.243922 0.0504313
0.584599 0.247319 0.062384
0.588416 0.247286 0.0610825
0.593517 0.24732 0.059303
0.597176 0.247541 0.0578893
0.60198 0.247665 0.0558845
0.606057 0.247493 0.0541854
0.610554 0.247404 0.0518089
0.613542 0.247872 0.0504991
0.584706 0.252019 0.0625184
0.588493 0.252267 0.061186
0.593517 0.252298 0.0594784
0.597735 0.252503 0.0577618
0.601826 0.252542 0.0559007
0.605997 0.25297 0.0541102
0.610551 0.255646 0.0519824
0.584758 0.256847 0.0629791
0.588482 0.257005 0.0616858
0.593273 0.257281 0.0599482
0.598156 0.257322 0.0576901
0.601782 0.257988 0.0562378
0.606337 0.257833 0.0541159
0.610061 0.258817 0.0525388
0.614207 0.259002 0.0507131
0.58515 0.261894 0.0635854
0.589194 0.261776 0.0620669
0.593498 0.262045 0.0604283
0.598036 0.262433 0.0585142
0.601861 0.262291 0.0567713
0.606893 0.262732 0.0546386
0.609618 0.261638 0.0530761
0.613865 0.262133 0.0512295
0.585434 0.266561 0.0643914
0.589493 0.266933 0.063066
0.594038 0.266938 0.0611689
0.598315 0.267288 0.0592997
0.602321 0.267241 0.0575751
0.606502 0.267246 0.0559457
0.585218 0.271911 0.0656718
0.589584 0.27172 0.0640752
0.593823 0.271858 0.0624634
0.598785 0.272008 0.0602843
0.602774 0.272199 0.0585173
0.606948 0.272528 0.05693
0.620409 0.275314 0.0509012
0.623585 0.274666 0.0494466
0.628379 0.274724 0.0476996
0.633598 0.274921 0.0460062
0.586204 0.275748 0.066122
0.589905 0.276826 0.0649623
0.594787 0.276982 0.0631515
0.599324 0.276725 0.061219
0.602961 0.277172 0.0596803
0.608044 0.277444 0.0575769
0.621506 0.277099 0.0508811
0.624454 0.278595 0.0500456
0.629345 0.278567 0.0481596
0.63375 0.278637 0.0467089
0.587309 0.283973 0.0670159
0.589853 0.281686 0.0658896
0.594696 0.281834 0.0641057
0.599606 0.281789 0.0620852
0.603272 0.282149 0.0604793
0.608356 0.282301 0.0582555
0.611563 0.283122 0.0570702
0.625206 0.283513 0.0503988
0.628921 0.283523 0.0488729
0.633523 0.284276 0.047235
0.587023 0.286666 0.067275
0.590472 0.286735 0.0662567
0.595038 0.286968 0.0646781
0.599773 0.286787 0.062652
0.603386 0.287177 0.061056
0.608278 0.287292 0.0588321
0.611722 0.287206 0.0573897
0.625434 0.288502 0.0507549
0.629267 0.288218 0.0491753
0.633665 0.288196 0.0474758
0.589905 0.292168 0.0667474
0.59518 0.292238 0.0648649
0.599645 0.292245 0.0631875
0.603632 0.292353 0.0613034
0.608728 0.292515 0.0590565
0.612045 0.29241 0.0575784
0.625424 0.293121 0.0508111
0.629632 0.292809 0.0490954
0.633822 0.292457 0.0475655
0.590763 0.297129 0.0663663
0.595655 0.297588 0.0646433
0.599678 0.297379 0.0631511
0.60364 0.297535 0.061281
0.608132 0.297369 0.0592275
0.611793 0.297499 0.0575954
0.618606 0.299713 0.0543014
0.619592 0.298281 0.0539439
0.625179 0.297525 0.0508317
0.62916 0.296987 0.0491958
0.633016 0.295351 0.0477654
0.590873 0.302153 0.0663438
0.595231 0.302492 0.0648103
0.599649 0.302358 0.063215
0.60394 0.302377 0.0611451
0.608682 0.302607 0.0590288
0.612093 0.302212 0.0574638
0.617239 0.302259 0.0548443
0.620303 0.30448 0.0535405
0.625325 0.302329 0.0506392
0.627467 0.302359 0.0496886
0.590812 0.307508 0.0664693
0.594876 0.307325 0.0650122
0.599727 0.307291 0.0632744
0.60419 0.307411 0.0611643
0.608034 0.307474 0.0593467
0.612624 0.307596 0.0573462
0.61728 0.306957 0.0548749
0.619905 0.3075 0.0537954
0.624435 0.308793 0.0512607
0.628973 0.307631 0.0493009
0.633681 0.308115 0.0477139
0.59081 0.311964 0.0666505
0.595421 0.312107 0.065004
0.600044 0.312355 0.0633424
0.604325 0.312402 0.0612634
0.608182 0.312436 0.0594263
0.612483 0.312402 0.0575621
0.616752 0.312892 0.0554568
0.620666 0.312781 0.0535315
0.624324 0.312747 0.0515612
0.629183 0.312664 0.0495145
0.633311 0.312194 0.0480853
0.591167 0.317118 0.0667766
0.595121 0.317155 0.065406
0.599848 0.317165 0.0635411
0.604315 0.317179 0.0616452
0.608339 0.317445 0.0596567
0.612465 0.317433 0.0577478
0.616869 0.317618 0.0557106
0.620514 0.317473 0.0540815
0.625317 0.317597 0.0515721
0.629078 0.31791 0.0499518
0.633392 0.317525 0.0482243
0.592 0.320462 0.0667576
0.595686 0.322456 0.0655073
0.600121 0.322307 0.0637432
0.604546 0.322291 0.0618102
0.608576 0.322423 0.0598262
0.612493 0.32249 0.0579453
0.616934 0.322336 0.0559657
0.620344 0.323144 0.0546485
0.625335 0.322968 0.0518857
0.629444 0.3227 0.0502213
0.633891 0.322463 0.0484651
0.595986 0.327047 0.0655811
0.60011 0.327387 0.0639853
0.604263 0.327098 0.0622187
0.608463 0.327386 0.060193
0.61309 0.32741 0.0581239
0.616734 0.327486 0.0561966
0.620888 0.327427 0.0545527
0.625067 0.327287 0.0522302
0.62913 0.327653 0.0504792
0.633571 0.327709 0.0488343
0.595994 0.332565 0.0657371
0.600175 0.33225 0.0640675
0.604645 0.332311 0.0621714
0.608671 0.332441 0.060281
0.613453 0.332245 0.0581247
0.617087 0.33255 0.0563267
0.621176 0.332608 0.0545419
0.626053 0.332329 0.0517618
0.629657 0.332679 0.0503986
0.634391 0.332863 0.0485316
0.591807 0.339672 0.0675535
0.595498 0.337174 0.0660523
0.600101 0.337271 0.0642183
0.604406 0.337291 0.062465
0.608306 0.337411 0.0604134
0.613403 0.337476 0.0582206
0.617587 0.336661 0.0560369
0.62176 0.336435 0.0542953
0.625612 0.33795 0.052162
0.629211 0.337589 0.050624
0.63385 0.337379 0.0489731
0.592223 0.342972 0.0673849
0.595992 0.342232 0.0658685
0.600081 0.342415 0.0642217
0.604562 0.342518 0.0623534
0.608544 0.342537 0.0604008
0.61317 0.342286 0.0582847
0.623106 0.343381 0.053806
0.62545 0.34154 0.0523296
0.630793 0.341279 0.0501944
0.633464 0.342438 0.0493022
0.592408 0.346179 0.067449
0.59563 0.347204 0.0661033
0.60042 0.347337 0.0640782
0.604778 0.347087 0.0622158
0.608297 0.347455 0.0605082
0.613333 0.347718 0.0582866
0.616771 0.349004 0.0566494
0.621548 0.347385 0.0544338
0.634889 0.348469 0.0487379
0.595632 0.352094 0.0663604
0.600089 0.352057 0.0644007
0.604219 0.352242 0.0627065
0.608732 0.35252 0.0606048
0.613128 0.352114 0.0584508
0.617353 0.352569 0.0565941
0.621528 0.352264 0.0547136
0.626341 0.353613 0.0522842
0.628772 0.354639 0.0513965
0.634801 0.352657 0.0489253
0.595999 0.357156 0.0666392
0.60089 0.35721 0.0645124
0.605033 0.356748 0.0628854
0.608691 0.357348 0.0609095
0.61352 0.35732 0.0587091
0.619103 0.35617 0.0559891
0.622613 0.357236 0.0546596
0.624957 0.358535 0.0538173
0.629436 0.357591 0.051468
0.634179 0.357152 0.0496109
0.637077 0.359026 0.0484898
0.596165 0.361738 0.0669424
0.600473 0.361965 0.0651544
0.604411 0.363024 0.063539
0.608979 0.362454 0.0611415
0.613646 0.362431 0.0590612
0.617384 0.363649 0.0574505
0.621673 0.362616 0.0554927
0.626174 0.363018 0.0532361
0.629609 0.362549 0.0516495
0.634572 0.362197 0.0496403
0.637963 0.362664 0.048164
0.596749 0.365677 0.0670456
0.600092 0.366684 0.0656009
0.60485 0.367109 0.0635005
0.609176 0.367641 0.0615038
0.61375 0.367351 0.0594112
0.617592 0.367826 0.0577249
0.621966 0.366984 0.0558586
0.626563 0.368395 0.0534397
0.629421 0.367279 0.0521951
0.634148 0.367134 0.0501964
0.638121 0.367242 0.0482823
0.600824 0.371898 0.0655153
0.605571 0.372036 0.0635471
0.609173 0.372423 0.0618408
0.613936 0.372452 0.0596685
0.617292 0.372518 0.0580696
0.621721 0.372514 0.0561431
0.626718 0.372056 0.053509
0.629572 0.372327 0.0522844
0.634209 0.372651 0.0503501
0.637784 0.372702 0.0487184
0.598147 0.378972 0.0670914
0.600891 0.377881 0.065797
0.605241 0.377134 0.0639474
0.609179 0.377285 0.0620353
0.613882 0.377183 0.0597219
0.617122 0.377479 0.058169
0.622299 0.377824 0.0559045
0.62683 0.379697 0.0533474
0.629175 0.377699 0.0524693
0.634263 0.377673 0.0504801
0.637091 0.376643 0.0489964
0.597815 0.380862 0.06729
0.601063 0.38228 0.0658545
0.605682 0.382414 0.0638552
0.609384 0.382437 0.0619296
0.613849 0.382448 0.0598547
0.617712 0.381614 0.0580024
0.622557 0.382583 0.0556911
0.626492 0.382531 0.0534779
0.629596 0.382449 0.0522711
0.634407 0.382006 0.0503103
0.598216 0.388184 0.0672771
0.600705 0.387484 0.0661958
0.605258 0.387593 0.0641488
0.609425 0.387422 0.0619546
0.613862 0.387644 0.0597472
0.61737 0.38754 0.0580019
0.621791 0.387263 0.0559533
0.625817 0.387264 0.0536655
0.629457 0.386988 0.0523079
0.63439 0.387036 0.050285
0.636614 0.387793 0.0490462
0.598095 0.391849 0.0674884
0.601253 0.392195 0.0661372
0.605114 0.392282 0.0642174
0.60949 0.392453 0.0619435
0.613842 0.392382 0.0597114
0.617286 0.392508 0.0579707
0.621801 0.392115 0.0559339
0.62652 0.390073 0.0534059
0.62988 0.391748 0.0520624
0.63434 0.392149 0.0501307
0.637012 0.392211 0.0486887
0.601141 0.396837 0.0662949
0.605769 0.397243 0.0639957
0.609187 0.397468 0.0619859
0.613884 0.397507 0.0595906
0.617859 0.396635 0.0575909
0.621869 0.397899 0.0557446
0.630089 0.397525 0.0517669
0.634419 0.397451 0.050095
0.636766 0.396334 0.0488671
0.602135 0.402288 0.06584
0.605332 0.401478 0.0643133
0.609538 0.402044 0.0618252
0.614193 0.40256 0.0596461
0.619004 0.401221 0.0571038
0.621529 0.402652 0.0558918
0.629481 0.402433 0.0521796
0.634342 0.402507 0.0504551
0.601438 0.407156 0.0664256
0.609821 0.407046 0.0618356
0.613605 0.40733 0.0600228
0.616971 0.407356 0.0584674
0.621891 0.406859 0.0558912
0.626885 0.408561 0.0535923
0.629541 0.407452 0.0524603
0.634374 0.40767 0.0507006
0.637397 0.408072 0.049216
0.602335 0.411083 0.0661395
0.605449 0.412167 0.0646022
0.609829 0.412604 0.0621826
0.614135 0.412379 0.059846
0.617368 0.41249 0.0584209
0.626457 0.4109 0.0537383
0.629398 0.412649 0.0526481
0.634537 0.412912 0.0508192
0.637678 0.41323 0.0489893
0.60305 0.41533 0.0659526
0.606029 0.416969 0.0644873
0.610284 0.417386 0.0621479
0.61368 0.417316 0.0602298
0.617942 0.417655 0.0583709
0.629802 0.417856 0.0524098
0.634503 0.417909 0.0505478
0.637825 0.41786 0.0486894
0.605766 0.422094 0.0649282
0.610374 0.422495 0.0622977
0.614002 0.42252 0.0601727
0.617969 0.422228 0.0581978
0.629044 0.422842 0.0525437
0.63414 0.422597 0.0505208
0.637442 0.422149 0.0488108
0.606099 0.427537 0.0650081
0.610275 0.427185 0.0625623
0.613855 0.427365 0.0604128
0.618104 0.427771 0.0581447
0.621762 0.428722 0.0563256
0.625126 0.42757 0.0548235
0.629573 0.426028 0.0524268
0.633702 0.426667 0.0505084
0.606166 0.431991 0.0650739
0.610661 0.432277 0.0624788
0.613468 0.432148 0.0607364
0.618209 0.432495 0.0581957
0.622208 0.432828 0.0562231
0.624863 0.430592 0.055087
0.634375 0.432182 0.0502669
0.606319 0.437264 0.0651285
0.610493 0.437116 0.0626391
0.613729 0.437629 0.0605905
0.618215 0.437435 0.0581007
0.622655 0.437572 0.0560825
0.625516 0.438424 0.0547704
0.631223 0.43827 0.0513774
0.634373 0.437167 0.0498766
0.636812 0.437624 0.0480539
0.606548 0.441987 0.0650767
0.610594 0.442198 0.0625373
0.61393 0.442361 0.0603665
0.618521 0.442141 0.058024
0.621821 0.442426 0.0562098
0.624868 0.442974 0.0547072
0.630132 0.44223 0.0518085
0.633397 0.44206 0.0501172
0.637134 0.442498 0.0480012
0.604075 0.448636 0.0668162
0.606504 0.446954 0.065168
0.610577 0.447067 0.0625709
0.613929 0.447532 0.0606381
0.618525 0.447549 0.0580088
0.622227 0.447234 0.0560815
0.629207 0.447328 0.0520697
0.633683 0.447148 0.0499186
0.637036 0.447227 0.0476827
0.60385 0.451282 0.0671933
0.606891 0.45193 0.0653799
0.610924 0.452038 0.0628349
0.614253 0.452344 0.0608195
0.618478 0.452553 0.0584215
0.622173 0.45259 0.0563034
0.628703 0.451924 0.0526394
0.633074 0.452276 0.0503115
0.636702 0.452441 0.0479522
0.607336 0.45553 0.0657077
0.611378 0.456984 0.0631303
0.6145 0.457109 0.0610668
0.618711 0.457248 0.0586022
0.622527 0.457749 0.0564632
0.625113 0.456884 0.0551519
0.630077 0.456188 0.0520179
0.633228 0.457217 0.0503387
0.636288 0.457244 0.0479996
0.612053 0.461757 0.0632584
0.615005 0.461964 0.0613756
0.618991 0.462386 0.058951
0.62221 0.462652 0.0568692
0.625817 0.462374 0.0549102
0.633346 0.4623 0.0500973
0.636069 0.462367 0.047787
0.614727 0.467264 0.0620295
0.618971 0.467672 0.0595655
0.622242 0.467383 0.0573078
0.625495 0.467698 0.0554196
0.633727 0.467723 0.0501079
0.635595 0.466611 0.0480277
0.614972 0.472538 0.0625279
0.618958 0.472458 0.0600108
0.622967 0.472798 0.0574262
0.625483 0.470778 0.0557121
0.62975 0.473238 0.0530163
0.632744 0.472649 0.0509977
0.635036 0.471851 0.0488467
0.615151 0.477173 0.0629152
0.619319 0.477299 0.0602594
0.623626 0.477688 0.0578003
0.630256 0.477443 0.0533585
0.632762 0.477815 0.0512581
0.634349 0.47668 0.0493816
0.615244 0.481867 0.0629356
0.619376 0.482199 0.0608155
0.623651 0.482564 0.0580535
0.626348 0.482776 0.0565275
0.630534 0.482755 0.0534687
0.632166 0.482762 0.0518766
0.633893 0.482305 0.0498136
0.615596 0.487473 0.0627913
0.61934 0.487141 0.0610259
0.623792 0.487352 0.0583259
0.626512 0.487581 0.0566556
0.630558 0.487314 0.0534678
0.632069 0.4877 0.0516976
0.633779 0.486634 0.0497328
0.615119 0.492389 0.0630436
0.619597 0.49216 0.0608591
0.624129 0.492597 0.0583104
0.626283 0.491009 0.05705
0.630295 0.493221 0.0537841
0.632023 0.492766 0.0518492
0.633055 0.491427 0.0501789
0.61215 0.498262 0.064878
0.615125 0.497133 0.0632041
0.62004 0.497419 0.060777
0.624175 0.49741 0.0585652
0.629917 0.497998 0.0546191
0.632424 0.497792 0.051809
0.612181 0.501145 0.0648289
0.615605 0.502454 0.0632031
0.619915 0.502357 0.0609535
0.624222 0.502711 0.0586763
0.626892 0.504634 0.0570435
0.629718 0.502838 0.0547682
0.631858 0.502801 0.0523555
0.615688 0.5063 0.062972
0.619084 0.507475 0.0612873
0.623683 0.507461 0.0588807
0.62686 0.507821 0.057102
0.629596 0.507542 0.0550381
0.631658 0.507839 0.0525668
0.616145 0.512038 0.0626174
0.619149 0.512322 0.0613116
0.623776 0.512394 0.0588786
0.626766 0.510298 0.0572167
0.629732 0.51259 0.0549117
0.631555 0.512749 0.0523157
0.615841 0.51796 0.0624523
0.619163 0.517296 0.0611745
0.624072 0.517714 0.0587653
0.626655 0.517441 0.0575
0.629874 0.517325 0.0547199
0.631422 0.517973 0.0520235
0.615611 0.523014 0.0622777
0.619143 0.522572 0.0608902
0.62384 0.522599 0.0587293
0.626987 0.52335 0.0571746
0.629735 0.522176 0.0545953
0.631635 0.522367 0.0516851
0.615446 0.527611 0.0621734
0.619056 0.527918 0.0605834
0.623402 0.527469 0.0587679
0.626355 0.52709 0.057389
0.629879 0.527078 0.054247
0.631877 0.527403 0.0513684
0.615251 0.532571 0.0620083
0.61879 0.532577 0.0604168
0.623563 0.53256 0.0584304
0.626607 0.533061 0.0570042
0.629511 0.531797 0.0545003
0.631288 0.531603 0.0522812
0.615028 0.537523 0.061847
0.61853 0.537615 0.0602704
0.623275 0.537609 0.0583563
0.626811 0.537532 0.0564397
0.629993 0.536846 0.0534905
0.614681 0.542596 0.0615207
0.618584 0.542579 0.0598461
0.623308 0.542652 0.0579769
0.627798 0.542377 0.0553135
0.629724 0.542683 0.0533274
0.63056 0.540978 0.0523927
0.477558 0.767586 0.118245
0.618174 0.547605 0.0598047
0.622881 0.547556 0.057727
0.626871 0.54727 0.0558717
0.629243 0.546954 0.053256
0.630643 0.547169 0.0512446
0.473003 0.76771 0.119578
0.468908 0.76795 0.120792
0.622691 0.552321 0.0577762
0.626056 0.551396 0.0562276
0.628825 0.551942 0.053328
0.629916 0.551413 0.052166
0.496174 0.76124 0.11398
0.492115 0.762187 0.114854
0.622569 0.557389 0.0577056
0.628658 0.556611 0.0536814
0.629403 0.557669 0.0525176
0.617897 0.56228 0.0591972
0.622542 0.562538 0.0575659
0.625206 0.563533 0.0562594
0.628168 0.562257 0.0537576
0.628965 0.561752 0.0525582
0.61842 0.567581 0.059515
0.62227 0.567086 0.0578893
0.625994 0.566488 0.0553089
0.627628 0.566482 0.0538737
0.628772 0.565036 0.0524094
0.615853 0.573988 0.0611587
0.618275 0.572311 0.0599275
0.622826 0.572073 0.0575929
0.625728 0.571847 0.0555681
0.626791 0.571268 0.054559
0.486941 0.762425 0.116171
0.618496 0.577583 0.0598877
0.622078 0.577312 0.0578182
0.625256 0.576727 0.0556735
0.626706 0.576778 0.0542428
0.618765 0.582471 0.0591546
0.622241 0.583066 0.0568923
0.624679 0.582119 0.0555164
0.626047 0.581027 0.054202
0.618551 0.58725 0.0586312
0.621854 0.587628 0.0565238
0.62436 0.586421 0.0548362
0.625373 0.586516 0.0536466
0.61472 0.593693 0.0596653
0.617922 0.592132 0.0582539
0.621545 0.592404 0.0557679
0.623824 0.590527 0.0542943
0.624891 0.589735 0.0534433
0.482379 0.762399 0.117461
0.617829 0.597342 0.0575321
0.62129 0.597592 0.0551954
0.478004 0.762979 0.118728
0.617425 0.602385 0.0572086
0.621346 0.602618 0.0548801
0.473153 0.762822 0.120168
0.617059 0.607496 0.0569945
0.621329 0.607556 0.0547546
0.469589 0.764881 0.120947
0.617618 0.612579 0.0569606
0.621388 0.612177 0.0550863
0.625082 0.614585 0.0533357
0.4998 0.756164 0.113918
0.617822 0.617095 0.0573664
0.62216 0.617927 0.0558694
0.625338 0.617789 0.0544682
0.496731 0.757375 0.114562
0.610191 0.62477 0.0609498
0.614269 0.622739 0.0593685
0.617259 0.622457 0.0585324
0.492182 0.757049 0.11578
0.487154 0.757134 0.117062
0.483305 0.758143 0.117998
0.609814 0.626879 0.0612317
0.61356 0.627424 0.0599534
0.478077 0.757393 0.119682
0.473749 0.757434 0.12093
0.470301 0.756237 0.122314
0.491928 0.752295 0.116595
0.487294 0.752342 0.117836
0.483876 0.752645 0.11886
0.477855 0.754184 0.120445
0.473075 0.754475 0.121858
0.470198 0.754547 0.122781
0.492084 0.747205 0.117132
0.487934 0.747976 0.118319
0.483845 0.748723 0.119545
0.505563 0.740832 0.113944
0.502233 0.742136 0.114648
0.537475 0.0293534 0.0578073
0.540955 0.0302591 0.0575924
0.497073 0.742408 0.116048
0.492093 0.742148 0.117674
0.489174 0.743058 0.118575
0.505551 0.736998 0.114225
0.502105 0.737401 0.115045
0.497049 0.73713 0.116582
0.492428 0.737516 0.118111
0.517348 0.0339447 0.059789
0.522088 0.0332427 0.0593803
0.527055 0.0326629 0.0590897
0.531908 0.032816 0.0589785
0.537228 0.0327055 0.0585913
0.541673 0.0333861 0.058121
0.490716 0.740011 0.118393
0.506025 0.732332 0.114451
0.502239 0.732305 0.115496
0.497236 0.732515 0.117003
0.49313 0.732571 0.11834
0.490441 0.731263 0.119425
0.487427 0.0376488 0.0630877
0.492473 0.0373618 0.062869
0.497497 0.0374509 0.062633
0.502104 0.727221 0.11615
0.497146 0.727603 0.11766
0.493315 0.727732 0.118866
0.517319 0.037677 0.0604765
0.522117 0.0377269 0.0601083
0.526916 0.0378768 0.0599265
0.532399 0.0376127 0.0595932
0.537655 0.0377761 0.0592923
0.542641 0.0378171 0.0586918
0.545948 0.0385085 0.0583515
0.489772 0.728212 0.120015
0.497612 0.722477 0.118399
0.493372 0.724221 0.119476
0.525667 0.64734 0.113966
0.499684 0.645272 0.12322
0.525566 0.642667 0.113444
0.521712 0.642534 0.11494
0.51669 0.642316 0.116909
0.512432 0.64056 0.118335
0.473689 0.0412869 0.0655834
0.477746 0.0423083 0.0653198
0.482581 0.0424119 0.0647349
0.487817 0.042286 0.0641837
0.492447 0.0426493 0.064014
0.497842 0.0425118 0.0636942
0.507852 0.640987 0.119961
0.503275 0.642108 0.121659
0.500258 0.642915 0.122827
0.517641 0.0426189 0.061135
0.522213 0.0426594 0.060667
0.52746 0.0431592 0.0603142
0.532274 0.043198 0.0600789
0.537179 0.042756 0.0597074
0.54228 0.0428098 0.0592828
0.546804 0.0428683 0.0586619
0.524507 0.637604 0.113329
0.521407 0.637623 0.114509
0.516416 0.637543 0.1165
0.512354 0.637396 0.118008
0.507987 0.637213 0.119562
0.503977 0.637546 0.121026
0.500336 0.637471 0.122357
0.524918 0.631237 0.112682
0.52157 0.632367 0.114134
0.516672 0.632868 0.116145
0.512836 0.632255 0.117583
0.508177 0.63245 0.119259
0.47866 0.046726 0.0659758
0.482747 0.0474531 0.0655698
0.487488 0.0473624 0.0650677
0.492762 0.047353 0.0648329
0.497528 0.0471662 0.0645982
0.503328 0.632385 0.121054
0.500672 0.633857 0.122133
0.524748 0.62712 0.112652
0.517385 0.0475419 0.0618508
0.522504 0.0474577 0.0611581
0.527397 0.0475564 0.0607366
0.532003 0.0476379 0.0604223
0.537133 0.0473814 0.060027
0.542369 0.0478057 0.0595627
0.547269 0.0477897 0.0589157
0.248927 0.0537041 0.0599346
0.521426 0.627607 0.114031
0.516341 0.627702 0.1161
0.512638 0.627283 0.117633
0.50837 0.627482 0.11917
0.503516 0.627471 0.121
0.524995 0.622223 0.112703
0.521154 0.622613 0.114178
0.516147 0.622321 0.116241
0.513013 0.622828 0.117509
0.508454 0.622466 0.119295
0.479227 0.0527999 0.0663047
0.482591 0.0523346 0.0658993
0.487521 0.0524028 0.0654554
0.492651 0.0522797 0.0653143
0.49784 0.0522704 0.0651297
0.502524 0.0521007 0.0647473
0.507718 0.0521292 0.064214
0.512619 0.0525381 0.0634185
0.517861 0.0525493 0.0624738
0.522422 0.052589 0.0617094
0.527601 0.0523773 0.0610094
0.532237 0.0526085 0.0606545
0.536847 0.052791 0.0603592
0.542474 0.0524221 0.0597678
0.547086 0.0525919 0.0591642
0.55025 0.0501157 0.0585725
0.503501 0.622481 0.1212
0.500773 0.621692 0.122251
0.525365 0.617744 0.112724
0.521158 0.617243 0.114446
0.516643 0.617863 0.116268
0.512641 0.617485 0.117865
0.508139 0.617765 0.119518
0.503693 0.617453 0.12139
0.500115 0.616567 0.122752
0.525223 0.612144 0.112969
0.479064 0.0573663 0.0662945
0.48261 0.0572503 0.0659202
0.487776 0.0574719 0.0656763
0.492564 0.0573095 0.0656678
0.497706 0.0572328 0.0655361
0.502667 0.0573257 0.0652085
0.507625 0.0571199 0.0645919
0.51285 0.0574605 0.0638636
0.517642 0.0574295 0.0630029
0.521666 0.61259 0.114389
0.527545 0.0574996 0.0613291
0.532443 0.0575138 0.0607357
0.536754 0.0574503 0.0604972
0.54247 0.0576604 0.0599302
0.547418 0.057516 0.0592949
0.550255 0.0596329 0.0589669
0.51695 0.612019 0.116261
0.513117 0.612416 0.117832
0.508283 0.612393 0.11961
0.504052 0.612795 0.121232
0.500594 0.612261 0.122627
0.525861 0.607184 0.112771
0.521319 0.607393 0.114571
0.516703 0.607374 0.11639
0.513257 0.607169 0.117841
0.287112 0.0600969 0.0650785
0.479479 0.0606223 0.0662749
0.483105 0.0617262 0.0660243
0.487646 0.0623917 0.0659976
0.492695 0.0624931 0.0660201
0.497498 0.0621211 0.0658888
0.5027 0.0624858 0.0655894
0.507547 0.0622057 0.0650044
0.512719 0.0625655 0.0641757
0.517803 0.0624348 0.0632815
0.522475 0.0625313 0.0623037
0.527351 0.0623802 0.0614857
0.532544 0.0627078 0.0608533
0.536627 0.0627358 0.0605592
0.542339 0.0625082 0.06002
0.547583 0.0627522 0.0594898
0.550037 0.0613663 0.059077
0.238526 0.068435 0.0598663
0.508227 0.607633 0.119685
0.503865 0.607218 0.121403
0.528494 0.601556 0.111577
0.526149 0.602763 0.112545
0.521016 0.602217 0.114643
0.516901 0.602682 0.116244
0.513108 0.602529 0.117887
0.508575 0.602712 0.119656
0.485093 0.0697469 0.0665112
0.487745 0.0671125 0.0662573
0.492618 0.0673712 0.0662577
0.497839 0.0670447 0.066112
0.502566 0.0674345 0.0658542
0.50785 0.0672455 0.0652042
0.512543 0.067504 0.0644924
0.517637 0.067366 0.0635991
0.522525 0.0672235 0.0626921
0.527605 0.0674081 0.0618342
0.532379 0.0677335 0.0611324
0.537488 0.067464 0.0605978
0.541786 0.067906 0.0601924
0.547677 0.0675422 0.0595726
0.551605 0.0684114 0.059081
0.503699 0.602371 0.121545
0.500441 0.601288 0.122777
0.525279 0.597443 0.112874
0.521368 0.597758 0.114446
0.516806 0.597247 0.116251
0.512443 0.59771 0.118174
0.508517 0.597775 0.119696
0.503508 0.597412 0.121612
0.500853 0.597842 0.12257
0.48401 0.0732377 0.0670031
0.487795 0.0721084 0.066823
0.492118 0.0720706 0.0667547
0.502637 0.0722193 0.0661426
0.50769 0.0723783 0.0655887
0.513005 0.072275 0.0648175
0.517826 0.0724376 0.0640429
0.522715 0.0722666 0.0631362
0.52738 0.0726089 0.0623214
0.532307 0.0724619 0.0614792
0.53733 0.0726754 0.0607823
0.542134 0.0725425 0.0602213
0.547345 0.0725868 0.0596708
0.552622 0.072609 0.0590628
0.556289 0.0738286 0.0585937
0.525614 0.592372 0.112617
0.521383 0.592451 0.114401
0.516698 0.592448 0.116281
0.512063 0.592304 0.118315
0.508414 0.592635 0.119785
0.503794 0.592745 0.121529
0.525832 0.587725 0.112396
0.521162 0.587587 0.114436
0.516994 0.58749 0.116173
0.512538 0.587296 0.118174
0.482844 0.0757906 0.0673671
0.487853 0.075613 0.0672814
0.492033 0.0762126 0.0672732
0.499596 0.0772877 0.0669034
0.502697 0.0774247 0.0666685
0.507833 0.0772743 0.0660935
0.513118 0.077436 0.0653114
0.517734 0.0774088 0.0645194
0.522691 0.0773812 0.063513
0.527471 0.0775183 0.0626708
0.532466 0.0774521 0.0618846
0.53737 0.0775922 0.0610716
0.542267 0.0774881 0.0604009
0.547227 0.0774888 0.059749
0.552196 0.0773263 0.0591831
0.557056 0.0779351 0.0585985
0.560625 0.0797376 0.0580275
0.508273 0.587362 0.119843
0.504148 0.587837 0.121391
0.525199 0.582581 0.112666
0.52125 0.582611 0.114293
0.516282 0.582303 0.116429
0.51298 0.582309 0.117947
0.508491 0.58261 0.11974
0.503787 0.582039 0.121493
0.52496 0.577709 0.112724
0.521151 0.57742 0.114308
0.516436 0.577631 0.116314
0.503853 0.0819633 0.0671082
0.507775 0.0820844 0.0666941
0.51314 0.0824137 0.0658944
0.517876 0.0823252 0.0648999
0.522751 0.0823984 0.0639349
0.527396 0.0823095 0.0631046
0.532555 0.0825464 0.0622264
0.537363 0.0825689 0.0613944
0.542175 0.0826687 0.0606996
0.547098 0.082313 0.0599604
0.552193 0.0826996 0.0593747
0.557315 0.0824186 0.0587534
0.56067 0.0831285 0.0581504
0.5126 0.577516 0.118062
0.508464 0.577449 0.119685
0.50353 0.577496 0.121588
0.500404 0.577676 0.122626
0.5248 0.572859 0.112725
0.521301 0.572696 0.114173
0.516487 0.572495 0.116137
0.512593 0.572723 0.117942
0.508261 0.572396 0.11969
0.503637 0.572607 0.121348
0.500872 0.574562 0.12238
0.503619 0.0869425 0.0678234
0.507737 0.087168 0.0673264
0.513018 0.0873546 0.066445
0.517812 0.0872283 0.0654758
0.522788 0.0875376 0.0644526
0.527851 0.0871886 0.0634243
0.532475 0.0875756 0.0625777
0.537352 0.0875188 0.0617953
0.542451 0.087621 0.0608769
0.547308 0.0876946 0.0601212
0.552061 0.0879429 0.0595444
0.556298 0.0868253 0.0589436
0.559869 0.0854491 0.0583975
0.524559 0.568055 0.112655
0.521536 0.567485 0.113853
0.516408 0.567706 0.116013
0.512656 0.567432 0.117602
