0.51811251052278384 0.11217440479501849 0.069584915746645645 0.14080336606529809 -0.078479954205994323 0.98692213922502858
0.52358838102263705 0.11196190939122298 0.069629213118525837 -0.1684177435360755 0.063832407226782045 -0.98364672898853833
0.52887483132944557 0.11192430415207233 0.068823138903361808 -0.18275166007972429 0.062415620883569944 -0.9811758868866598
0.59552193088280181 0.46296507024882289 0.074307456693951918 -0.47194031961524863 0.046767008789454806 -0.8803892216572986
0.53830749786343601 0.11209738007891742 0.06687544321993355 0.16378893734534569 -0.076060634281788525 0.98355882585432297
0.54314773655593818 0.11219797755104999 0.06616100901390351 0.17229774768401604 -0.075034519971406505 0.98218292947682395
0.59970495364790866 0.45788757455313528 0.071392303246190406 -0.47381300840944607 0.044741088697776363 -0.87948818527830597
0.59925897229098468 0.45240351624287034 0.071284097402049468 -0.46588305643285188 0.046699929725926681 -0.88361309083352635
0.59655434539397512 0.45284178878020803 0.075609513081002 0.46571094063216145 -0.062272756626239212 0.88274312433327762
0.59998060373679774 0.44725377911063208 0.073463691200664122 0.46779889422314147 -0.060786187405148184 0.88174215844789483
0.59621833500577537 0.44746428122190646 0.075200789418816458 0.4596084949973091 -0.063395522334324286 0.88585610517412294
0.50812880632735946 0.52240050631782486 0.12142336479524526 -0.26821214903885465 0.082937065353816952 -0.95978314545445931
0.5720789442458617 0.44763574151740504 0.085025531568486093 0.39800807493063928 -0.0843663907498865 0.91349432642017225
0.59853753976210577 0.44297504111430219 0.070957075214320001 -0.45570741650948871 0.048301849023416631 -0.88881813770825269
0.59543134372131035 0.44261404407402527 0.072737150202174153 -0.44600634786279159 0.052557501629769535 -0.89348533658282903
0.59830695255797073 0.437581048872486 0.07064607611666239 -0.448906686142855 0.049087380411468033 -0.89222935180399665
0.51690120956885077 0.51750472816371951 0.11595287029691952 0.32593397965244247 -0.083263056777762648 0.94171880319124146
0.51266384377235086 0.51725635885680699 0.11745008175883416 0.31796924925065501 -0.08449510911702543 0.9443284031873006
0.50823672328122405 0.51731464728893739 0.12078996036923871 -0.267703875945078 0.08629299871617771 -0.95962917482564702
0.59539641082986527 0.4329208281736272 0.071934978551488518 -0.4333597331808976 0.053946671915492739 -0.89960496788680722
0.59514325303841675 0.42794108757923011 0.071717654899969299 -0.42638013177908729 0.054756537460745484 -0.90288521132498245
0.58315908007248074 0.42710366018045326 0.078215310718754733 0.40585830593390898 -0.074830957242246934 0.91086736868913387
0.56558785672890532 0.42654149705899819 0.085016343597979466 0.37609967049703741 -0.087804059593304076 0.92240960802181338
0.51020269572764909 0.11721781794995521 0.070639817946189148 0.13098990242909209 -0.077779310125594164 0.98832789314984104
0.59802034436597262 0.42509839887211942 0.069985250638101806 -0.42877824265209402 0.052136888358197131 -0.90190407666253891
0.51833786219735434 0.11730253837775735 0.069784098596993291 0.14105778575806782 -0.076678612737481222 0.98702740155767033
0.5234655611121255 0.1170804687288266 0.069144676879877812 0.14701479362371811 -0.07593769307212743 0.98621504613682454
0.5287135661731277 0.11697377999260471 0.068456000358525351 0.15277518137033261 -0.075451694567591876 0.98537646904324883
0.59633047642398818 0.42269009844161198 0.072577912976354825 0.43362328146400259 -0.062223892302667623 0.89894328908952681
0.53811911144067981 0.11705495489396404 0.067119070147977106 0.16516675904484585 -0.074133123908205451 0.98347558263854851
0.54345637091494869 0.11725481466682799 0.066341430500462095 -0.21537559344775975 0.059265223978798381 -0.97473123832868314
0.5482186161049355 0.11741043973756722 0.065344840564345197 -0.22161191073061379 0.05858420260774181 -0.97337354198023152
0.58330264935018028 0.42234744846599337 0.077612742623460601 0.40037806267374249 -0.074404356430062102 0.91332436662658301
0.59538718892551279 0.41758890654772685 0.072463229893436509 0.42535170653311216 -0.06222593986163371 0.90288640379491014
0.59437346550337833 0.41221511712449993 0.071019098959641744 -0.40425639915573475 0.057666901242136658 -0.9128259923133043
0.56022616001027614 0.4117674713082769 0.085172687251245549 -0.34351824811006276 0.089078229979244167 -0.9349119114436174
0.51694465868494266 0.5123628895127903 0.11740783054005126 -0.28941085786252235 0.087336805067232876 -0.95321227322770397
0.51267156961007465 0.51271376013271763 0.11690652665354524 0.31820897563553069 -0.088549980239987683 0.94387602407545246
0.5078120945226674 0.5121486070857455 0.1202190255652127 -0.26629264078780829 0.090384892342048093 -0.95964514311206284
0.59045264428503785 0.40753622942602274 0.072512628846966284 -0.39397289789360007 0.060519378513128837 -0.91712745054856126
0.59466394146015666 0.40252130711561879 0.071495388439757682 0.40389867642998584 -0.060026375045909103 0.91283223731250496
0.59007751997090496 0.40317481999579124 0.072384558063981572 -0.39073778189894676 0.060266255402244298 -0.91852706234301151
0.56021304582977882 0.40169611191870341 0.084054174154230207 -0.33730708681513322 0.088133543988172761 -0.93726005335145546
0.59506854536095544 0.3977994777002346 0.070962234226596629 0.39671154210798659 -0.059395734883267763 0.91601970450202641
0.51269491629689512 0.50718737699086736 0.1180540749778602 -0.2756908182326781 0.093527647215799203 -0.95668550315580381
0.59008924583278699 0.39759842540062373 0.072013543135582045 -0.38643941098072493 0.060591940950685846 -0.92032233393126939
0.50980567092849549 0.12225933136751711 0.070939537157650709 0.13075362496456613 -0.076674431717395311 0.98844550738998249
0.59392793597945304 0.39218695217982696 0.069998110705910166 -0.3898770826615473 0.056717954785583946 -0.91911856363597699
0.51821372825262391 0.12177710332615205 0.070005362562170104 0.14088418357201055 -0.075546942156977673 0.98713945638393874
0.52326154548352588 0.12215216900223329 0.070172344268591147 -0.16563048527804 0.064399536476397651 -0.98408294469937141
0.52866482805835213 0.12184414602749355 0.068665415327575682 0.15317726367806495 -0.073980707576562152 0.9854255835924759
0.53333731832487041 0.12221070468755928 0.068025871189231979 0.16050173819325067 -0.072816503581828312 0.98434594977734469
0.5898944487601443 0.3925382257899267 0.071774611403414637 -0.383981771474182 0.059804522780172342 -0.92140187661551076
0.54315013967837333 0.12236357760702196 0.066660710085673189 -0.21490011623103047 0.059586551195457325 -0.97481658939542093
0.54808047403728288 0.12230383701597025 0.065621466390391486 -0.2219466358330687 0.058878864168588799 -0.97327949233331745
0.5725112818839756 0.39245452870766717 0.078749612391426735 -0.35575103129753322 0.074684363403110937 -0.9315918900429595
0.5902530223741641 0.38741262746614041 0.071350438635515823 -0.37981272464472648 0.059655255802598096 -0.92313787954621163
0.59289994810563507 0.38412945263392273 0.070026072619135002 -0.38511769240154387 0.05606937495384403 -0.92116262852527575
0.59011751406744195 0.38247423151260063 0.071128071146668234 -0.37707632971653343 0.059516665713317228 -0.92426793088902393
0.58544530058407507 0.3826430888156846 0.073054310769463365 -0.37039957322783351 0.062609711438424823 -0.92676004455643002
0.50284206908247742 0.50714122090167069 0.1195716045932175 0.3010487579970279 -0.09385582901603208 0.94897878199049324
0.57193942565908162 0.38225311690225455 0.078132959637558633 -0.34899690772029751 0.074533343019943396 -0.934155200799065
0.59032810564362503 0.37741484207201176 0.07151855492461423 0.36310997618803059 -0.061121158893060731 0.92973939850277243
0.48949803322688668 0.50694075852834708 0.12409457749642187 -0.22108085863708396 0.098232693051378453 -0.97029562091156707
0.51568240591960812 0.50227717108783887 0.11634370073453927 -0.28342157435911969 0.096356803917972897 -0.95414232561317147
0.5128175457268469 0.50266405248360024 0.11731740713058891 -0.27635723871004986 0.096820037568156589 -0.95616554891810301
0.58558528272206989 0.37787258868753443 0.073185601351606594 0.35307573393762487 -0.064807389957113479 0.93334748529760025
0.57192714958477131 0.37784532319799002 0.077711075232762439 0.32678595242614533 -0.076271596142279977 0.94201570311690985
0.59338955972265262 0.37249854745931943 0.069341995623420277 -0.3794583631047222 0.054501951548868117 -0.92360212643066697
0.59011629004141053 0.37283768306750587 0.071296165925213636 0.3535468795106938 -0.06245019740899891 0.93332983282001014
0.48867890992998386 0.50169458470792727 0.12348140863397011 -0.2190079278760021 0.10242698115510544 -0.9703320261945968
0.50955951364057173 0.12717940853696963 0.071218879937136548 0.13034927422692474 -0.075950970476469926 0.98855476165571954
0.58532082941061347 0.37282707766198442 0.072979409875169793 0.34587699747755879 -0.065563977911487548 0.93598636069994678
0.51855417445557095 0.12707081953551305 0.071129802112680204 -0.15785950980591207 0.065400620554260949 -0.98529342532818853
0.52300362781825249 0.12707890977776251 0.070491655318983951 -0.16602509377541749 0.064703722672558195 -0.98399649212239393
0.52807721066491209 0.1269983512893697 0.069748074619771255 -0.18019236812817563 0.063354723680645222 -0.98158896155962816
0.59016924668311121 0.36762315451022731 0.070450166389538355 -0.37209306082125904 0.056783813248454121 -0.92645688115617753
0.538201108730608 0.12718439701684647 0.06756906033902417 0.16797375431588973 -0.071307847732972704 0.98320903612238852
0.54330277500900148 0.12732346713639961 0.066887369910763134 -0.21488733622069403 0.060065239705477412 -0.97479002852465513
0.54819577235164452 0.12729112038889367 0.065864313915213801 -0.22194030862204681 0.059290876917726922 -0.9732559228296932
0.5850622501170949 0.36780827832161156 0.072429894614193219 -0.36565702330897853 0.060314947867101183 -0.92879332920117708
0.589352482445473 0.35758173012895283 0.070693860798401231 0.33715504308239802 -0.065416933610040764 0.93917362703664431
0.5853066250226866 0.3580562348630939 0.072066795285640875 0.33043569098899284 -0.067915393208236863 0.94138183192899871
0.58951242896624356 0.35303218988439433 0.070405991137964252 0.33442281295979226 -0.065758365183564246 0.94012617216012273
0.58078687607535195 0.35315888713188359 0.073465045115364197 -0.35261007778296005 0.061777023782517183 -0.93372893945645119
0.58882961084163454 0.34877951425199455 0.070390460908632213 0.33045726934780617 -0.066659559449105177 0.94146401751168518
0.48492730627018865 0.50038878278772547 0.12373262738990257 0.26924344084303481 -0.1034820753519462 0.95749643844969845
0.51212749482830955 0.49809793175164918 0.1154055784042354 0.31429577944211795 -0.096637053294934647 0.94439369065837342
0.50797231143912747 0.49742654369158418 0.11789195341095939 -0.26147336605587429 0.10304073833712211 -0.9596948916641953
0.58092500431929395 0.34815427744154331 0.073243364908593928 -0.34847281624109067 0.061926381487944396 -0.93527098726348434
0.53983076437804223 0.34682047130293614 0.085154478973872683 -0.26750180044885602 0.1032670266271609 -0.9580076763618367
0.58578752096381481 0.3378641722993439 0.071110306763379344 -0.34954572862804523 0.059696915781482576 -0.93501554096392836
0.58114907951765749 0.33765431006111213 0.072736748092648351 -0.34252793153674477 0.06240756755743563 -0.93743261711374393
0.58819348016678175 0.33090988952453343 0.069626502300700943 0.31616599987577793 -0.071023320397600787 0.94604162090377886
0.58093210480729618 0.33290511213240925 0.072595689396632204 -0.33904495215073038 0.063437893887613894 -0.93862886917045807
0.5759904526209928 0.33275344381206917 0.07347302870458236 0.30132446544696928 -0.076598413377308605 0.95044002945539763
0.5343811051219175 0.33160198363157556 0.08453274913413357 0.24979614894613367 -0.09995126941600245 0.96312596669065609
0.5884406845486353 0.32922136344105124 0.069487534548456312 0.31696633750597147 -0.070855745696335001 0.94578634172304832
0.58128659372799452 0.32751129444073734 0.071570514379593733 0.30485469563044126 -0.075030112630662588 0.94943883254831174
0.5760751574038826 0.32773729183486999 0.073147582789479387 0.29828477348672999 -0.077485056728689009 0.95132657898837358
0.58120622152338475 0.32257279491751661 0.072005928012238804 -0.33479603605259067 0.064476852638140097 -0.94008209732839387
0.57660955224660349 0.3225587928640733 0.073464191855292751 -0.32518088400382861 0.067733442115216161 -0.94322297125213894
0.55324664895137576 0.32220484720790743 0.079899581051193241 -0.28308886701683056 0.085108034663933241 -0.95531006265336171
0.58063720579207323 0.31258483394709824 0.071639589423092384 -0.33031693231744841 0.066594645500156452 -0.94151785825607093
0.57683543953101768 0.31266430784778487 0.072827134204146687 -0.3234555813070123 0.068577455495433773 -0.94375506330780268
0.56645296784197308 0.31258943629555019 0.074731617916129214 0.27421464573177945 -0.085618351696927497 0.95784958418266064
0.55327370509332274 0.31232010858493781 0.079058335581508501 -0.27541924125482792 0.086141608085651883 -0.95745697809511676
0.58090929968081129 0.3076325855768493 0.071215258689870622 -0.32877402826773883 0.067607008738062316 -0.94198563190002826
0.5765306849256514 0.30775731111688182 0.072602313070869826 -0.32139473493500254 0.069671904828986164 -0.94437876407380117
0.57133843908029613 0.30754625118263879 0.073050239072832715 0.27877834608210816 -0.084039123720777126 0.95667134348216376
0.55245441842034748 0.30742089621112967 0.077846031286014528 0.25353736059808951 -0.092734885308075818 0.96287021338696133
0.58420441873896067 0.30100843075076511 0.069713725247821393 -0.32934469717950626 0.068408309889299482 -0.94172839692653898
0.50754770472743815 0.49228769348779455 0.11713599349979102 -0.26086539450925689 0.10676917753000534 -0.9594527547915509
0.50252509849068405 0.49248259681432283 0.11769581481126132 0.29135712920454016 -0.10507464630235155 0.9508261365602676
0.49747594365475417 0.49238901939175883 0.1191678224479487 0.28244408675883831 -0.1066036099377447 0.95334202057981643
0.57656151291994229 0.30215789879970772 0.072240810252754875 -0.31985902016030499 0.070716198413930578 -0.94482243120280074
0.57111702763413275 0.30236740792910549 0.072745051027534147 0.27596332501432014 -0.084677123395297371 0.95743095209029994
0.58354069969966638 0.2968890036092508 0.069676446998955852 -0.32904391273065325 0.069074719164272505 -0.94178489405345578
0.51063667288534775 0.13469357694427445 0.071510343048888619 0.1329778528203252 -0.07456683726859123 0.98831001079572978
0.57619564568860215 0.29758951191332655 0.071993673745259404 -0.31556133680876808 0.072352656232106058 -0.94614276715917556
0.51807809401696692 0.13679884164605738 0.070776422142758449 0.14310729044909576 -0.072972206567244333 0.98701335375415544
0.52318227464673395 0.13684927892458618 0.071021039335131625 -0.16857343631934682 0.065222020918546855 -0.98352889360444706
0.52832659612006849 0.13710228188266665 0.07024249503675517 -0.1805072345730924 0.064132669816317531 -0.98148058510039105
0.53325121640756579 0.13721637855395921 0.068798041543765148 0.16171299823068572 -0.070877910022110524 0.98428919940947224
0.57096254480532327 0.29742733570708768 0.072387997669305509 0.2729122614855734 -0.085378693317432822 0.95824285870453418
0.5432694607371209 0.13736201963629688 0.067470169435608129 -0.21233400285319162 0.061225591834456021 -0.97527724167892971
0.54834170528726978 0.13723306700851282 0.066371035452458843 -0.22200073617180036 0.060378036167633785 -0.97317530069752511
0.58310926505001104 0.28883546680201455 0.068310790413759107 0.28496697048404512 -0.082817450420612726 0.95495292849384716
0.57608631509109631 0.28834197808679363 0.071312135764770884 -0.31255626905333145 0.074422980026617777 -0.9469793021599886
0.57138709433185009 0.28786527105115783 0.072607492082220837 -0.30285911226901086 0.076784878104766738 -0.94993707192111565
0.58004878725481079 0.28353162709639818 0.068743933397132154 0.27767308596140616 -0.084734777666791508 0.95693138457594185
0.57557513951742689 0.28341068282692694 0.06998879690624138 0.27187601846453063 -0.08579364273424217 0.95850032939496865
0.5710358061211408 0.28311860395690941 0.071167210456998156 0.26481145569879377 -0.087426820159673985 0.96032882079392679
0.56121877835738243 0.28315719382811 0.073660607136499315 0.25226188603291538 -0.090508092336619175 0.96341695338866773
0.50869311310877618 0.28188735753191119 0.084610145069356463 -0.17215193566759981 0.12091187583529951 -0.97762161868889108
0.58008462187571552 0.2786906932072426 0.068314318772536367 0.27503317887579232 -0.085310967018618664 0.95764230766180358
0.57596414435619003 0.27852850195413825 0.070506178401326267 -0.3089442997792759 0.076066283662696133 -0.94803340664959657
0.57113210312210261 0.27855613317031352 0.071883860427139012 -0.29921400848960766 0.078206818010266493 -0.95097564150733638
0.56126454692089278 0.27802293036645004 0.073158786360616429 0.24885423303671916 -0.090623866310163934 0.96429190889206573
0.57101869706620245 0.27536391495786983 0.071641671106317431 -0.29853350104980497 0.078803126944315946 -0.95114027142937452
0.53769575060271524 0.27253790400868483 0.078674313476233437 -0.2212901011589789 0.09796236447748613 -0.97027525284067151
0.50675249855101268 0.48721980794093411 0.11650773299353701 -0.25856148783207844 0.11010370404165401 -0.95969950055544473
0.51962340502292559 0.14010972301683761 0.070699653960042769 0.14555998746583779 -0.072353688766500349 0.98670017420228806
0.52335844399985276 0.14231866695338871 0.070278279568840432 0.14934083055510161 -0.071794845240961414 0.98617585476726144
0.52842311790366958 0.14190234899836796 0.069616206520967769 0.15595254069287509 -0.071137139920629811 0.98519963072229666
0.53325515455462713 0.14234963065025433 0.068968990121562768 0.16205475329602062 -0.070206718139895749 0.98428109484140314
0.55227341268547814 0.27018730386262646 0.075599481215746958 -0.25272392477777561 0.089045344849150707 -0.96343216907347096
0.54333734857913574 0.14215193037219875 0.06739930610481043 0.18093817835598891 -0.067985312223458147 0.98114187197117175
0.54808536577909373 0.14256260954974911 0.066753654489709505 -0.22206099619503866 0.061031079412264447 -0.97312081537424777
0.53648447724767689 0.26350494107928374 0.077097516344997424 0.20984796030376374 -0.09812126768057608 0.97279805221078985
0.53274387614314334 0.26253839564241166 0.077705163003560937 0.20481531568649478 -0.099332009953140551 0.97374731745916032
0.54107161921885627 0.25595412024076908 0.075397497764473811 0.2103623314082074 -0.095033792450372176 0.97299345723237174
0.53701719814188642 0.25759875994045051 0.07724739255597271 -0.21274960988920222 0.097583910926567652 -0.97222167421852301
0.53263805731417224 0.25751342731512988 0.077969453522427568 -0.20148464402459601 0.10066450644971683 -0.97430518594715321
0.50772198410876468 0.25740865867088847 0.081751334428915468 -0.15593259299708456 0.11532815039910584 -0.98101194904380584
0.50251375866096759 0.48748205635955649 0.11773083932636136 -0.25036417948719275 0.11055306687940786 -0.96181900430032163
0.49703978603606619 0.48730098207465378 0.11853160252264414 0.2783625820443843 -0.1099550865036579 0.95416149150421936
0.48312044582198149 0.25672546381210315 0.083893857174383746 0.12935827610659212 -0.12660578308966622 0.98348228865139364
0.55503098148291607 0.25254304048338239 0.072153200182947436 0.22815986723888007 -0.089723586924650725 0.96948066145277556
0.55215069937207328 0.25107989562576988 0.072631872990917806 0.2220510628742422 -0.090361943386823587 0.97083883557662431
0.54441689253494252 0.2513593220216308 0.074279395976901558 0.21308425165825773 -0.092462929112233597 0.97264881043222706
0.537019431504695 0.25249216568494631 0.076723003148070554 -0.21010260467696701 0.097175765772531147 -0.97283799579091079
0.52011141849018738 0.14888460491445113 0.072083791935757938 -0.16162079299633217 0.067361766387152106 -0.98455122350258617
0.52323455133463526 0.14687217538054362 0.070492220591581084 0.15011846019798653 -0.071526909662672084 0.98607725311047179
0.52836039143785896 0.14706960081190981 0.069779762620811855 0.15616205777646536 -0.070919071069700121 0.98518216440901463
0.53356345303442265 0.14717684729276076 0.069077780852556364 0.16380540461016849 -0.069911154207940737 0.9840123068020098
0.53240190531859344 0.25265270207327284 0.076701418053900738 0.19752963958277633 -0.096341959903783941 0.97555126377253809
0.54354159072885178 0.14726522654994395 0.067514795059671617 0.18186094853048859 -0.067951521243118401 0.98097359095968384
0.5484174043452118 0.14746133005999174 0.066956385743621935 -0.22429099637933797 0.061245003842116362 -0.97259580425145931
0.54025777309984668 0.24217448776026898 0.075268254509223004 -0.22000716445909771 0.092071773240642613 -0.97114346837065801
0.5372378240524337 0.24296120577379526 0.075800193829787657 -0.20757812930249042 0.095210431592122335 -0.97357397970124515
0.53239630577930763 0.24231186255120066 0.076424513942415145 -0.1936688244231658 0.098342708544450971 -0.97612555448707006
0.54615435907041299 0.23564588726045413 0.072478542783108793 0.20842441444448737 -0.087707713457878256 0.97409784953230616
0.54139980910251173 0.23719225777481057 0.073560695420638533 0.2021056527909342 -0.089411813546271951 0.97527372194082884
0.53732361709646437 0.23758333450545827 0.075317338496486932 -0.20986257434384445 0.093340877906071873 -0.9732652158592221
0.53192446331930243 0.23762087561081649 0.075301790182654704 0.18949302917487304 -0.092461168180991385 0.97751896363842328
0.52249358303985904 0.23706735402571411 0.076749189640348353 0.17422260883761903 -0.09576456964347374 0.98003858585813564
0.54941907324030814 0.23238198514799208 0.07152417991868304 0.21057194922960915 -0.086342727983365147 0.97375786904241934
0.54209023187565586 0.23295794223054453 0.073032200479889522 0.19988793718049874 -0.087842694025518586 0.97587318524286959
0.53718681898417375 0.23237299081754839 0.074813425344259388 -0.20776778493191961 0.092313983076559122 -0.97381244399166744
0.53202789755687108 0.2328835341040783 0.074830974909444473 0.18558651140531807 -0.090245206514882173 0.97847506329261658
0.52234684316109592 0.23247300670685414 0.076318369320733034 0.17094327948068405 -0.093864260459359736 0.98079962062023973
0.51767474592583917 0.23260127920491563 0.077716905160784652 -0.16654914224403686 0.10190804545617213 -0.98075284016365627
0.4477396929098269 0.23203712550130004 0.083447788009434698 -0.0635492110723683 0.13159164222885159 -0.98926494806375986
0.43871608819152635 0.22958840655234955 0.083936216539438099 0.095825895792960566 -0.12384844275058891 0.98766338441987955
0.54109120238951358 0.22757146790599844 0.07373041016413498 -0.21893355953564878 0.088317434765780398 -0.97173459711252574
0.52843418498787942 0.15225840028471049 0.071083531777094491 -0.18280132643514699 0.065890601571907029 -0.98093939857569334
0.53728546972615043 0.22785963142453192 0.074364037133891461 -0.20618264857423971 0.091059931555706533 -0.97426731664978961
0.53802140596519454 0.15239131850287349 0.068636191482921202 0.17130986406687707 -0.069334094500435081 0.98277449794609184
0.53223972090732941 0.22754851379562224 0.075165403336939204 -0.1939372717571588 0.093712705912224317 -0.97652765622587401
0.54861358589858256 0.15233269603399557 0.067179772635358556 -0.22553034584413933 0.06216867635364718 -0.97225054321602633
0.55322105175757386 0.15228411014644189 0.066148274717544489 -0.23266204659414499 0.061620750444957094 -0.97060355201762172
0.52233751767368508 0.22754137086225987 0.075889176752647461 0.1695674904520163 -0.090960813849654598 0.98131187525965147
0.51740989619229927 0.22765370773964758 0.076561781206179819 0.16157215618760559 -0.093236199301336295 0.98244666495679522
0.50781761059112063 0.22765156165634079 0.078502955838716415 -0.1467582193012677 0.10481015519352634 -0.98360401404011666
0.4976709967384888 0.22756491911946594 0.07883114310000304 0.13386959894816272 -0.10214905821709276 0.98572029520692084
0.42763595984355512 0.22594037855399696 0.083401988509674729 -0.053635906686798129 0.13219193221163192 -0.98977193462536639
0.52582204361954288 0.22093678301970585 0.074753145263234205 0.17092110767999341 -0.088211240059963905 0.98132805527842082
0.47061790632662442 0.45033732843466584 0.11871740113031677 -0.19495170413853957 0.12624205869326027 -0.97265449964021999
0.47963459924715868 0.45139805432463953 0.11707926491401156 -0.20865772605170754 0.12593918962642031 -0.96984600523751763
0.54065740026986375 0.21866672255084721 0.072081467078461886 0.19042581655428006 -0.084315038798533082 0.97807411918629028
0.53674146853021509 0.21770685086543085 0.073702550339472553 -0.20794718945697707 0.086999133755204655 -0.97426337153912745
0.53215151139619143 0.21737878316283607 0.073458595479065747 0.17878273677836043 -0.085457300484478568 0.98017028256520045
0.51752928269073295 0.21788310807417552 0.076458224660291979 -0.16290932691921983 0.095844210503311197 -0.98197476470412604
0.51964467090983246 0.1546894458760501 0.072432199232174616 -0.15862925849620393 0.068721272468835887 -0.98494372684900555
0.52363827833592258 0.15514573981312987 0.071959491285503149 -0.17252689084420639 0.067635431616150862 -0.98267996841582572
0.51259526188143034 0.21746532862383164 0.077080634186049962 -0.15251565578859894 0.097769189468544612 -0.98345318156485595
0.44233109954757405 0.21671283677398007 0.081415279082432693 -0.056884606719177389 0.12304069465014736 -0.99076996774145998
0.50388450531241913 0.45175696971365281 0.11101640015758589 -0.25451167127415369 0.12315077472878702 -0.95919638024178178
0.54367774740927832 0.1573379947580294 0.068546855358393985 -0.21862013173519745 0.06361174279166093 -0.97373445259942015
0.53540564503113319 0.21356917508214698 0.072629260586278999 0.18139922413376999 -0.083130648649009597 0.97988959415786292
0.5532651300519561 0.15727316592404716 0.066447436895385154 -0.23472592995941105 0.062228799691730001 -0.97006768541871147
0.5320527029731783 0.21241054052187378 0.073083754100639747 0.17593189255537786 -0.083689467856480279 0.98083843835352535
0.52244824830843783 0.21271936979648548 0.07455812495329002 0.16251573681850986 -0.086166730516686052 0.98293638137897898
0.51704353001176551 0.21257491490468208 0.075312416059233264 0.15640028008499038 -0.087258921812617407 0.98383170967063061
0.51172350872386052 0.21246982829608618 0.075953089261595191 0.14854019465536347 -0.088834703644536619 0.98490822212028162
0.47944090135181128 0.45585997915682691 0.11794008189470617 -0.20959324895427048 0.12446835120700542 -0.96983416084431817
0.53184356377609543 0.20822525945696321 0.072817670088628023 0.17439176728809475 -0.082017207427064462 0.9812546505306361
0.50588462102199361 0.47891623086384755 0.11531300347261339 -0.25839950344793011 0.11432660364521939 -0.95924925036030761
0.53470623375548831 0.16171304389534275 0.069605395442780632 0.16787688889499935 -0.070545873752376462 0.9832805448453914
0.52197573446731105 0.20765573221966463 0.074229065044277689 0.16016665877438432 -0.084285781442921009 0.9834848999672573
0.54351781686295586 0.16229533889443895 0.068206275823882778 0.18245688844565366 -0.068987520827820448 0.98079060243701421
0.54895579594392219 0.16260144374447039 0.067254245221683315 0.19287197057554037 -0.06782867962718743 0.97887674054823692
0.55346499511030012 0.16202017646250938 0.066675680381706626 -0.23443319641459068 0.063430854963599209 -0.97006061823858447
0.55802708593307804 0.16236298765095902 0.065442255131013691 0.21238025804665903 -0.065589391393537366 0.97498341407875233
0.51716989977922445 0.20766808576789256 0.074890409462237503 0.15465237708815532 -0.085479724259804754 0.98426412054968793
0.51189237235791263 0.2071047549942453 0.075488777062782536 0.14700463960664356 -0.086575234290363137 0.98533972047293905
0.49386547512949519 0.45744145027076732 0.11427688745500068 0.2536775143326444 -0.12698940044093202 0.95891679039302657
0.53210732332316635 0.20288859283640093 0.072374795556622171 0.17189155478000565 -0.080202780454687372 0.98184561281428029
0.52187740011367156 0.20267624542722401 0.073875978756407085 0.15806678971668753 -0.08248742333812728 0.98397698904989495
0.51732908290298529 0.20244687568153616 0.075376416326756152 -0.15775455031498017 0.088841539186991614 -0.98347378346847891
0.5349762211478073 0.16717562301497099 0.069741920477144087 0.16752071329521703 -0.071785054508872639 0.98325160389710009
0.51207469938295858 0.20266140428878957 0.075984092350652024 -0.14607005480360644 0.091109451639132519 -0.9850698487476347
0.54355209190197074 0.16707578020143923 0.068364682737667049 0.18252263325545051 -0.069959745286625658 0.98070949948949049
0.54873051755326163 0.16757389345566537 0.067484893539963606 0.19275428311354448 -0.068912695764448903 0.97882420623105759
0.55329845315680914 0.16704252376347323 0.067044670958146493 -0.23654267362844852 0.064255344927639804 -0.96949410220018117
0.55813578533056163 0.16733867307358724 0.065632598697271574 0.21158601890994733 -0.066547642293805595 0.97509115876772001
0.50753784605903796 0.20257427218009197 0.075665111355065193 0.1410062443655368 -0.086284144197292814 0.9862414945184913
0.49770141645727389 0.20223418221730094 0.077077113150364834 -0.11218574427520576 0.095975660006535471 -0.98904147105555085
0.49230613357632119 0.20232826865253195 0.077496009477083766 -0.10431528843458293 0.097557808499298321 -0.98974784394795423
0.48434882230561582 0.45943856252598686 0.11751450222206168 -0.22036027182644469 0.12324991940165669 -0.96760054152943753
0.50863236845751947 0.46204697214763168 0.11158490166725944 -0.26380170080243859 0.11923214468666739 -0.95717937625460692
0.52693791639289311 0.46271003786097964 0.10563919108963495 -0.3018333867398218 0.11318233488514612 -0.94661838441851309
0.53013606483798315 0.17211290098890775 0.071982409985845777 -0.18612885040440194 0.070243264666675326 -0.98001119116880664
0.53370297912127618 0.17214532172829375 0.07143013003244908 -0.19534694402833563 0.068927629726707379 -0.97830902751587046
0.50562900669687294 0.46613903549254143 0.11322412779935971 -0.2573189209290857 0.11880385879329508 -0.95899562880532141
0.54372087987749318 0.17218078486167795 0.068585644340369512 0.18398369246875446 -0.071013259513352925 0.98036070804518272
0.54937390694543853 0.17190813053188111 0.068250367898925246 -0.23331742967600733 0.065844116932010116 -0.97016881483318407
0.5535760203566471 0.17233508994796815 0.067314250369398004 -0.23954418241652395 0.065379888363480965 -0.96868160654983937
0.50879396199043425 0.46669276635515972 0.11233532285426 -0.26424196463656779 0.11797019215103441 -0.9572143009216143
0.51376660400264118 0.46677430774803091 0.11020002578226766 0.30311474341156824 -0.11408756118944942 0.94610014306540657
0.50578085325347044 0.47113784711328544 0.11407778056697114 -0.25826418641732923 0.11696666250662527 -0.95896736642925251
0.50880663113872049 0.47186474641320153 0.11329484909579175 -0.26269422386227903 0.11637658390270575 -0.95783518178678906
0.51397003014539477 0.47180563220937488 0.11094466113431423 0.30785202413477086 -0.11099844748967455 0.94493728675029343
0.53461969745251503 0.19213237252944387 0.071219945684196859 0.17334204292862823 -0.077445720744876351 0.98181194558410023
0.53260197799674214 0.19423013295555419 0.072870543223864076 -0.19588726956288827 0.078596454949117212 -0.97747162357412087
0.52599444271216111 0.19116881510640468 0.072447146126262491 0.16069997886679771 -0.078656576327813324 0.98386414702061253
0.51734465699518306 0.19266055630147688 0.074745597406708358 -0.15437604227183932 0.084195412077047241 -0.98441818865645681
0.51218903053577902 0.19221714741559526 0.074336813499191939 0.14499544796045838 -0.082026764867514812 0.986026333277218
0.50724891099321801 0.19275445430170388 0.074973287433675054 0.14003583931966557 -0.083335323544831391 0.98663325889395959
0.49715349130768011 0.19263741356004782 0.075955818902034469 0.12694262052951119 -0.086171896472017534 0.98815989361616796
0.49249226786144862 0.19282199761255309 0.07677026472215942 -0.10075526972987414 0.091874575818595108 -0.99066010212373723
0.48772732721612694 0.19231786679764246 0.076947949405568608 -0.091093072892547131 0.093442415595195699 -0.99144872133596895
0.44147583118356298 0.19279224716315863 0.078696492107993107 -0.052400573695995038 0.10621736053343223 -0.99296125412708902
0.50964825355069943 0.4767000161869912 0.11389243895879496 -0.26418908466426944 0.11428307319214992 -0.95767609697956491
0.51879720348851044 0.4815280452297781 0.11193257472243542 -0.28290209742985978 0.10969906017728751 -0.95285493096588747
0.5254238432004058 0.18843860251930938 0.072352418922604023 0.15843532043751662 -0.077964651462104975 0.9842864229279269
0.51686878532095704 0.18752615368458622 0.073488992242476209 0.15002030300343899 -0.079133299036829904 0.98551094852888577
0.51212418296821494 0.18788932146830714 0.074086157627460111 0.14435298953792228 -0.080269528580595009 0.98626518603918767
0.50713086158830634 0.18730395109521752 0.074626491509906329 0.13879125268734058 -0.081437624540074832 0.98696752808121735
0.49729811576987409 0.18768770315769673 0.075600225972462493 0.12654720763728197 -0.084416283648318005 0.98836212761022635
0.53591305134832723 0.17961017676967031 0.071437676471797329 -0.20312994344699001 0.071167952866008813 -0.97656200446263741
0.49262526136843188 0.18772570576149727 0.07603503566867488 0.12189875125287324 -0.085521728059329102 0.9888512165501625
0.54380755223653887 0.18229100827895328 0.069157269218614328 0.18520375630178551 -0.072804446608670692 0.979999531227293
0.54879559834524105 0.18210428664150416 0.069011919324519749 -0.23536542763761611 0.068476891225011868 -0.96949163526103721
0.55381207040975544 0.18217894381589231 0.067887253214414953 -0.24313737187113202 0.067704528810066514 -0.9676261236542788
0.48771625686699849 0.18752536929232114 0.076367499273644182 0.11524714041354756 -0.086928222802890004 0.98952593735931516
0.56334119497242496 0.18212590300061013 0.06553879295837016 -0.26547450324975452 0.065863223283895975 -0.96186554358857856
0.47800628899319747 0.18759096620891791 0.077113067693931919 0.10750491616518545 -0.089559278189347391 0.99016252640186264
0.42765374811657847 0.18760737788967069 0.078660178095728478 -0.048351362412883542 0.10632071570950255 -0.99315560269468206
0.51051718676807734 0.48654454198062025 0.114370902033278 0.30759310096522552 -0.10419590352601693 0.94579580139002184
0.51913938864823206 0.48678139045053437 0.11141135580760123 0.32555679644407043 -0.10015652022915607 0.94020287371644462
0.54025913942840798 0.18567761394317867 0.069934138306534888 0.17953817179901793 -0.074502487057093933 0.98092579958393078
0.51132660009703079 0.49197119205682815 0.11602666209931459 -0.26906861568827656 0.10546824840018915 -0.95732885082974006
0.54880770647948041 0.18706974985144262 0.069331300618238556 -0.23568144949117806 0.070240087306086676 -0.96928870028540548
0.5533730730875992 0.18732952949385548 0.067623892597648699 0.20227435449471637 -0.072433208758708165 0.97664656646233239
0.51949228069123143 0.49184009360064979 0.11194427409653633 0.32688285625744723 -0.09791958826277701 0.93997837875103341
0.56320405539518159 0.18720347176609278 0.065479460610405785 0.22358239062977789 -0.070216251353480211 0.97215255626168995
0.5213765162770162 0.18345938508004164 0.07264567961305142 0.15444682459689582 -0.077077343372952925 0.9849899804112241
0.5169553315204215 0.1828965516202235 0.073252891622071784 0.15080643962563789 -0.077284062432962847 0.98553771691462766
0.51206655331176976 0.18242546187791983 0.074764346049686167 -0.13823777821691713 0.080378374193245949 -0.98713202442008785
0.50715809467939588 0.1830409257764421 0.074390830659355839 0.13820977276164148 -0.079722458617623421 0.98718913502182382
0.54525278325327875 0.19251931587640217 0.069454852891616126 0.18889598374209834 -0.075631989654927692 0.97908023648061748
0.5485709598165911 0.19199948939923633 0.068792273680456206 0.19489505945921984 -0.074965406980612118 0.97795506213456374
0.55348742422995578 0.19209217133825549 0.067861207570453205 0.20299763680860597 -0.073996210534803791 0.976379291196106
0.49750754884822723 0.18260976401695747 0.075298117049562893 0.12566405378800777 -0.082172594532951573 0.98866385100967846
0.56338889594316377 0.19219249193171864 0.065691087720856828 0.22402475914581396 -0.071869494806046916 0.97192987555995192
0.49228782420213685 0.18261713372773139 0.076114352939628233 -0.098997582486736846 0.087348377157029644 -0.99124655846555909
0.4873885647324156 0.18240724412857767 0.076421333570616506 -0.091927987316026083 0.087971824540812801 -0.99187206999440458
0.4774329148044868 0.18262816386426373 0.076863105719421412 0.10658892019740161 -0.087187721397741169 0.99047317143303881
0.47272464687189902 0.18242775308141529 0.076896723713466938 -0.06965781079524197 0.092227964010682131 -0.99329844057546901
0.45401158849741891 0.18311506582818188 0.078382397948713253 0.094503096540922135 -0.093948490361381712 0.99108165450834285
0.5453579957055058 0.19739275011798504 0.070644348903658602 -0.22808658666082121 0.075830118888837589 -0.97068342009880881
0.54897425398068611 0.19700928588948993 0.069910771934339741 -0.23943316550720217 0.074409136322157066 -0.96805735351113953
0.55447642168227562 0.19682385194584109 0.068698584651692013 -0.25145733523634961 0.072563015528078895 -0.96514445412762229
0.51486172399119312 0.49688144580269833 0.11428593842050891 0.3191569929475146 -0.096362635312290945 0.94279003832686448
0.56356486960493801 0.19712422558173739 0.066494320688403136 -0.26732792748414375 0.070515873045407837 -0.96102200330464671
0.52411243677758679 0.497158211396451 0.11088886862303986 0.33645297519107226 -0.092873564015447441 0.93710933011689956
0.52464606425225413 0.50163875706243688 0.11333740391269387 -0.30435906228526327 0.092639429007831564 -0.94804192808015519
0.48754628880019335 0.17732768717573802 0.076121447789803065 -0.090014812142333187 0.085322770713795681 -0.99227887128201087
0.47230466886122979 0.17735876014245133 0.076558848544742791 -0.067684383651292368 0.089871865169198054 -0.99365077973136717
0.46738270031993262 0.17762824244717695 0.076745838199355931 -0.063945226897656041 0.091054351348848594 -0.99379077931798487
0.46238021693971781 0.17762935389840248 0.076877982495260969 -0.060705857088183275 0.09264718646402062 -0.99384671743458008
0.45814377331467065 0.17743455486407142 0.077838365824488567 0.096569145690577771 -0.089751500993290406 0.99127144020699165
0.5243707079867157 0.51177257455301317 0.11248342896578538 0.33749960459143447 -0.085887451108199675 0.93739925466300755
0.52891029666411304 0.51160148505017422 0.11063249945277631 0.34527882089686307 -0.084814582497772739 0.93465984317065876
0.52474022502607531 0.51694706087669096 0.11287335362471634 0.34005319287768804 -0.081967360080874116 0.93682718678263288
0.52892377726069728 0.51722444129475942 0.11122694331068275 0.34681564002458287 -0.080728784763428985 0.93445266072977651
0.51590214286472147 0.17031488317661334 0.073683272641416053 -0.14477214447324152 0.074389286078740222 -0.98666471524085331
0.51143165543589308 0.17217407422330305 0.074269601593367846 -0.13697817331699805 0.076219239444345555 -0.98763738668261436
0.50730279815033941 0.17210858966593409 0.074614919654754641 -0.12758739005727374 0.078000161001494206 -0.98875549696682552
0.49722527436837261 0.17254571337137714 0.075213551985867544 -0.10376143272371473 0.081338798611573407 -0.99127068196307899
0.54374945257779117 0.2069291863979377 0.070695102892284825 0.19066802812532807 -0.079360933863097116 0.97844138568806271
0.54911527230470814 0.20681588496932862 0.070620576151590064 -0.24104516633200448 0.077961423638052738 -0.96737750863471306
0.554463798230734 0.2073422198905738 0.069542692182824259 -0.25445221569648002 0.075759253751989789 -0.96411337787528584
0.492228762516076 0.17210250549350029 0.075503713571820702 -0.0955814438660893 0.082546325159504066 -0.99199309059646934
0.56345979593250206 0.20721282391842996 0.06660155689869425 0.2257161937811184 -0.075680745458998222 0.97124900238390721
0.47786412362294994 0.1725286584416566 0.076197693252758505 -0.075733347426875958 0.08570769409100483 -0.99343779435912483
0.46776152242862906 0.17247658390532483 0.07634390932860477 -0.062843379384116646 0.089194248040261812 -0.99402972580507687
0.52450219019482125 0.52215929195391475 0.11355136280314403 0.33878697614282971 -0.077345610999103961 0.93767853833559245
0.52963554543328351 0.52189624328401041 0.1114389768132225 0.34953956189340429 -0.075721082344581664 0.9338567408119578
0.53303360074040684 0.52240679564808767 0.11014034940443945 0.35483222374425916 -0.075128021795156291 0.93190657972451862
0.54466313939826927 0.21124004541910626 0.07081395317847905 0.19321744434079655 -0.080755987433827503 0.97782692215749445
0.54870942405189382 0.21191935368156151 0.071088330424421628 -0.23848187318346778 0.079978181183508718 -0.96784807004895257
0.55386914547600274 0.21166472688587856 0.069013884062051098 0.20609037831211227 -0.079496980356272617 0.97529840873519569
0.5302182919497499 0.52708632230904096 0.1140571272049038 -0.35402295504400744 0.062206567377871336 -0.93316562853384766
0.56373109809129029 0.21214146134318673 0.066865092191329675 0.22591938104651599 -0.077410772528079097 0.97106539716136786
0.53455816229025299 0.52675813445577335 0.11197883088666297 -0.37313885010350467 0.05767826441112834 -0.92598089416464435
0.57387130233991546 0.21212466898122118 0.064966580947698888 -0.28919016382102292 0.073278587291227743 -0.95446283206512128
0.51209851760539127 0.16809432393957655 0.074040236314198399 -0.13910647896337289 0.074316959860768 -0.98748487430819198
0.5072010898475976 0.16781287970469999 0.073394352767110371 0.13357669314793585 -0.076667684060887933 0.98806848612249643
0.49760634174636159 0.1675445559801671 0.074347708018591169 0.12407725584776964 -0.07853151828150863 0.98916006551906865
0.49237643753010008 0.16768431912309753 0.074818950593971562 0.11880584815188591 -0.079429826365775391 0.98973535509671162
0.54587578207074461 0.21568510960776288 0.070901457207002028 0.19723534545592711 -0.082001593342105897 0.97692065040730769
0.54938937061791548 0.21676669884846428 0.070274964835053105 0.20104489127937974 -0.082191440013937772 0.97612781892480538
0.55431364533566763 0.21708263601339911 0.070345866914837907 -0.25220062169242086 0.079364810695950957 -0.96441488646803464
0.48702581134515033 0.16777495182042432 0.075260427700417326 0.11406911560049075 -0.080494880951172659 0.99020644867965713
0.56325414286443209 0.21725715052193872 0.067324707733651068 0.22561292390104512 -0.079823998767408727 0.97094126382062984
0.5683736466176611 0.21686768018008457 0.066013710585250129 0.23925117286238146 -0.078240624298509365 0.96780022783286956
0.47720728465747364 0.16753393080760717 0.075894538710567575 0.10519651922409262 -0.083078634911012306 0.99097509189911415
0.57733512910203966 0.21749363287490467 0.063592351026032182 0.25847031729492664 -0.076619992302723566 0.96297584178264339
0.47271153590687881 0.16775072442830036 0.076043733245675663 -0.068298363772865661 0.08518333440999773 -0.9940216964657983
0.46792611129118361 0.16736893136888611 0.076521037760759539 0.099763167716158938 -0.085062250964679995 0.99136861148013933
0.46279749974062001 0.16747007068027289 0.076901830852725797 0.097579091053776629 -0.085871846290009102 0.99151618595152735
0.52193913659379221 0.53716924859585258 0.11811190128311833 -0.33499274208792612 0.059476359382294702 -0.94034165356164057
0.55407094069750407 0.22198529140331266 0.070777145969092486 -0.24911394213367746 0.080939047630306196 -0.96508606580103395
0.52981511021354244 0.53714967060225571 0.11280291432835046 0.34839410246248692 -0.064625802637024873 0.93511766906784433
0.56360711428857235 0.22222671663823484 0.067606865685865533 0.22968885850179274 -0.080994696267480973 0.96988807986111569
0.52982120031869784 0.54230476789291782 0.11323093157471996 0.34744392001442503 -0.059013468894047211 0.93584193800774984
0.50642665321435942 0.16303731226148882 0.073294181194481625 0.13299517149097839 -0.075446663336809966 0.98824090451237012
0.49690866302030745 0.16280690966444047 0.074227895546025616 0.1229247982655956 -0.077166462103364517 0.98941135585650752
0.49253390469603758 0.16255467073226998 0.07456914429439121 0.11803536280094386 -0.078076610591500145 0.98993519788266582
0.48728464271739846 0.16251628284489791 0.075048994506965644 0.11423399963361316 -0.07873041431774995 0.99032929633989075
0.48193756991005726 0.16286771784961321 0.075405888406207683 0.10867315743531573 -0.080285051720892286 0.99083018490718822
0.47230072116487104 0.16237841258544791 0.075777981359614249 -0.068614975289317814 0.083385583439333055 -0.99415231712274776
0.46699016080579941 0.1628404752727475 0.076453773010306786 0.099560408963460134 -0.083249436996051848 0.99154286655034174
0.46247142180426482 0.16236545048614678 0.076701976362624449 0.097447641992571984 -0.084227381678364244 0.99167015950148185
0.56865092477596313 0.22709072542165024 0.067689113542503732 -0.28463113347367713 0.076938993793734076 -0.9555446138676611
0.44669015121430683 0.16046587677107507 0.076256407772722828 -0.052130250129425806 0.088126391592574765 -0.99474427674971599
0.53092876242199682 0.54749036057253386 0.11467790631636823 -0.37918333783047786 0.044301702249419199 -0.92426043704658345
0.53092748326203199 0.55229258445839902 0.11479588477625102 -0.38392081307953951 0.039768583990974167 -0.92250922435046578
0.53468268742122427 0.5572301400991827 0.11208795089442643 0.35700766253531752 -0.046875628032471021 0.9329245437802729
0.50562806408893879 0.1568858784521609 0.07311404676976116 0.1316041439462268 -0.074607427838584331 0.98849080977391557
0.49734419333650193 0.15780968229611497 0.074447835351249797 -0.10357856825549222 0.076672210683297146 -0.99166166221503105
0.5556269743161053 0.23152803172137246 0.071276555804395847 -0.2549964748159721 0.082706682148397867 -0.96339836130202727
0.55872139129005416 0.23233346046536874 0.06953483011505085 0.22287248394255946 -0.084992990607913016 0.97113544238113192
0.4921801183897056 0.15731215506189081 0.074775357182339436 -0.0953566171166087 0.077363691140531973 -0.99243235279045039
0.56861780276545959 0.23212083878803297 0.067160402212007392 0.24032193129841101 -0.082568029591145481 0.96717521154464947
0.57365295241722636 0.23230022459426783 0.065830067576226864 0.25159316638182 -0.081756414271413252 0.96437376952893672
0.48739737286312446 0.1578575042014651 0.075014596366311581 -0.087102452202471314 0.078792327907425838 -0.9930785124466468
0.47758984512922664 0.15747203056164147 0.075584216469762253 0.10644973450165214 -0.079378980259242546 0.99114450587062752
0.47221426117003901 0.15732580207903549 0.07554607406199626 -0.068169233228821111 0.081553989104332605 -0.99433490459812635
0.46757017427709091 0.15768965116626638 0.075705867804553129 -0.064667059821584216 0.082565317233876945 -0.99448536427847989
0.46298851536657054 0.15738453424797672 0.076539759921962616 0.098664188799443817 -0.08230410346070309 0.99171135538627242
0.44722996403253618 0.1571086781838682 0.076077459049000512 -0.052112417477483679 0.086481882966745527 -0.99488953148738013
0.55545821074331525 0.23542550214743416 0.070516125699200363 0.21949402040452284 -0.086497233450119698 0.97177188867147957
0.5588989314346271 0.23679379610440093 0.069856414916634538 0.22624792291714371 -0.086220976184119044 0.97024626803793257
0.44362906730679252 0.15746986420921796 0.076186446598123278 -0.051053598682215096 0.087272677694959153 -0.99487537399894832
0.56858438779974663 0.2372794524744361 0.067586789742473077 0.24161671599419834 -0.084362964896811971 0.96669760147938621
0.57416959228050357 0.23716157929372197 0.067084663828494373 -0.29400699592772817 0.077598311274173451 -0.95264809265171435
0.5788244051225736 0.23705994231263799 0.065739150883557695 -0.30321441575302327 0.076246901534794118 -0.94986705811176342
