0.50877099999999997 0.47710900000000001 0.110848 -0.39014333897730602 0.18634381400536992 -0.90170070313467721
0.51754299999999998 0.48204599999999997 0.10795299999999999 -0.37708310888626562 0.18926162288498186 -0.90663574113069867
0.52520500000000003 0.18854299999999999 0.0709423 0.15431840512197076 -0.10191794658908845 0.9827505085237429
0.51667700000000005 0.18762499999999999 0.072161100000000006 0.12700145482593331 -0.070067987201494805 0.98942463464461372
0.51194799999999996 0.18798599999999999 0.072800699999999996 0.11274068069196788 -0.063007880457214005 0.99162470013478443
0.50695000000000001 0.18740899999999999 0.073220999999999994 0.10353564760825888 -0.053897397963175185 0.99316435707647965
0.49713600000000002 0.187801 0.074100700000000005 0.096391201637849463 -0.070919529962761005 0.99281375721565857
0.53530900000000003 0.17982699999999999 0.068368899999999996 -0.16849518162705668 0.08498028035497561 -0.9820324463678658
0.49247800000000003 0.187838 0.074572600000000003 0.093304005569978185 -0.08419651466935095 0.99207122197054542
0.54342000000000001 0.18243599999999999 0.067066899999999999 0.18076772272420874 -0.081070947291900702 0.98017882650376476
0.54818299999999998 0.18228900000000001 0.066366300000000003 -0.19551722968129964 0.070021918843836059 -0.97819729287050117
0.55320599999999998 0.18235399999999999 0.065363500000000005 -0.21706047315588492 0.064600444156013168 -0.97401824090115952
0.48760100000000001 0.18762499999999999 0.075101299999999996 0.092210873226783063 -0.092384721593248897 0.99144451084006313
0.56265200000000004 0.182307 0.062918299999999996 -0.23492871412199995 0.05658967879615661 -0.97036390469489908
0.477904 0.187696 0.075857099999999997 0.082262000776226196 -0.098082806962404637 0.9917725173681049
0.42755700000000002 0.18801300000000001 0.074861399999999995 -0.054327091872757319 0.08104509446190919 -0.99522874745071022
0.50981299999999996 0.48681400000000002 0.112187 0.36548043516943751 -0.12888766832255336 0.92185249387455392
0.51818600000000004 0.48709799999999998 0.108712 0.36407376822943627 -0.1661972213888416 0.91642172327474147
0.53992300000000004 0.185811 0.068056400000000003 0.18203882942647565 -0.093146083007072999 0.97886958876117824
0.51031899999999997 0.49239100000000002 0.112619 -0.34691117131216415 0.10785169854174853 -0.93167625833251855
0.548211 0.187254 0.066755200000000001 -0.20494738567989057 0.074036572242804022 -0.97596882894563508
0.55298800000000004 0.18745999999999999 0.065757399999999994 0.21867194469478382 -0.071901995056452644 0.97314576693849075
0.51862699999999995 0.49211700000000003 0.109501 0.36113352204192645 -0.13511595354141706 0.92267342996110324
0.56265299999999996 0.187365 0.063122499999999998 0.24050887097370732 -0.061096594792475138 0.96872219396879555
0.52114899999999997 0.18356900000000001 0.071129700000000004 0.15085088001535593 -0.084247241064679609 0.98496010801025968
0.51674100000000001 0.183003 0.071782600000000002 0.13974748623402705 -0.073650877373484608 0.98744427101147647
0.51176200000000005 0.18260100000000001 0.072450299999999995 -0.12257285788113564 0.059558991215244675 -0.99067079349109388
0.50697400000000004 0.183146 0.072956900000000005 0.10544058889633721 -0.057002285751591927 0.99279052253347366
0.54495499999999997 0.192634 0.067882999999999999 0.20321055133051238 -0.081156231140558435 0.97576592376194848
0.54823599999999995 0.19212299999999999 0.067085699999999998 0.2162803086088155 -0.075993181121029096 0.97336933613669085
0.55310899999999996 0.192223 0.066024299999999994 0.22358844164689923 -0.072805691781907017 0.97196066793161384
0.49734699999999998 0.18272099999999999 0.073799100000000006 0.087584723336080694 -0.059790198875043388 0.99436112572677793
0.56287600000000004 0.19234599999999999 0.063498299999999994 0.24403682697832688 -0.07321577828960274 0.9669981783270315
0.49212400000000001 0.18276600000000001 0.074246699999999999 -0.082960272566500917 0.069997023503493058 -0.99409155004775251
0.48724600000000001 0.18255399999999999 0.074575100000000005 -0.082567697976269755 0.076705095056756323 -0.99362915800777152
0.477327 0.18273900000000001 0.075489899999999999 0.074519455206733545 -0.09564404109863979 0.99262231901061615
0.472663 0.18252099999999999 0.075842099999999996 -0.06347267062621792 0.10373914330486719 -0.99257715580701711
0.45385599999999998 0.183312 0.076248800000000005 -0.061578703076928525 -0.11181091217316183 0.99181973324106065
0.54483700000000002 0.197571 0.068312300000000006 -0.20735619141337611 0.078357097982226148 -0.9751223385187846
0.54839300000000002 0.19719700000000001 0.067417500000000005 -0.21162741824817272 0.072203781079921939 -0.97467966524565175
0.55382699999999996 0.197021 0.066045400000000004 -0.22961513239106177 0.073778358581927425 -0.97048114086879156
0.51397999999999999 0.497172 0.111705 0.35170420073237768 -0.1058389058605408 0.93010874697179524
0.562917 0.19730600000000001 0.064029500000000003 -0.23413771516581713 0.090053750643301622 -0.96802368376605574
0.52316099999999999 0.49742999999999998 0.10831 0.36675714333644038 -0.094083303584341402 0.92554715158026946
0.52309899999999998 0.50213099999999999 0.10875799999999999 -0.36942671340853339 0.096691677909139656 -0.92421567982981345
0.48740600000000001 0.17747199999999999 0.074248300000000003 -0.072033859917306708 0.056194586950795891 -0.99581790073428766
0.472242 0.17745900000000001 0.075369500000000006 -0.056893204428697677 0.089375917066332827 -0.99437171557641679
0.46732200000000002 0.177731 0.075572299999999995 -0.030007844665719159 0.10388130682070662 -0.99413691378589308
0.46232099999999998 0.177732 0.075758699999999998 -0.0011938118829944657 0.10643297105752869 -0.99431916278680621
0.45799499999999999 0.17762 0.075673599999999994 -0.028869529690442736 -0.10917734343372197 0.99360296795863468
0.52334599999999998 0.51203600000000005 0.10972999999999999 0.37075784031863723 -0.093774335726336658 0.92398322376618081
0.52785800000000005 0.51185899999999995 0.10788300000000001 0.38739567131124925 -0.094278470017851779 0.91708023855080412
0.523706 0.51719499999999996 0.110123 0.37146023212050361 -0.083619924428343276 0.92467562106480328
0.52785700000000002 0.51746899999999996 0.108458 0.38607835682587283 -0.084629005295707507 0.9185757638068256
0.51553499999999997 0.17050199999999999 0.071040199999999998 -0.15806240717233455 0.058829850467374364 -0.98567506011508366
0.51113699999999995 0.17233699999999999 0.072017300000000006 -0.13937781961723547 0.055452330901358322 -0.98868542135319859
0.50705299999999998 0.172261 0.072544200000000003 -0.12281138326377042 0.049066624376278477 -0.99121633890546657
0.49705899999999997 0.172677 0.073462100000000002 -0.081127346861031305 0.033410267892438554 -0.99614361795408057
0.543466 0.20704400000000001 0.069205600000000006 0.2077765588763075 -0.069492767477988021 0.97570469756467315
0.54852000000000001 0.207015 0.068079200000000006 -0.20999096073381462 0.081358208364194259 -0.97431239258353775
0.553817 0.207542 0.066934300000000002 -0.20806698303328469 0.093343393420999413 -0.97365042056996987
0.49207499999999998 0.17224 0.073670600000000003 -0.067951312936079991 0.032899334224015774 -0.99714605393486844
0.563106 0.20732500000000001 0.065074199999999999 0.21244778709327489 -0.11703017090037467 0.97013910180870466
0.47777799999999998 0.172648 0.074627899999999997 -0.054416284392757287 0.056341179948693809 -0.99692754974214404
0.4677 0.17258799999999999 0.074998899999999993 -0.023296098903379983 0.083117776239300611 -0.99626739736323677
0.523424 0.52240200000000003 0.110677 0.3695478973231846 -0.070465559741948222 0.92653599847726742
0.52851499999999996 0.52213299999999996 0.10856300000000001 0.38921165668691315 -0.07140202602499042 0.91837684910855344
0.53184100000000001 0.52265099999999998 0.107136 0.39894344372036522 -0.068209888090873319 0.91443509331125639
0.54438799999999998 0.21135300000000001 0.069386900000000001 0.20006941086610311 -0.0836788901197702 0.97620186139138954
0.54813000000000001 0.21212 0.068587800000000004 -0.20457171994810866 0.081902390431714725 -0.97541909446096209
0.55352599999999996 0.21179400000000001 0.067347299999999999 0.19992027556570766 -0.097833234370917344 0.97491565874708208
0.52827000000000002 0.52744100000000005 0.109053 -0.38477435600360171 0.064893754942342341 -0.920726612807242
0.56344700000000003 0.21223500000000001 0.065636799999999995 0.20227941200641678 -0.11438673907704545 0.97262465185787816
0.532559 0.52707899999999996 0.107125 -0.39517365726097115 0.070352157460544934 -0.91590848590218621
0.57341399999999998 0.21224199999999999 0.063419799999999998 -0.27018733408586371 0.12230295722207699 -0.95500826758427004
0.51177499999999998 0.168266 0.071606600000000006 -0.14681712961298377 0.056742764279606658 -0.98753480402166749
0.50706499999999999 0.16789100000000001 0.072299199999999994 0.1309029855382543 -0.05083226054129876 0.99009115220035837
0.497502 0.16761400000000001 0.073390300000000006 0.086285793137690692 -0.033788627867145163 0.99569728860204043
0.492261 0.167769 0.073643 0.071080527348860695 -0.025984085737090885 0.9971320804789181
0.54561199999999999 0.21579400000000001 0.069564500000000001 0.19493116096749094 -0.081342037464595923 0.97743813892490095
0.54911100000000002 0.21687999999999999 0.068890599999999996 0.19008384057516223 -0.086848117329624525 0.97791898338691441
0.55373399999999995 0.21727199999999999 0.067999599999999993 -0.18524763686163673 0.094077702528244947 -0.97817825518879054
0.48690699999999998 0.16787299999999999 0.073907500000000001 0.05565963419829182 -0.026519248269124857 0.99809755765263397
0.56302200000000002 0.217338 0.066322300000000001 0.200712789315172 -0.10072337730198884 0.97445840212407464
0.56820099999999996 0.216923 0.065320699999999995 0.22640086251442432 -0.10158221394790962 0.9687227174285562
0.47710000000000002 0.16764100000000001 0.074464199999999994 0.043011559649767536 -0.039746053378690929 0.99828365556955434
0.57713599999999998 0.21754899999999999 0.062872399999999995 0.29475562018230272 -0.09339564533227554 0.95099756982019357
0.47264400000000001 0.16785800000000001 0.0746396 -0.03097170612021231 0.049740672585227588 -0.99828183340716581
0.46780100000000002 0.167513 0.074679999999999996 0.012717474486628064 -0.057518903819222672 0.99826341290569043
0.46265600000000001 0.16764299999999999 0.074740100000000004 -0.006703939499077138 -0.065864167193554812 0.99780607768999496
0.52009300000000003 0.53749800000000003 0.113066 -0.35896528113639309 0.052016399987251577 -0.93190032786293009
0.55352999999999997 0.222167 0.068570199999999998 -0.17846177296207183 0.084310008380590676 -0.98032811755967664
0.52854400000000001 0.53737400000000002 0.109546 0.38138255680795558 -0.05391284739866526 0.92284383849489671
0.56340100000000004 0.222299 0.066738400000000003 0.20330720021638649 -0.079491475192434186 0.97588282478579613
0.528505 0.54251400000000005 0.109849 0.38112345749971005 -0.038642732949050712 0.9237162168835702
0.50628600000000001 0.16311700000000001 0.072164599999999995 0.13484245026916727 -0.053211841605201864 0.98943722060492068
0.496809 0.16287199999999999 0.073322999999999999 0.092942141779128698 -0.034171201135588324 0.99508496486202569
0.49244199999999999 0.16261900000000001 0.073684899999999998 0.076060324005428018 -0.031372679467301316 0.99660954344980623
0.48717500000000002 0.16259999999999999 0.0738848 0.053705926107484078 -0.026503346647653678 0.9982050120678676
0.48183100000000001 0.16295999999999999 0.074139499999999997 0.043045706386706774 -0.019739349652159673 0.9988780832699149
0.47223599999999999 0.16248000000000001 0.074395699999999995 -0.01972937535818587 0.042542402929003895 -0.99889984267743392
0.46685900000000002 0.16298299999999999 0.074589100000000005 0.00054407729714652854 -0.05085124964974462 0.99870609009305322
0.46232400000000001 0.16253899999999999 0.0744726 -0.013782527068019704 -0.05668419213059922 0.99829702208817639
0.56817700000000004 0.22722300000000001 0.066058900000000004 -0.23748671635900082 0.059791325666482403 -0.9695488935211386
0.44662200000000002 0.16068099999999999 0.073583999999999997 0.069771968049086391 0.048342660622233614 -0.9963909170794969
0.52895099999999995 0.54772299999999996 0.10992 -0.38595675529309276 0.036514808911208833 -0.92179393129582166
0.52891100000000002 0.55249999999999999 0.11000500000000001 -0.38868295982922113 0.040221051861947597 -0.92049325023354456
0.53317499999999995 0.55740599999999996 0.10836 0.40213192426574246 -0.036403551751757364 0.91485774681432741
0.50547200000000003 0.156974 0.071847900000000006 0.13669848644846874 -0.068430389394747507 0.98824632840703286
0.49721399999999999 0.15790899999999999 0.0730653 -0.10740545992634389 0.052298236078034202 -0.99283883973237919
0.55506200000000006 0.23172000000000001 0.069040199999999996 -0.18099520506722 0.058118124346691072 -0.98176525675188653
0.55845800000000001 0.232435 0.068376199999999998 0.1897631365883182 -0.054007094223719805 0.98034340195957537
0.49207099999999998 0.15740499999999999 0.073480299999999998 -0.081879657571215167 0.040351771193512388 -0.99582501285997382
0.56836200000000003 0.232209 0.0661355 0.2405084991133489 -0.053485280215759295 0.96917232041287993
0.57339300000000004 0.23238400000000001 0.064851000000000006 0.26835474553809696 -0.054649758672569125 0.96176875309203758
0.48730800000000002 0.157945 0.073793200000000003 -0.05995306328642222 0.034127450689230426 -0.99761763582648633
0.47747600000000001 0.15756899999999999 0.074255500000000002 0.030836617154774162 -0.034739814352172591 0.99892054155534649
0.47215600000000002 0.157416 0.074294299999999994 -0.015447721952501201 0.039732016360130649 -0.99909095419908411
0.46751399999999999 0.15778400000000001 0.074432200000000004 -0.0017272646623880444 0.042726491056235591 -0.99908531343364648
0.462835 0.157551 0.074322700000000005 -0.015578473126579531 -0.042777478017178232 0.99896316175799715
0.44716899999999998 0.15731500000000001 0.073413500000000007 0.065023946134422805 0.049779179505046948 -0.99664131949107559
0.55517499999999997 0.235539 0.069243700000000005 0.18657424423256613 -0.050768971158158517 0.9811282092349547
0.55860799999999999 0.23690700000000001 0.068592500000000001 0.19260337037012085 -0.044940571814336409 0.98024705392419842
0.44356400000000001 0.15770100000000001 0.073267799999999994 0.058737064805647964 0.047965240846127639 -0.99712050068614599
0.56829399999999997 0.23738300000000001 0.0664246 0.24038957898170676 -0.052263983994090289 0.96926844903466391
0.57357100000000005 0.23732900000000001 0.065084900000000001 -0.26483128761422819 0.05445183859804037 -0.96275614065758253
0.57815099999999997 0.23724100000000001 0.063568100000000002 -0.29331115562552501 0.054600125873502728 -0.95445659526256965
0.528644 0.56245999999999996 0.11065700000000001 0.39790215345192953 -0.046301660962713868 0.91625871481280408
0.53332500000000005 0.56219300000000005 0.108503 0.40701147661786813 -0.040545126185018425 0.91252273979555354
0.52869600000000005 0.56745400000000001 0.110958 0.4020404873812074 -0.04057324090940536 0.91472250361975294
0.53299099999999999 0.56761300000000003 0.10891099999999999 0.41229632052975523 -0.035597356263164869 0.91035409171634896
0.52885599999999999 0.57250100000000004 0.111069 -0.40343511942516169 0.025371634465290355 -0.91465642980245065
0.53318600000000005 0.57257199999999997 0.109014 -0.41446445466098847 0.025243582362609863 -0.90971532765589458
0.56365699999999996 0.242092 0.067740599999999998 0.20084525361984537 -0.043932456261363849 0.97863738094619257
0.56811500000000004 0.24257200000000001 0.066820500000000005 0.22860389678621598 -0.051111275863758236 0.97217688506451116
0.57311999999999996 0.242342 0.065656500000000007 -0.25609232141604632 0.063988645379308096 -0.96453210219995344
0.52910999999999997 0.57744600000000001 0.111025 -0.40341775121128232 0.017873230627889473 -0.91484133358443886
0.58246200000000004 0.24236199999999999 0.062744800000000003 -0.30739814772899948 0.063543595195771477 -0.94945699759513913
0.53737000000000001 0.57790399999999997 0.10710699999999999 -0.42525720841713116 0.023373423731969028 -0.90477068351727363
0.50534699999999999 0.149843 0.071244699999999994 0.14656114771049755 -0.085485880445930348 0.98550088494438481
0.49688599999999999 0.14775099999999999 0.0723554 -0.12082114956924588 0.08091432791085193 -0.98937107363996701
0.49248999999999998 0.14791399999999999 0.072967000000000004 -0.10043480167009927 0.076432397335954999 -0.99200349760016804
0.487205 0.147481 0.073349899999999996 0.072853517096510154 -0.074178486565513721 0.99458027186221531
0.47756599999999999 0.14777599999999999 0.073784600000000006 0.032299096031248919 -0.062866943370806935 0.99749913073985996
0.47236899999999998 0.14741899999999999 0.073807700000000004 -0.016360414080952942 0.056141098778405535 -0.99828879282452787
0.46754099999999998 0.14790600000000001 0.073860800000000004 -0.0039075082960782336 0.053707321626623644 -0.99854907489948164
0.53344999999999998 0.58246399999999998 0.109127 -0.41060711183178206 0.020623003259925388 -0.91157911968720706
0.52897700000000003 0.58745800000000004 0.11122899999999999 -0.3945661019314789 0.015738364791774449 -0.91873276586844288
0.53364500000000004 0.58737300000000003 0.10915999999999999 0.40768183966684363 -0.023577681914845022 0.91281959363358345
0.50144 0.14494799999999999 0.071354799999999996 -0.14794003620380844 0.090858225534860615 -0.98481395630884117
0.56494699999999998 0.252475 0.067988099999999996 0.18713225564154959 -0.069156689787451417 0.97989737786981945
0.49707899999999999 0.14427599999999999 0.072047600000000003 -0.12756005126907491 0.089569404638274189 -0.98777819123170363
0.57342899999999997 0.25212299999999999 0.066196000000000005 0.24668479938836996 -0.076748454336832556 0.96605190570053057
0.578407 0.25216499999999997 0.064680500000000002 -0.2908551539112586 0.081505941102668164 -0.95328907525903539
0.582708 0.25234499999999999 0.063212299999999999 -0.31144081644879035 0.08117350731446854 -0.9467922050587334
0.49167 0.14374300000000001 0.072633199999999995 0.099671979629359794 -0.087453409791390907 0.99116971180147728
0.48718499999999998 0.14313899999999999 0.072930999999999996 0.077771189435826643 -0.08296587525133868 0.99351311296706912
0.47754000000000002 0.142787 0.073373300000000002 0.035347968619434435 -0.072889842379979752 0.9967133951103001
0.56486999999999998 0.25749100000000003 0.068465399999999996 0.18830731202916048 -0.09804881264995316 0.97720355431930672
0.47220099999999998 0.142734 0.073513400000000007 0.023067854906201661 -0.062180326579784874 0.99779831682382469
0.57342099999999996 0.25700000000000001 0.066543400000000003 0.24233731346077209 -0.10285707343166028 0.96472433832141335
0.57855699999999999 0.25705299999999998 0.065027399999999999 0.28861413271472453 -0.10789317601854023 0.95134691094571777
0.46736 0.142426 0.073489299999999994 0.0086818359428565729 -0.055581682338202286 0.99841639725773568
0.52879200000000004 0.59246699999999997 0.111429 -0.38867371238537318 0.016740112558442845 -0.9212233789543679
0.48692800000000003 0.13798199999999999 0.072391300000000006 0.081725750341978987 -0.089651507995263682 0.99261448148070852
0.476655 0.13783699999999999 0.073016499999999998 0.04592293614574363 -0.074087514251308342 0.99619381857538936
0.47277200000000003 0.13766200000000001 0.073149599999999995 0.034321827261861101 -0.062457320278072596 0.99745731503512947
0.56452999999999998 0.26189000000000001 0.068924899999999997 0.17991559661616063 -0.13201609231230887 0.9747831191936176
0.568581 0.26194800000000001 0.068234100000000006 0.2027042762115053 -0.12304644900545433 0.97147853696966358
0.57366799999999996 0.26175700000000002 0.067093200000000006 0.23868121492475905 -0.14698139588026035 0.95991028065498452
0.57851399999999997 0.262071 0.065662600000000002 0.27828690472408202 -0.15442697502689465 0.94800248314186031
0.46750700000000001 0.13761799999999999 0.073278200000000002 -0.019108604887329812 0.049264446201788048 -0.99860296192214981
0.462279 0.13764299999999999 0.073321200000000003 -0.0023587377028523493 -0.039040229787676101 0.99923485568437542
0.53393400000000002 0.59749300000000005 0.109307 -0.40246759537272919 0.015952949329392022 -0.91529521908649047
0.48678300000000002 0.13281999999999999 0.071866299999999994 -0.08436005979951329 0.079800592555565986 -0.99323473848753552
0.47222900000000001 0.13258400000000001 0.072835999999999998 -0.049339557003463305 0.055943846483611337 -0.99721406636454957
0.56531500000000001 0.26698100000000002 0.069684999999999997 -0.19004737399231161 0.13858595270747473 -0.97194440651242409
0.46766600000000003 0.13323099999999999 0.073074399999999998 -0.038071803163580553 0.041790580500946722 -0.9984007638144452
0.57386000000000004 0.26688499999999998 0.067890699999999998 -0.24438804021177235 0.12964840988275692 -0.96097126680058531
0.57881400000000005 0.26680599999999999 0.066505900000000007 0.26715227624890397 -0.1433138797417115 0.95293797970718308
0.46205000000000002 0.132664 0.073219199999999998 0.0064306192909894203 -0.024909317428876948 0.99966903175038979
0.45151000000000002 0.13150700000000001 0.073005399999999998 0.049039170322829326 0.006104841513701444 -0.998778198943159
0.47581800000000002 0.121377 0.071941000000000005 -0.071743544781680699 0.053689656552688148 -0.99597705021823346
0.46781800000000001 0.122631 0.072770899999999999 -0.064700780619468129 0.039827855871414228 -0.99710959823076484
0.56590300000000004 0.26946100000000001 0.070095000000000005 -0.19608697258956612 0.1342918433869261 -0.97134731171728672
0.46105699999999999 0.123518 0.073173500000000002 0.026931088954445442 -0.021483486053164615 0.99940641196398738
0.45205200000000001 0.122554 0.073203099999999993 0.040756763308719884 0.013208654894248897 -0.99908178728294406
0.44820500000000002 0.123013 0.072953900000000002 0.077580696409492444 0.011696645731588696 -0.99691746098824474
0.47476800000000002 0.117524 0.071813299999999997 0.078574689888070814 -0.051685978624879537 0.99556746517882067
0.46760099999999999 0.11773 0.072558999999999998 0.074391067017358703 -0.047772251071080143 0.99608422393672114
0.46253499999999997 0.117045 0.072916599999999998 0.048181274142221162 -0.038829358476538081 0.99808358655091245
0.45257399999999998 0.11772299999999999 0.0731903 -0.032086878006197313 -0.03281041681173151 0.99894639936708118
0.448378 0.117232 0.073034199999999994 0.077402789866692884 0.040059739394007671 -0.99619477282333568
0.46659099999999998 0.113514 0.072467900000000002 0.07030339791866326 -0.055096603602479852 0.99600290989161333
0.462316 0.113222 0.072768600000000003 0.049529135976947414 -0.057254699543549663 0.99713026434340823
0.45288200000000001 0.112542 0.072989399999999996 0.031692629922203702 0.058842455214242827 -0.99776407164869096
0.44855899999999999 0.112939 0.072831900000000005 0.081762041174427591 0.060514991116496337 -0.99481299975078807
0.480466 0.107988 0.070821300000000004 0.06031125371329514 -0.050992882732771215 0.99687626041857991
0.47748499999999999 0.107574 0.071057200000000001 -0.068683747865157393 0.058395758871727169 -0.99592794825980802
0.59251399999999999 0.27730700000000003 0.063727400000000003 -0.32621640979276051 0.15583428678870861 -0.93236180157864468
0.45775399999999999 0.107608 0.072566000000000005 0.012794846093032943 -0.074751493184320547 0.99712010619592373
0.45433800000000002 0.102606 0.071992799999999996 0.029142919421709757 0.081401264372889789 -0.99625525062911191
0.460447 0.099352499999999996 0.0717333 0.037175567675901453 -0.077938673002712219 0.99626479432857173
0.45726299999999998 0.094552600000000001 0.071504999999999999 -0.0060614170280907081 -0.073696971048604273 0.99726226023141606
0.53722199999999998 0.60391799999999995 0.107867 -0.41568607473893743 0.0036182122362471603 -0.90950095976219192
0.596275 0.62790500000000005 0.071374400000000005 -0.68348129771103394 -0.038472319654182616 -0.72895349392102382
0.59125399999999995 0.62894700000000003 0.076240600000000006 -0.67307227930148372 -0.030367559657809327 -0.73895298778497076
0.57438699999999998 0.281752 0.070257799999999995 0.22684401568466483 -0.1366182340033302 0.96430143144447655
0.59123000000000003 0.61179700000000004 0.076790399999999995 -0.6761489241062113 0.016912041991976157 -0.73657084877537382
0.59647600000000001 0.60895200000000005 0.071379999999999999 -0.68602526400712371 0.020478200960062098 -0.72728947498873886
0.59084000000000003 0.60726999999999998 0.076925300000000002 -0.67567691099003901 0.0264055497011778 -0.73672481897920206
0.593974 0.602661 0.073432399999999995 -0.67330098456744392 0.031145698938767494 -0.7387122102809226
0.59093799999999996 0.597746 0.076249700000000004 -0.67492049342417559 0.0092988463553732234 -0.73783186364681119
0.59643999999999997 0.58788899999999999 0.071240700000000004 -0.6503055692356805 -0.079825802629255552 -0.7554670792666297
0.59075800000000001 0.58777500000000005 0.076636899999999994 -0.66066180069503 -0.065625926091400638 -0.74780961676555535
0.59411599999999998 0.58280600000000005 0.074179200000000001 -0.65604201111557781 -0.089426156818634236 -0.74940766084159904
0.59734399999999999 0.57702299999999995 0.072299000000000002 -0.64812543783313281 -0.089035507243906395 -0.75631084567354334
0.59455599999999997 0.57272000000000001 0.075270900000000002 -0.65617318259001123 -0.069453167878111455 -0.75140735418372784
0.57503099999999996 0.286854 0.070672499999999999 -0.25102132632055507 0.07384585573776796 -0.96516065156150366
0.603294 0.50603200000000004 0.069337599999999999 -0.51518470046092935 -0.037720909549607703 -0.85624871234573685
0.60434299999999996 0.49779000000000001 0.069031400000000007 -0.50696279920769349 -0.0082249001366505505 -0.8619286926638664
0.60867899999999997 0.49147400000000002 0.066098799999999999 0.49879397387158569 -0.026641916250922361 0.86631101801135513
0.60910699999999995 0.48716900000000002 0.065870899999999996 -0.49050677035814894 0.011434036774659241 -0.87136236494116159
0.60486300000000004 0.48744999999999999 0.068576300000000007 0.51783529314565147 -0.0082870982290738377 0.8554401984801151
0.60878500000000002 0.47783599999999998 0.066290799999999997 -0.51198736940630596 0.020994740042792517 -0.85873637075586051
0.608321 0.47231000000000001 0.066312599999999999 0.51935433307636192 -0.068399003061718297 0.85181726508387379
0.59008700000000003 0.47199799999999997 0.077071100000000003 0.4461908458587987 -0.053758209807284671 0.8933217695489829
0.60841699999999999 0.467972 0.065725000000000006 -0.51611493742538772 0.084417046779462629 -0.85234918524007652
0.60830200000000001 0.46264699999999997 0.065099500000000005 -0.51124245600872997 0.08843416819388196 -0.85487458090062418
0.60134799999999999 0.46360200000000001 0.069652000000000006 -0.48638477627132887 0.10352645520566357 -0.86758983539691115
0.60128300000000001 0.45783200000000002 0.068873599999999993 -0.47267392423292059 0.098851091160122168 -0.87567563807993654
0.57937700000000003 0.29247200000000001 0.069815199999999994 -0.2315476391144303 0.013570778916812107 -0.97272890610905816
0.59677199999999997 0.44114300000000001 0.069924500000000001 -0.44709067405002545 0.065721706207679892 -0.89207095374227119
0.58401499999999995 0.44216699999999998 0.076563199999999998 0.42051620989840821 -0.094043172815018963 0.90239791603236896
0.60779700000000003 0.43795499999999998 0.063381900000000005 -0.47763277733464266 0.01303502055512968 -0.87846287243953713
0.59611099999999995 0.432284 0.069702899999999998 -0.42922002858179836 0.041087301276552107 -0.90226492824339022
0.60688699999999995 0.42273699999999997 0.063346399999999997 0.44911369230042936 -0.047273577547852205 0.89222312246102564
0.59934900000000002 0.422703 0.067266900000000004 -0.42769413401360962 0.06975847430224684 -0.90122776421577866
0.59182900000000005 0.42270600000000003 0.071356600000000006 0.42201162007140697 -0.071112873802147536 0.90379707440570178
0.60684099999999996 0.417327 0.063082700000000005 0.43884794572843738 -0.036087612208864125 0.89783637973463359
0.59897800000000001 0.41756500000000002 0.067163700000000007 -0.41538606016301588 0.03693751921970944 -0.90889495580960333
0.59237300000000004 0.41777199999999998 0.070716399999999999 0.40111731233193593 -0.057591748787086137 0.91421446729924905
0.57932700000000004 0.41717199999999999 0.076558699999999993 -0.35880633707412801 0.064805155703810347 -0.9311596556282129
0.57904900000000004 0.41227900000000001 0.076356199999999999 -0.36020564698500485 0.054737801080087946 -0.93126562537926338
0.60658100000000004 0.40639999999999998 0.062650700000000004 -0.44396118867294704 0.013127674957888925 -0.89594984630966057
0.59063100000000002 0.40900599999999998 0.070885500000000004 -0.3941853349967499 0.054103410237163294 -0.91743705106901441
0.60666500000000001 0.38740799999999997 0.062253200000000002 -0.42888893373414944 0.016004095634681911 -0.90321545128684577
0.60716999999999999 0.38334299999999999 0.061935900000000002 -0.4286556179590863 0.0057899521557583065 -0.90344941067341888
0.60667499999999996 0.37919999999999998 0.062191400000000001 -0.38953777215877561 0.018507105839563637 -0.92082452785263103
0.59500699999999995 0.37764799999999998 0.0671408 0.33168874001624937 -0.058937270579296493 0.94154605722879858
0.60697000000000001 0.37121100000000001 0.061595400000000002 -0.38994852388543277 0.029037869437464062 -0.92037869969817576
0.57177199999999995 0.302512 0.071655899999999995 0.23217458962202431 -0.0049879781424786388 0.97266133880600725
0.60258999999999996 0.35820099999999999 0.062753500000000004 -0.38353298439534955 0.056912734007382497 -0.92177187556824558
0.56327499999999997 0.34195900000000001 0.076159199999999996 -0.26251412132970547 0.074441967731538314 -0.96205235280765733
0.58437700000000004 0.30230099999999999 0.068317900000000001 -0.25758510169262566 -0.0046653543315733643 -0.96624435307791601
0.60185200000000005 0.335642 0.062192400000000002 -0.36917442509270548 0.0034584133244208518 -0.92935369113957267
0.59925499999999998 0.337561 0.0633214 -0.36324678448978831 0.020693490608262088 -0.9314631248762747
0.558952 0.33261800000000002 0.076727000000000004 -0.24229849385716803 0.085363944121192775 -0.96643904976911077
0.60264899999999999 0.32919500000000002 0.061693499999999998 -0.3855962806118946 0.013712490027785131 -0.92256570280685757
0.55897699999999995 0.327376 0.076211699999999993 0.24262492426453558 -0.082942113873243933 0.96656802754481086
0.58526500000000004 0.32211400000000001 0.068056199999999997 -0.26853019504181647 0.044742488406847761 -0.96223159586555218
0.58519399999999999 0.31317400000000001 0.067497100000000004 -0.23677617687643579 0.040290207077496164 -0.97072845908494487
0.58544799999999997 0.30788599999999999 0.067167299999999999 0.2655146880255233 -0.055750588631396487 0.96249354403547127
0.59441100000000002 0.28377999999999998 0.063436400000000004 0.33672197498298417 -0.1030865324633949 0.93594416414027193
0.57175200000000004 0.27788200000000002 0.069875099999999996 -0.23731246859661875 0.12662946739098313 -0.96314472964184106
0.563029 0.27263599999999999 0.070850800000000005 0.18876771246799995 -0.14221660185987869 0.97166927958283589
0.55771300000000001 0.27243600000000001 0.071914400000000003 -0.19450849117869429 0.14669354497194242 -0.96986981122362625
0.55708100000000005 0.26272699999999999 0.070216600000000004 -0.17273622818585729 0.13865960443194456 -0.97515932522378101
0.59766300000000006 0.30732399999999999 0.063611799999999996 0.3227252518715073 -0.028023100659276309 0.9460777545391883
0.54739700000000002 0.26238699999999998 0.072200600000000004 0.19738945695171226 -0.14091694417017014 0.97014422491197116
0.54263899999999998 0.26231399999999999 0.073312100000000005 0.20830117056810465 -0.13891109766966198 0.9681499518587845
0.56153299999999995 0.25765199999999999 0.068732000000000001 0.1772093093573236 -0.1080300015366209 0.97822613921582469
0.55734099999999998 0.25776500000000002 0.069597500000000007 -0.17155509425599802 0.09826670319569597 -0.98026144710371266
0.55228900000000003 0.25753399999999999 0.070514199999999999 0.18621920058545252 -0.10165716671938002 0.97723499210164555
0.54713699999999998 0.25745499999999999 0.071534799999999996 0.19905212465808486 -0.10979234263417267 0.97381923023115669
0.579515 0.31207200000000002 0.069987099999999997 -0.26407134765663087 0.041671623584593982 -0.96360251096322636
0.56201100000000004 0.25304399999999999 0.068294099999999996 -0.17700052774574165 0.070407814683345699 -0.98168913246976752
0.55212799999999995 0.25285299999999999 0.070207800000000001 0.17640343446972218 -0.067218093135191517 0.98202014045667874
0.55559599999999998 0.24430499999999999 0.069403699999999999 -0.17466886661081951 0.032656020733412484 -0.98408555082713756
0.55227499999999996 0.24243899999999999 0.069889699999999999 -0.17617441539279446 0.026095807314944187 -0.984013000016559
0.5474 0.242562 0.070729899999999998 -0.1784169650308966 0.026950663917323679 -0.98358581135739198
0.55194699999999997 0.23255300000000001 0.069495399999999999 0.1734246716317645 -0.055037344638500831 0.98330807683276833
0.50805800000000001 0.23218900000000001 0.076675300000000002 0.12387913538715738 -0.087706984354758738 0.98841360002335277
0.55169500000000005 0.227741 0.069214800000000007 -0.17657616869351536 0.066515463331322092 -0.98203693911549927
0.54703599999999997 0.22756399999999999 0.070034200000000005 -0.17884588935804815 0.066070186743854245 -0.98165619148628669
0.542072 0.212648 0.069817900000000002 0.19066459648535647 -0.08297896778795491 0.978141862181515
0.57979199999999997 0.31726300000000002 0.070377400000000007 -0.26932681839730294 0.061207672315898722 -0.96110180820850388
0.53719399999999995 0.20765900000000001 0.070553000000000005 0.176268155197147 -0.065751573841858202 0.98214371046232996
0.53715900000000005 0.202873 0.070298200000000005 -0.18889810450042294 0.072403999420806608 -0.97932383152051361
0.493093 0.202626 0.076202699999999998 -0.12121444502576099 0.08212160804880185 -0.98922348324763076
0.48291000000000001 0.19198299999999999 0.076143699999999995 0.086472175023660558 -0.097915430243194129 0.99143085057252889
0.60190200000000005 0.31744800000000001 0.062340199999999998 -0.36923019452298478 0.03309865645197721 -0.92874837410010735
0.53713100000000003 0.18865799999999999 0.068775500000000003 0.18257673033072902 -0.10151474223476001 0.97793685616748804
0.532281 0.187366 0.069664799999999999 -0.17342755527358772 0.10007354155530208 -0.97974903386143042
0.61496099999999998 0.31786300000000001 0.056116399999999997 -0.38780327752696592 0.033291807784717638 -0.92114074574614768
0.52740699999999996 0.18774199999999999 0.070629800000000006 0.16227226607109357 -0.10364460717992134 0.98128767803670713
0.44736100000000001 0.18740699999999999 0.076115199999999994 0.086767640233563606 0.10486835230234902 -0.99069369902795357
0.529061 0.60741500000000004 0.111565 -0.38502819866574722 -0.0027273152959983961 -0.92290077905671208
0.53768099999999996 0.60756100000000002 0.107666 -0.42069195390618735 -0.010928833783204596 -0.90713771860216086
0.53017599999999998 0.183892 0.069724900000000006 0.17159300690250448 -0.10018083838296866 0.98006103871291739
0.52699300000000004 0.18269299999999999 0.070140099999999997 0.16962358178684239 -0.092324149772559844 0.98117485285272976
0.52852200000000005 0.61262799999999995 0.111734 0.38340284714747619 0.021278177703255623 0.92333606880314045
0.53342999999999996 0.61254200000000003 0.10960499999999999 -0.40795241605693233 -0.024004514255211568 -0.91268757498318276
0.53769999999999996 0.61221000000000003 0.107614 0.42302538804174045 0.027321558114348755 0.90570583167733831
0.52888900000000005 0.61754699999999996 0.111398 0.39239840500459583 0.037718770138155853 0.91902164617005311
0.53361099999999995 0.61791300000000005 0.109212 0.4155915810407344 0.044811452558431365 0.90844679067497758
0.52227800000000002 0.177618 0.0704626 0.16530172784537558 -0.079386271670085787 0.98304280610849148
0.51761999999999997 0.17729700000000001 0.071314699999999995 0.15500871798233662 -0.070388987993062466 0.98540229739877538
0.52915599999999996 0.62237100000000001 0.110983 -0.39899724005414827 -0.028631101418285752 -0.91650502587860805
0.53317999999999999 0.62269699999999994 0.10907799999999999 -0.41547968027585674 -0.031875254683476323 -0.90904378520329532
0.52868599999999999 0.63231499999999996 0.11108800000000001 -0.40710247869112093 0.036623155593291899 -0.9126479695468207
0.52902800000000005 0.637181 0.111266 0.40808400647518767 -0.078597595063550657 0.90955476014882419
0.53795400000000004 0.64188699999999999 0.10750999999999999 0.42407304776066734 -0.098903856587563191 0.90021112929972502
0.54163700000000004 0.64272099999999999 0.105924 -0.42258961579536447 0.10290300444783677 -0.90046043127809616
0.53126300000000004 0.16636400000000001 0.067927299999999996 0.15667519730969909 -0.04283354220686808 0.98672091809689511
0.61496700000000004 0.32796599999999998 0.056446900000000001 0.38489549995643707 -0.030663616641652628 0.92245064731276449
0.52213900000000002 0.16717000000000001 0.069718699999999995 0.16665704488634056 -0.053350487230532977 0.98457054338529593
0.51980499999999996 0.70494999999999997 0.11235100000000001 0.38832941552688016 0.1134408577457045 0.91451158375958841
0.52283999999999997 0.70777299999999999 0.110697 0.39940220783708497 0.10710940209718045 0.91049736537633452
0.58457499999999996 0.33199600000000001 0.069823800000000005 0.27493828131371567 -0.060737717418773443 0.95954149006231981
0.52791900000000003 0.70755500000000005 0.108458 0.41392826513893982 0.11899607510292079 0.90249837973769675
0.52023399999999997 0.71156900000000001 0.111525 0.39173515080840038 0.088296063656686311 0.91583152204095608
0.52163700000000002 0.71113400000000004 0.110878 -0.39593102310907724 -0.09161982040151162 -0.91369821793051242
0.527393 0.71248900000000004 0.108069 0.42454134192818832 0.094030701124013585 0.90051256306613481
0.50051000000000001 0.76344599999999996 0.112415 -0.25784489074004591 -0.16602046234338258 -0.95181574813749692
0.61510100000000001 0.33322200000000002 0.056456399999999997 -0.37686556178773817 0.013245900784368336 -0.92617325293425712
0.49873699999999999 0.77391500000000002 0.11113099999999999 0.27579190134596243 0.1043638230170332 0.95553493897253616
0.50342200000000004 0.77456400000000003 0.109732 0.27323055030286358 0.10548800878724851 0.95614713636725168
0.49848900000000002 0.77773199999999998 0.110814 0.28455821920449265 0.077066339260552202 0.95555606807562354
0.58464000000000005 0.33713300000000002 0.070002999999999996 -0.28161709040718613 0.053523889531658708 -0.95803288442516066
0.18717700000000001 0.16656399999999999 0.069665099999999994 0.10389158543871417 0.031562932776353018 -0.99408768212345633
0.53174900000000003 0.16304399999999999 0.067818000000000003 0.15311095422571122 -0.030568044645629074 0.98773611371794778
0.52196900000000002 0.162494 0.0695128 0.15896209452105836 -0.043696538945330446 0.98631722330580707
0.51732999999999996 0.16276599999999999 0.070333499999999993 0.1630678063928383 -0.054820023715921623 0.98509068390580845
0.51227800000000001 0.16259999999999999 0.071120199999999995 -0.15250505434431899 0.060196474277921935 -0.98646773534867505
0.61470100000000005 0.33749699999999999 0.056975699999999997 -0.40073882934370053 0.016210354233273466 -0.91604891521788956
0.45236599999999999 0.16278799999999999 0.0741975 -0.056739919742011861 -0.057966421399222222 0.99670480860575628
0.49503799999999998 0.78284900000000002 0.111654 -0.29133876894228428 -0.039293033450406543 -0.95581262768047737
0.50327500000000003 0.78234700000000001 0.109263 -0.28157236380146461 -0.054189284772322807 -0.95800862488764682
0.192134 0.161914 0.069995199999999994 0.10766881853054304 0.044857915325875568 -0.99317430139369467
0.18792900000000001 0.16258 0.069590799999999994 0.10218971225640648 0.043733908068817551 -0.99380310323221532
0.51230900000000001 0.15764700000000001 0.070808999999999997 -0.14998380386923654 0.073644139792572408 -0.9859418843172888
0.45241500000000001 0.157494 0.073889300000000005 0.055990666741579397 0.045579643751528849 -0.99739036556070504
0.51713299999999995 0.15259700000000001 0.069750099999999995 -0.13603287976566777 0.069850713201864645 -0.98823880387680085
0.44261400000000001 0.36835000000000001 0.10775899999999999 0.069782070161961071 -0.098038236691786476 0.99273307934725141
0.512208 0.147706 0.069878099999999999 -0.13627310842024165 0.085807284832205746 -0.98694820015602125
0.44751800000000003 0.37789400000000001 0.107792 -0.094712320910457087 0.059396331805645047 -0.99373117694665725
0.427456 0.382604 0.10929999999999999 0.06590531334319355 0.048054393495395017 -0.99666808162944853
0.43257099999999998 0.38256099999999998 0.10932500000000001 0.0048966260212942765 0.046748233997140835 -0.99889470199403707
0.58489100000000005 0.34704499999999999 0.070344299999999998 -0.28759385876089427 0.027839055797087002 -0.95734777347385391
0.51199499999999998 0.14299999999999999 0.0694602 -0.13216182233103879 0.088567463955200446 -0.98726341826621089
0.45672400000000002 0.38812000000000002 0.10775800000000001 -0.087668267181194595 0.10963648475400216 -0.99009803360083104
0.21218300000000001 0.14210999999999999 0.070042599999999997 -0.058939461953169195 -0.15635156296157615 0.985941341350561
0.50728499999999999 0.137929 0.069764999999999994 0.13916599772695201 -0.08950498736305755 0.9862158396181846
0.50241899999999995 0.13762199999999999 0.070535299999999995 0.14725255713091251 -0.09489810318596538 0.98453594877491046
0.49747400000000003 0.137632 0.071279400000000007 0.12726132998839576 -0.10124829707029601 0.98668806429891998
0.61517999999999995 0.34693800000000002 0.056714199999999999 -0.39670869508455564 0.050775219646620913 -0.9165391908228181
0.49221999999999999 0.13769899999999999 0.071950500000000001 0.1058118152523962 -0.092531143040564437 0.99007163746902649
0.44242100000000001 0.40272999999999998 0.11100699999999999 0.015751222388368055 -0.16568038819580838 0.98605370439979478
0.44735000000000003 0.40772000000000003 0.111967 -0.036528012456048364 0.17242649472758081 -0.98434486244505315
0.58522300000000005 0.35204400000000002 0.070416900000000004 -0.30119866623125019 0.046494882820711611 -0.95242720946642667
0.20910599999999999 0.14000699999999999 0.069497699999999996 0.065521993865469835 0.15694473310956714 -0.98543148877487197
0.50747100000000001 0.132683 0.069226099999999999 -0.14100375926499542 0.086535898689322432 -0.98621979198917431
0.50235200000000002 0.13258500000000001 0.070051199999999994 -0.15028896840429737 0.086253860759430173 -0.98487232547171566
0.49723699999999998 0.13289200000000001 0.070813399999999999 0.12945421114260941 -0.085490654630758875 0.98789319017201904
0.49251 0.13258200000000001 0.071391700000000002 -0.1106460427750649 0.080591952751599832 -0.99058689188273752
0.47728500000000001 0.132658 0.072616899999999998 -0.057776114860272836 0.067426460037434799 -0.99604999525047588
0.44750299999999998 0.41253099999999998 0.112889 -0.041317733863673864 0.15827768028604872 -0.98652978707773353
0.45237300000000003 0.412912 0.112502 -0.075211808249396467 0.14982790617127581 -0.98584724092132403
0.48098099999999999 0.41335699999999997 0.106951 -0.24106565001620786 0.14520798754491038 -0.95958428120484573
0.44264199999999998 0.42252200000000001 0.114344 0.012494407352430193 0.088469402367523653 -0.99600052943241169
0.446996 0.42241600000000001 0.114324 0.02756088236351794 -0.098432157895253683 0.99476203589372492
0.45208900000000002 0.42274299999999998 0.114025 0.079267081599695047 -0.099498407545153836 0.9918753937217345
0.436944 0.42770900000000001 0.114457 0.085070266503727149 0.050950693509541838 -0.99507139270902634
0.44310300000000002 0.42696299999999998 0.11448899999999999 0.019719761703082553 0.068922712575541847 -0.99742708540003222
0.50678999999999996 0.122979 0.068535399999999996 -0.1465190716162062 0.055539472469025096 -0.98764747184943846
0.49703000000000003 0.122695 0.070081099999999993 0.12990961044206845 -0.047276500419862803 0.99039811471086769
0.49198500000000001 0.122638 0.070835499999999996 -0.10892389762085002 0.046930630501405904 -0.9929416400009734
0.48727599999999999 0.12248000000000001 0.071184899999999995 -0.084527564933407046 0.051846824296234183 -0.99507135300782523
0.47719800000000001 0.122692 0.071928199999999998 -0.075203102962943566 0.055004211681567113 -0.99565005398585393
0.442384 0.43280600000000002 0.114921 0.042595202121211692 0.048949834813587077 -0.99789256056349862
0.47354299999999999 0.43192700000000001 0.112053 -0.17442618855568656 0.14235594401010671 -0.97432555644965391
0.47704800000000003 0.43285400000000002 0.11163099999999999 -0.18867413263887503 0.14991850088520714 -0.9705289870814271
0.50729800000000003 0.117827 0.068210499999999993 0.15398786596270619 -0.037532546580212739 0.98735963310409613
0.49711300000000003 0.11772199999999999 0.070021799999999995 0.12963656617016817 -0.02573329957566891 0.9912276015146857
0.49257800000000002 0.117572 0.070583099999999996 0.10903608889560074 -0.039341695642606471 0.99325896034333117
0.48739900000000003 0.11763 0.071019899999999997 0.080055094856556278 -0.04220489686722198 0.99589654506275638
0.47744700000000001 0.117577 0.071662500000000004 0.078508834947258133 -0.055053301782936416 0.99539213217606937
0.47803800000000002 0.44216699999999998 0.112747 0.1930363459019715 -0.14091428192392197 0.97102015134119635
0.48250700000000002 0.44230399999999997 0.111786 -0.21847939677272094 0.13986962076075879 -0.96576562497019403
0.50680800000000004 0.112706 0.068163299999999996 0.15981120289505779 -0.016414419554255887 0.98701111759692539
0.496832 0.112787 0.070039599999999994 0.12387924188935169 -0.021212641347967225 0.99207054047379206
0.49222900000000003 0.11251899999999999 0.070584099999999997 -0.098975731996065311 0.02587281108018416 -0.99475343785415093
0.487651 0.112703 0.070789199999999997 0.067937095897024111 -0.038662027313995699 0.99694021819016332
0.47236499999999998 0.11258 0.071824700000000005 0.079729210657103769 -0.058541396486113763 0.9950960545924451
0.454011 0.44821299999999997 0.116087 0.027129137681469344 -0.14281020690300722 0.98937821620095323
0.47877999999999998 0.44747700000000001 0.113052 -0.19623096928933006 0.14310926801410034 -0.97005831994794967
0.48256300000000002 0.44758100000000001 0.112303 0.20708855119703512 -0.13625650301094569 0.96878712695325442
0.50084899999999999 0.44844400000000001 0.10745300000000001 -0.27947179787344262 0.14255891432556558 -0.94951170089667758
0.50642500000000001 0.107683 0.0682889 0.1608855901107816 -0.011595046899980659 0.98690495073339912
0.49713099999999999 0.10774300000000001 0.069920700000000002 -0.11867878966546823 0.02202589084132598 -0.99268837256018316
0.49229299999999998 0.107655 0.070365899999999995 -0.090485829062973075 0.031350435384235702 -0.99540417165089534
0.48715199999999997 0.107484 0.070541499999999993 -0.056928446466958403 0.041878293778788385 -0.99749955413174807
0.47275699999999998 0.107719 0.071468699999999996 -0.075854296893855241 0.064910925628676314 -0.99500386802100793
0.46764499999999998 0.10753500000000001 0.0719915 -0.0707171102709232 0.069848325994597046 -0.9950478891343284
0.447353 0.10768 0.072273100000000007 0.10386215153810172 0.077786724156855058 -0.991545197670193
0.48369600000000001 0.45703500000000002 0.11357299999999999 -0.18919217471900182 0.19616568461921821 -0.96214621820332902
0.50573299999999999 0.45796199999999998 0.10770200000000001 -0.3223724806928332 0.1617462066306106 -0.93269188284907711
0.50647399999999998 0.098037700000000005 0.068326899999999996 0.16097400578422277 -0.043748528057232276 0.98598855761849824
0.49691600000000002 0.097907300000000003 0.069771399999999997 -0.10041077040457443 0.061303763178772112 -0.99305565091130776
0.49201899999999998 0.0977045 0.070151500000000006 0.06907258917382797 -0.073929591399330349 0.99486853048046076
0.48726700000000001 0.097673499999999996 0.070208499999999993 0.045256503227434394 -0.073708609262548311 0.99625242275048231
