# .PCD v0.7 - Point Cloud Data file format
VERSION 0.7
FIELDS x y z
SIZE 4 4 4
TYPE F F F
COUNT 1 1 1
WIDTH 882
HEIGHT 1
VIEWPOINT 0 0 0 1 0 0 0
POINTS 882
DATA ascii
-0.013005923 -0.0039040677 0.30975002
-0.022465048 0.0089977114 0.30895239
-0.01374448 0.0066482653 0.30787313
-0.0092523796 0.0056706336 0.30883339
-0.023478903 0.015398664 0.30768281
-0.014671446 0.014967598 0.30326697
-0.0080562932 0.016748806 0.30476245
-0.025203696 0.024235975 0.30334681
-0.017146181 0.021951051 0.30147722
-0.0065605137 0.024738077 0.3036046
-0.012810342 -0.012294332 0.31906995
-0.0099238157 -0.014006437 0.31957147
-0.022025859 -0.0031042055 0.31785718
-0.014878396 -0.0049742628 0.31354773
-0.008577453 -0.0026520751 0.3160606
-0.030639345 0.0052886233 0.31745002
-0.025160016 0.004550457 0.31461984
-0.016320068 0.0028048069 0.31203425
-0.0076239849 0.0055480888 0.31305683
-0.03025211 0.015967002 0.31296429
-0.028015448 0.014264272 0.31140417
-0.0062553203 0.013930738 0.31273571
-0.03032806 0.024853969 0.31375003
-0.029530549 0.025432305 0.31257144
-0.0033786907 0.025953421 0.31428576
0.00055165909 0.029759983 0.31500003
-0.021808814 -0.021729564 0.32875004
-0.015233289 -0.022448698 0.32573864
-0.030919524 -0.012691312 0.32886845
-0.024621272 -0.014954939 0.32658663
-0.015808905 -0.015820935 0.32210693
-0.0085141892 -0.013356591 0.32423753
-0.030680547 -0.005147926 0.32705003
-0.02617014 -0.0059009297 0.32390571
-0.012013117 -0.0083239526 0.32375002
-0.0074426788 -0.0061714607 0.32565096
-0.03162184 0.0015843729 0.32207695
-0.028870968 0.00016274386 0.32041669
-0.0058096773 0.0037463636 0.32311189
-0.031558331 0.014228415 0.32313636
-0.0043723308 0.014963796 0.32250002
-0.032197393 0.025833923 0.32433656
-0.0029743146 0.025263323 0.32352635
-0.032664794 0.034386814 0.32406944
-0.023093695 -0.031952001 0.33790478
-0.014573168 -0.0337363 0.33583906
-0.0087390942 -0.03197496 0.33632901
-0.031487025 -0.026707338 0.33832258
-0.025287438 -0.025617303 0.33318362
-0.014749319 -0.027576508 0.33265218
-0.0087628923 -0.026890339 0.33565739
-0.031745981 -0.014917738 0.3352778
-0.028334081 -0.018850135 0.33050001
-0.0073939767 -0.016236603 0.33153659
-0.032517757 -0.0054020509 0.33377856
-0.0053627356 -0.0059631164 0.33251464
-0.032966521 0.0045421892 0.33350003
-0.0048398869 0.0044202632 0.33525002
-0.003687995 0.015843121 0.33592394
0.004682316 0.018146029 0.33460709
-0.08354634 0.027386453 0.33812839
-0.079652131 0.028385974 0.33975002
-0.00088497577 0.024781622 0.33740628
0.0048955912 0.025096279 0.33564064
0.01023929 0.029455701 0.33925003
-0.091513872 0.037859246 0.33728409
-0.085184731 0.035681862 0.33700484
-0.077422805 0.038261123 0.33616671
-0.03440468 0.032125011 0.33615005
-0.00051282189 0.030241664 0.33562502
0.0069204182 0.032904107 0.3345038
0.011618645 0.035757333 0.33785319
-0.031206623 -0.040772397 0.34916666
-0.024605658 -0.042156085 0.34758723
-0.015791066 -0.043432124 0.34551805
-0.031855576 -0.034946829 0.34486401
-0.025570981 -0.036152963 0.34370619
-0.015652785 -0.038286407 0.34276253
-0.0087797949 -0.035579458 0.34812501
-0.032058328 -0.022595709 0.34195241
-0.029942447 -0.021410383 0.34058332
-0.010653944 -0.023818051 0.34308335
-0.0080837542 -0.023989342 0.34603843
-0.032588039 -0.017268635 0.34340629
-0.029924132 -0.019538864 0.34037501
-0.0056033139 -0.015138257 0.34715912
-0.0047180499 -0.0078069936 0.34800005
0.0027504277 -0.0032670558 0.34919995
-0.087226257 0.0090495311 0.34924999
-0.002240543 0.0056424993 0.34492728
0.0042973068 0.0056402874 0.34477291
-0.091520585 0.016520627 0.34857926
-0.086657949 0.015212951 0.34773666
-0.0017027336 0.014589909 0.34208727
0.0032536651 0.014363875 0.34313536
-0.10021067 0.023073947 0.34925002
-0.094804198 0.025382891 0.34613314
-0.084951691 0.023493379 0.34308037
-0.079149991 0.026565906 0.34617305
-0.0017464563 0.024295649 0.34352604
0.0055279783 0.025418973 0.34300002
0.01063776 0.029160855 0.34012502
-0.095824897 0.034591515 0.34359524
-0.082819566 0.03284556 0.3422389
-0.077523187 0.034453522 0.34502578
-0.065408178 0.039683796 0.34578571
-0.00090941309 0.030486332 0.34675002
0.0025980903 0.031078562 0.34354171
0.017734718 0.039010234 0.34738463
0.020613385 0.039408181 0.34525001
-0.097184762 0.04029493 0.34
-0.041468676 -0.067237765 0.35950002
-0.019013003 -0.06066113 0.35925001
-0.030436758 -0.050507456 0.35962501
-0.02341816 -0.053598385 0.35556585
-0.015944583 -0.054007009 0.35663292
-0.0093247741 -0.050335605 0.35933337
-0.031710085 -0.044455312 0.35432693
-0.025541507 -0.046957616 0.3538526
-0.013149057 -0.046938501 0.35360354
-0.0088200085 -0.044344544 0.35442859
-0.033832099 -0.039594825 0.35000002
-0.010117718 -0.039268687 0.35050002
-0.0081504304 -0.036506243 0.35240623
-0.035193566 -0.024381351 0.35866669
-0.0058118086 -0.021794016 0.35914999
-0.034689985 -0.019031491 0.35887501
-0.0023455918 -0.012508889 0.35403034
0.003748477 -0.013085372 0.3559314
-0.091827668 -0.00095113344 0.35894448
-0.085073188 -0.0012585658 0.35820967
-0.078439824 -0.00059449644 0.3544167
-0.0025035026 -0.0053243609 0.35514373
0.0043460298 -0.0050402447 0.35219806
-0.10029936 0.007851759 0.35830003
-0.094010867 0.0056026471 0.35622361
-0.085158706 0.0047737863 0.35460863
-0.078754775 0.0011948558 0.35409382
-0.0020336774 0.0004562645 0.35052273
0.0072459574 0.0012618967 0.35477179
-0.10083034 0.01563547 0.35454997
-0.096306801 0.014373554 0.35333419
-0.08261542 0.015154785 0.35399687
-0.077294596 0.015818432 0.35491675
-0.06191808 0.019836828 0.35975
-0.059951164 0.019836828 0.35975
0.0079488978 0.014691988 0.35406083
-0.1004537 0.02091256 0.35143751
-0.098320656 0.020989716 0.35087499
-0.081669375 0.020659506 0.35113463
-0.075975224 0.025507474 0.35523102
-0.063563935 0.025800101 0.35745168
-0.058648504 0.025880238 0.35888121
-0.00041637479 0.029608747 0.35749999
0.0077670035 0.023300022 0.35651392
0.010446734 0.026525833 0.35483336
-0.073734343 0.03486776 0.35470876
-0.064838156 0.035034187 0.35367548
-0.056026544 0.035394087 0.35546857
-0.00041637485 0.030910462 0.35750005
0.0016598393 0.031213231 0.35602781
0.015465324 0.03750468 0.35183752
-0.073046386 0.043212362 0.35106376
-0.062955856 0.040847648 0.35336667
-0.053439993 0.044472151 0.35438791
-0.042777423 -0.063237056 0.36698464
-0.039095465 -0.064895689 0.36610231
-0.023129174 -0.06330812 0.36708969
-0.015884453 -0.062813945 0.36697963
-0.042485375 -0.059424125 0.36862502
-0.032677315 -0.053793799 0.36506867
-0.027803691 -0.056580987 0.36611667
-0.012760796 -0.057231039 0.36176732
-0.0092970394 -0.053884093 0.36215386
-0.034514487 -0.046301346 0.36263412
-0.0075932909 -0.045585681 0.36429167
-0.035897013 -0.035127569 0.36314586
-0.0073357453 -0.036182597 0.36470452
-0.035826992 -0.026331339 0.36243752
-0.0071230335 -0.025916379 0.36195001
0.0032528157 -0.020509545 0.36781251
-0.09271536 -0.013702336 0.36660454
-0.085867994 -0.013229272 0.36478087
-0.07833609 -0.012121717 0.36702862
-0.036379613 -0.016123386 0.36400002
-0.0028855556 -0.016010376 0.36610293
0.0036658987 -0.017439976 0.36398131
-0.10118303 -0.0043993052 0.36526674
-0.09555921 -0.0050266017 0.36550003
-0.085116394 -0.0055739419 0.36319745
-0.078453824 -0.0037367041 0.36505774
-0.061724573 -0.0027329405 0.36923811
-0.059620213 -0.0012656063 0.36940002
-0.00094438199 -0.002965092 0.36014289
0.0067130472 -0.0079300255 0.36073968
-0.10102039 0.0025554944 0.36280885
-0.097919911 0.0024551947 0.36164394
-0.081432566 0.0060158619 0.36553481
-0.078651704 0.0056028683 0.36576873
-0.063083194 0.0060247877 0.36692101
-0.058087405 0.0058020423 0.36696783
-0.08170899 0.012033712 0.36270243
-0.075893059 0.015734401 0.36598414
-0.064334467 0.015539793 0.36453786
-0.056501493 0.015555917 0.36496344
-0.072439082 0.023694558 0.36383101
-0.068313159 0.023742218 0.36270842
-0.054260939 0.025005857 0.36405763
-0.051630031 0.033947542 0.36303639
-0.048389398 0.03560742 0.36780456
-0.046534538 0.045569215 0.36513886
-0.039121013 0.048047524 0.36731249
0.02336029 0.044415709 0.36458337
-0.062213697 -0.080872633 0.37930003
-0.051064223 -0.080819987 0.37905002
-0.049004726 -0.080838047 0.37922224
-0.061649323 -0.075375892 0.37761253
-0.05525497 -0.07433819 0.37479773
-0.04590657 -0.07383173 0.37644783
-0.037948895 -0.072086483 0.37564775
-0.024466326 -0.073096007 0.37765002
-0.015938951 -0.071712919 0.37689394
-0.062612139 -0.064121641 0.37712505
-0.054873865 -0.064843535 0.37442824
-0.04686404 -0.064743795 0.37289348
-0.034961309 -0.064431623 0.37335163
-0.026617154 -0.066280656 0.37333074
-0.014151686 -0.066323154 0.37346128
-0.052117258 -0.058389444 0.37882355
-0.045483746 -0.057515293 0.37734938
-0.036582489 -0.056466796 0.3734965
-0.029035345 -0.059403133 0.37016669
-0.010764536 -0.059738714 0.37312502
-0.0083781285 -0.053171307 0.37560716
-0.038335163 -0.04250874 0.3794167
-0.0045608049 -0.04192837 0.37803334
-0.075354733 -0.032347117 0.37687197
-0.069097422 -0.032352164 0.37428567
-0.038343586 -0.039614808 0.37950003
-0.0034091859 -0.034920875 0.37704566
0.0018006517 -0.033890598 0.37400714
-0.10190001 -0.023481416 0.37782583
-0.095093183 -0.023224782 0.37735
-0.081694797 -0.024057077 0.37580001
-0.078383923 -0.025820965 0.37707388
-0.063333422 -0.022218008 0.37792218
-0.058936402 -0.022400612 0.37820831
-0.037050262 -0.021515464 0.37481251
-0.0029206949 -0.024774572 0.37307489
0.0037527143 -0.025214128 0.37479633
-0.10184703 -0.01471734 0.37312037
-0.096844539 -0.016178492 0.37260231
-0.085152514 -0.014373912 0.37617859
-0.078746729 -0.016202923 0.37206253
-0.063373223 -0.015974095 0.37616575
-0.058003116 -0.014426664 0.37693459
-0.036945235 -0.019004542 0.37375003
-0.0025942093 -0.018916272 0.37068748
0.0076272003 -0.014754601 0.37495315
-0.10175547 -0.0092530726 0.37162507
-0.099015586 -0.0091230031 0.37050003
-0.083678424 -0.0077322819 0.37616071
-0.075805113 -0.0042864438 0.37721208
-0.06480509 -0.0053373585 0.37367326
-0.056679867 -0.0048895329 0.37491593
-0.07541173 0.0054949331 0.37426746
-0.066976279 0.0048595485 0.37275004
-0.05375763 0.0048896694 0.37429479
-0.049995963 0.0068318439 0.37975001
-0.073014058 0.013916492 0.37266886
-0.068822034 0.013087014 0.37069231
-0.051904202 0.014006482 0.37286484
-0.048841041 0.016978472 0.37361541
-0.050515559 0.02413181 0.37081817
-0.048522744 0.025729708 0.373476
-0.046974525 0.034175217 0.37162858
-0.046209358 0.040830113 0.37103128
0.026497126 0.047407642 0.37223256
0.030080467 0.048786972 0.37375003
-0.047312211 -0.10530771 0.3892327
-0.061648712 -0.090469815 0.38775003
-0.057612367 -0.096204065 0.38762996
-0.045164149 -0.09576638 0.38781255
-0.015062377 -0.090790629 0.38912502
-0.075034074 -0.080560453 0.38900003
-0.063798293 -0.084053561 0.38369834
-0.054474093 -0.084839322 0.38378081
-0.044586021 -0.084831968 0.38394359
-0.038421951 -0.084805682 0.38869643
-0.023684058 -0.082645021 0.38529396
-0.015388565 -0.085038848 0.387256
-0.0754591 -0.079030409 0.389
-0.065132394 -0.076524049 0.38292313
-0.054565758 -0.078222267 0.38612503
-0.046848021 -0.076764844 0.38411611
-0.032028854 -0.074465871 0.38557428
-0.026047783 -0.077490926 0.38182843
-0.014524151 -0.075617664 0.38289228
-0.080693446 -0.061260235 0.38656253
-0.074799418 -0.062962025 0.385905
-0.066710919 -0.062846571 0.38184661
-0.058442324 -0.06053343 0.3806667
-0.033643346 -0.069621921 0.38108334
-0.010535978 -0.06793981 0.38312504
-0.0092778597 -0.063712701 0.38225001
-0.081747331 -0.057536796 0.38646004
-0.074702717 -0.055676199 0.38683814
-0.064750306 -0.05537403 0.38609558
-0.055903856 -0.055214632 0.3856585
-0.044070262 -0.05426763 0.38525534
-0.039379995 -0.050661609 0.38150001
-0.0065140999 -0.055628218 0.38532698
0.00095699291 -0.050709546 0.38608336
-0.092243448 -0.040787265 0.38910002
-0.084031053 -0.042927798 0.3888523
-0.075127758 -0.048752841 0.38897061
-0.064169548 -0.045364495 0.38798273
-0.059586618 -0.045566279 0.38923338
-0.040154178 -0.048257243 0.38900003
-0.038836092 -0.048176251 0.38161114
-0.0026263329 -0.044409201 0.38173145
0.0017833337 -0.044666398 0.38445398
-0.10272562 -0.034175899 0.38608173
-0.09479963 -0.034672011 0.3846131
-0.086233988 -0.032839321 0.38963336
-0.07470277 -0.03430305 0.38406393
-0.062573887 -0.034794446 0.38353071
-0.057932988 -0.033960443 0.38644066
-0.038956121 -0.036439069 0.38556251
0.0037074024 -0.035724487 0.38180685
-0.10290235 -0.028218931 0.38237506
-0.09431988 -0.028064482 0.38171062
-0.084753521 -0.025483137 0.3858515
-0.074249551 -0.024694551 0.38321051
-0.065538131 -0.026438981 0.38359943
-0.05610165 -0.025221042 0.38509014
-0.0045607192 -0.028887708 0.38021427
0.0067907744 -0.029819243 0.38150001
-0.090347409 -0.017569682 0.38102782
-0.087588944 -0.016631026 0.38209519
-0.074538268 -0.01451605 0.38543841
-0.068031967 -0.01337436 0.3863304
-0.054445848 -0.015094869 0.3845956
-0.038747732 -0.017404588 0.38350001
-0.074194171 -0.0066770911 0.38374692
-0.068326026 -0.0069971518 0.38390911
-0.052220106 -0.0058024088 0.38336328
-0.048851654 -0.0028242609 0.38556582
-0.072226152 0.0024514941 0.38138813
-0.068322718 0.001598184 0.38092187
-0.05077365 0.003146007 0.38122499
-0.048847269 0.0042845914 0.38246667
-0.050127618 0.011425184 0.38075003
-0.049006857 0.012107 0.38204548
-0.054714628 -0.11088829 0.39577779
-0.046885408 -0.11112773 0.39352277
-0.074717917 -0.10175891 0.39912501
-0.064249359 -0.10446121 0.39560199
-0.054683615 -0.10508443 0.39368689
-0.04572529 -0.10509596 0.39370373
-0.023153294 -0.10192191 0.39835164
-0.016540963 -0.10237441 0.39777777
-0.080890082 -0.090478852 0.39900002
-0.075725809 -0.098004542 0.39904758
-0.063187562 -0.095031016 0.39502087
-0.054418743 -0.095271923 0.39173201
-0.044828463 -0.094548546 0.394436
-0.034455061 -0.094341122 0.39852777
-0.025010608 -0.095567487 0.39721456
-0.016245319 -0.095149338 0.39434877
-0.080940731 -0.08577355 0.39805558
-0.074288316 -0.084231481 0.3967056
-0.065723613 -0.087596312 0.39387503
-0.056777745 -0.085171998 0.39489517
-0.044180758 -0.082246184 0.39335299
-0.037502099 -0.083384171 0.39273682
-0.02496171 -0.087348633 0.39571875
-0.015815813 -0.084625222 0.39262843
-0.081064388 -0.077024616 0.39829549
-0.07542403 -0.075168043 0.39658681
-0.068300433 -0.076497503 0.39499998
-0.042186055 -0.078979537 0.39127502
-0.036366429 -0.077056944 0.39236492
-0.014513318 -0.079077803 0.39314288
-0.0086824056 -0.070800208 0.39720002
-0.083422512 -0.065704368 0.39702085
-0.075141668 -0.067967527 0.3928203
-0.068523392 -0.068956561 0.393125
-0.0051889871 -0.064300708 0.39661941
0.00069833035 -0.062973067 0.39875001
-0.095041864 -0.052199945 0.39620373
-0.083447412 -0.052484427 0.39370006
-0.075867377 -0.05168061 0.39090395
-0.069279045 -0.050528027 0.39012504
-0.053074185 -0.051239721 0.39135185
-0.046069037 -0.051524196 0.39275524
-0.0041731279 -0.055180583 0.39494777
0.0055001075 -0.052779257 0.3972728
0.011277007 -0.051528703 0.39833927
-0.10227954 -0.044657942 0.3961834
-0.095503464 -0.044952583 0.3934629
-0.082865767 -0.046611249 0.39164096
-0.07473617 -0.044287197 0.3911781
-0.068661839 -0.042609353 0.3908971
-0.055842113 -0.045961965 0.39447814
-0.045147073 -0.048784647 0.39761907
-0.0054476359 -0.047155581 0.39196885
0.0049670003 -0.047229607 0.39795241
0.011184427 -0.049559813 0.39950001
-0.10574787 -0.038218804 0.3946251
-0.094445229 -0.037504107 0.39287499
-0.084567845 -0.035932567 0.39187664
-0.073752485 -0.037475951 0.39179882
-0.068062671 -0.035605446 0.3924706
-0.054464277 -0.034826357 0.39432937
-0.041263837 -0.039981488 0.39975002
-0.039587606 -0.031907391 0.3918125
0.0063355071 -0.03429291 0.39339066
-0.10853548 -0.023862682 0.39325002
-0.091193549 -0.023709103 0.3929584
-0.086711347 -0.023156049 0.39321437
-0.070409067 -0.029353602 0.39008334
-0.06925685 -0.02963136 0.39000002
-0.052404162 -0.025030175 0.3934215
-0.040244348 -0.021992903 0.39831251
-0.039780207 -0.026902957 0.39371875
0.0085200891 -0.020645937 0.39750001
-0.090638049 -0.019416559 0.39025003
-0.081535429 -0.017180368 0.39248681
-0.0749458 -0.015776016 0.39165288
-0.051316954 -0.015598794 0.39265218
-0.048097309 -0.014991216 0.39725006
-0.050745156 -0.0080068884 0.39531249
-0.049356088 -0.0072611421 0.39665002
-0.0225801 -0.14144024 0.40972504
-0.011171082 -0.14147966 0.40450001
-0.0092185065 -0.14131579 0.40447223
-0.022581477 -0.13947891 0.40975001
-0.010831893 -0.13997689 0.40600002
-0.0093643144 -0.13659628 0.4065834
-0.023368033 -0.123608 0.40854374
-0.016075237 -0.12574662 0.40857691
-0.0083890771 -0.12792902 0.40956259
-0.06426762 -0.11132962 0.40508333
-0.054101728 -0.11432742 0.40431249
-0.046026476 -0.11494741 0.40406579
-0.024482751 -0.11480223 0.40805784
-0.017119864 -0.1119828 0.40573815
-0.074339606 -0.10303456 0.40302777
-0.067687966 -0.10251322 0.40295652
-0.057653263 -0.10790187 0.40761843
-0.042168107 -0.10464261 0.40324378
-0.035216711 -0.1037937 0.40544948
-0.025581559 -0.10626076 0.40362123
-0.015261866 -0.1065602 0.40374601
-0.083053932 -0.092543863 0.40810719
-0.073294885 -0.092106014 0.40485004
-0.068439275 -0.094442643 0.40585724
-0.057789605 -0.094778091 0.40388891
-0.046128072 -0.098601371 0.4010435
-0.035491701 -0.094766453 0.40130171
-0.025692459 -0.091705136 0.40077141
-0.011884993 -0.096058287 0.40565005
-0.082433432 -0.086597033 0.40700006
-0.075952649 -0.087513827 0.40306672
-0.069716103 -0.089513361 0.40250003
-0.03400467 -0.086887591 0.40241799
-0.02714663 -0.088936225 0.40134093
-0.011130095 -0.085696891 0.40292862
-0.004183121 -0.081427559 0.40677777
-0.083846904 -0.073536664 0.40282235
-0.07180389 -0.077169053 0.40393749
-0.068808086 -0.075254492 0.40256825
-0.0055519389 -0.074947186 0.40799639
0.0011650792 -0.070935376 0.40950003
-0.10335328 -0.061505668 0.40808755
-0.097076893 -0.06406793 0.40671942
-0.084461883 -0.069326587 0.40057144
-0.0012728818 -0.066330947 0.40457359
0.0020263135 -0.064780734 0.40517393
-0.10420965 -0.055285882 0.40614721
-0.095871292 -0.056517858 0.4038676
-0.087286815 -0.056032538 0.40276319
-0.00017449343 -0.059311245 0.40050003
0.0049440297 -0.056686167 0.40279171
0.013177821 -0.052495528 0.40362504
-0.11048263 -0.042600714 0.40593749
-0.10710727 -0.045879491 0.40339109
-0.09280324 -0.045539781 0.40662503
-0.052542895 -0.043339819 0.40328181
-0.045635276 -0.044621501 0.40274003
0.0070187678 -0.046098858 0.40307891
0.013803368 -0.045898397 0.40604067
-0.11034507 -0.034140829 0.40300003
-0.109729 -0.036140572 0.40075001
-0.092616461 -0.034880254 0.40293297
-0.052129049 -0.03716369 0.40498611
-0.044611745 -0.03787959 0.40608126
0.0059459093 -0.037594229 0.40571052
-0.11141044 -0.027585248 0.4036667
-0.091846034 -0.028733777 0.40126926
-0.089025244 -0.027961535 0.40136111
-0.051077362 -0.025349298 0.40196878
-0.049698319 -0.027187448 0.40435717
0.0087612243 -0.023016743 0.40875003
-0.05016268 -0.019513808 0.40100002
-0.049611408 -0.017438168 0.40364999
-0.026299331 -0.15318637 0.41080779
-0.0404354 -0.1483334 0.41831252
-0.035176266 -0.14525792 0.4154276
-0.025571523 -0.14555834 0.4114916
-0.015576156 -0.14473711 0.41499043
-0.0084185069 -0.14237358 0.41543332
-0.040574353 -0.13095823 0.41975003
-0.034603853 -0.13487136 0.41593805
-0.02511082 -0.13507728 0.41160655
-0.015179464 -0.13525987 0.41312191
-0.0076659047 -0.13443772 0.41341415
-0.042623505 -0.12306507 0.41700009
-0.034995832 -0.12509198 0.41485724
-0.027236663 -0.12602851 0.41148409
-0.013858796 -0.12421643 0.41480178
-0.008299022 -0.12627651 0.41247222
-0.073887289 -0.11152168 0.417375
-0.064133488 -0.11547609 0.41575003
-0.058146004 -0.11685037 0.41416669
-0.042198326 -0.11601922 0.41301563
-0.034995485 -0.1151812 0.41354442
-0.028419496 -0.11645527 0.4105114
-0.015637867 -0.11670978 0.41346878
-0.082811475 -0.10162964 0.41544122
-0.0749439 -0.10651348 0.41613162
-0.068491809 -0.10038532 0.41100001
-0.034273554 -0.10875155 0.41081581
-0.011403957 -0.10264905 0.41730005
-0.0060263518 -0.10169239 0.41866666
-0.083524175 -0.097608186 0.41665915
-0.076091059 -0.096400574 0.41400498
-0.061667569 -0.096535072 0.41424999
-0.059284586 -0.096527889 0.4145
-0.010527352 -0.095450051 0.41587499
-0.005554629 -0.094894402 0.4155452
-0.10126994 -0.081066549 0.41857147
-0.098040938 -0.081465296 0.41818756
-0.086708561 -0.085583456 0.41442505
-0.010434577 -0.08469072 0.41377777
-0.0047615659 -0.085751161 0.41560087
0.00073423196 -0.082701713 0.41925001
-0.11001285 -0.072036974 0.41850001
-0.10352071 -0.074274629 0.41735786
-0.098073706 -0.076002315 0.41660473
-0.088098235 -0.076804094 0.41337505
-0.074298598 -0.075813495 0.41696432
-0.0038924329 -0.076305278 0.41262498
0.0018204335 -0.071907118 0.41365004
-0.11072552 -0.064716443 0.41658339
-0.10556811 -0.066187732 0.41299289
-0.094804667 -0.064830735 0.4124167
-0.088109918 -0.065914117 0.41166666
0.0034184644 -0.065160267 0.41871548
-0.11179847 -0.055417597 0.41677275
-0.10880762 -0.056755088 0.41050002
-0.0935883 -0.055287078 0.41567186
0.0060610455 -0.053405713 0.41079167
0.014704225 -0.054045212 0.41734999
-0.11218606 -0.049379423 0.41637501
-0.093842313 -0.045552719 0.41197726
0.008311186 -0.042800043 0.41099077
0.016538149 -0.042649347 0.41630393
0.021876508 -0.043087799 0.4183929
-0.050785627 -0.033892799 0.4136053
-0.046897728 -0.034842726 0.41383979
0.008979178 -0.038444266 0.41490909
0.013001472 -0.038930871 0.41852498
0.02179678 -0.039136503 0.41875002
-0.05037747 -0.025078028 0.41285005
-0.04399595 -0.027563326 0.41846877
0.0097555453 -0.016035806 0.41300002
-0.04086132 -0.14434803 0.42271879
-0.039679985 -0.14021453 0.42000002
-0.0056504533 -0.14371626 0.4228929
-0.040622681 -0.13570738 0.42025003
-0.039679985 -0.13883778 0.42000002
-0.0056718537 -0.13457556 0.42747825
-0.053519085 -0.12203981 0.42452782
-0.045296501 -0.12635259 0.42617503
-0.011133051 -0.12265416 0.42508334
-0.0058270791 -0.1244546 0.42783046
-0.080843024 -0.11077876 0.42150003
-0.071239844 -0.11702816 0.42750001
-0.065947749 -0.1172386 0.42154169
-0.010875992 -0.11498402 0.42188236
-0.0066186562 -0.11487854 0.42445698
-0.090247169 -0.10190648 0.42675
-0.08551766 -0.10553377 0.42448077
-0.074926868 -0.10317939 0.423825
-0.011026896 -0.10649566 0.42056584
-0.0067401025 -0.10642076 0.42102548
-0.10165263 -0.090842664 0.42958334
-0.092037201 -0.093571894 0.42636117
-0.089111947 -0.095962256 0.42268333
-0.00092118129 -0.093537204 0.42228335
-0.11008652 -0.080500543 0.42950001
-0.10395725 -0.084540792 0.42345279
-0.097197421 -0.086179301 0.42435944
-0.076075286 -0.080675505 0.42062503
-0.010698649 -0.087390848 0.42071432
-0.0060119559 -0.086601056 0.4223167
0.0023803138 -0.081728168 0.42355886
-0.11212888 -0.075656205 0.42773613
-0.1068889 -0.076407455 0.42348272
-0.095787577 -0.073728502 0.42334619
-0.075878687 -0.078547187 0.42038333
-0.00018331612 -0.078399859 0.42075002
0.0026686119 -0.076627143 0.4245179
-0.11355855 -0.065657608 0.42550004
-0.095745333 -0.064890042 0.42454472
0.0067035486 -0.065506801 0.42256039
0.016175114 -0.063124537 0.4269079
-0.11417315 -0.056898143 0.42375001
-0.09575396 -0.056109861 0.42200863
0.014669834 -0.055957623 0.42424998
0.020465799 -0.05043631 0.42925003
-0.11538816 -0.046067625 0.42366672
0.015902989 -0.040201046 0.42031252
0.024262223 -0.043455698 0.42340001
-0.047308806 -0.032393638 0.42598277
0.0099356566 -0.036094148 0.42062503
0.014641623 -0.038087908 0.42151046
0.02061275 -0.038575098 0.42262501
-0.051286623 -0.02507481 0.42612502
-0.046494655 -0.026758274 0.42525002
-0.051562533 -0.018917609 0.42712504
-0.04339283 -0.018618919 0.42037502
0.00077013357 -0.14008103 0.43975002
-0.10288516 -0.13495603 0.43899542
-0.098436646 -0.13527688 0.43895742
-0.06788598 -0.13294476 0.43889478
-0.043559853 -0.13461398 0.43450001
-0.0024721769 -0.13555995 0.43254077
0.0027509183 -0.13468294 0.43564579
-0.10243893 -0.12618616 0.43909872
-0.098841019 -0.12729944 0.43912503
-0.070919834 -0.12084668 0.43508336
-0.067011759 -0.12546487 0.43618292
-0.055092018 -0.1267892 0.437325
-0.046061154 -0.12900797 0.43243751
-0.00065813423 -0.12228332 0.43118754
0.00076378509 -0.12510915 0.43612504
-0.10244324 -0.1125112 0.43717107
-0.095906556 -0.11238746 0.4370625
-0.086985655 -0.11283325 0.43671665
-0.076890253 -0.11654145 0.43437499
-0.0020062283 -0.11354031 0.43180561
-0.1107588 -0.10401423 0.43962502
-0.10457631 -0.10462178 0.43439946
-0.097545475 -0.10549272 0.43379271
-0.088925377 -0.10794488 0.43512502
-0.0013868888 -0.10569292 0.43198082
0.0019648983 -0.10236497 0.43319318
-0.11215004 -0.092027254 0.43864709
-0.1048738 -0.095631532 0.43455461
-0.09917856 -0.096525133 0.43351474
-0.00018865331 -0.098661274 0.433
0.0012325785 -0.097534396 0.43287501
-0.11277093 -0.085575946 0.43474996
-0.10730589 -0.087213449 0.4341667
-0.095463976 -0.085102133 0.43747732
0.0040233266 -0.083865993 0.43294448
-0.11291924 -0.079479925 0.43075001
-0.10015432 -0.077572621 0.43950003
-0.097584791 -0.07327611 0.43660808
0.0044623022 -0.075975694 0.43225002
-0.11671454 -0.063334689 0.43406254
-0.097765401 -0.068144709 0.43673685
0.017810917 -0.063594617 0.43691671
-0.11754448 -0.049901862 0.43275002
0.024533881 -0.045455325 0.43675005
-0.11943732 -0.032879412 0.43275002
0.015010052 -0.037577324 0.43389288
-0.050985303 -0.025623249 0.43550003
-0.047574118 -0.027131047 0.43472999
-0.10777109 -0.13505319 0.44101831
-0.093374707 -0.13476375 0.44243753
-0.067067228 -0.13721699 0.44152775
-0.045816969 -0.13600364 0.44525003
-0.0013603688 -0.13241135 0.44167113
0.0052334559 -0.13343908 0.44422543
0.010614766 -0.13381769 0.44937503
-0.11239477 -0.12460069 0.44413334
-0.10619978 -0.12378279 0.44105515
-0.094155364 -0.12461781 0.44328478
-0.085837036 -0.12464085 0.44768104
-0.075538129 -0.12543115 0.44935015
-0.061989833 -0.12816666 0.44850001
-0.00093723269 -0.12367965 0.44351923
0.0051130769 -0.1249354 0.44502974
0.011133112 -0.12367373 0.44796878
-0.11270235 -0.11455949 0.44439888
-0.10617416 -0.11645766 0.44243661
-0.095197566 -0.11567828 0.44299141
-0.086108729 -0.11849727 0.44531581
-0.079367861 -0.11844778 0.44150001
-0.00094350078 -0.11765284 0.44213888
0.0054587401 -0.11876065 0.44739813
0.012687868 -0.11579517 0.44870973
-0.11332404 -0.10458741 0.44266143
-0.10905251 -0.10951585 0.44050002
-0.096558541 -0.10526846 0.44188201
0.004393152 -0.10187864 0.44467857
-0.1141815 -0.096675664 0.44220269
-0.10040119 -0.096056312 0.44058335
-0.097754858 -0.094853014 0.44168991
-0.00019344589 -0.09243793 0.44400001
0.0029810958 -0.096784435 0.44621429
-0.11828355 -0.081691407 0.44625005
-0.1003537 -0.081095159 0.44037503
-0.098059326 -0.084459223 0.44036204
0.0042224708 -0.089001678 0.44749999
-0.12006123 -0.075366519 0.44925001
-0.11859957 -0.074356899 0.44468752
-0.1003537 -0.079170726 0.44037503
-0.098203838 -0.079281367 0.44060716
0.0060408707 -0.077225491 0.44530001
0.0090001272 -0.067927539 0.442375
0.014580772 -0.064157329 0.44811004
-0.12020978 -0.053450324 0.44256252
-0.11978536 -0.057116702 0.44100001
0.016663702 -0.057035018 0.440375
0.022027548 -0.053018037 0.44388893
-0.12157125 -0.04634776 0.44400004
0.024657078 -0.043593381 0.44575
0.016451722 -0.038911436 0.44775003
0.020061553 -0.039288551 0.44100001
-0.051739175 -0.022556009 0.44472229
-0.047898218 -0.023926906 0.44416672
0.013450712 -0.13382192 0.45530635
-0.081899583 -0.12767789 0.45092502
-0.077518679 -0.12743841 0.45064771
-0.064544171 -0.12935241 0.45150003
0.013351281 -0.12674887 0.45439821
-0.11853041 -0.11489054 0.45594448
-0.00019627786 -0.11249481 0.45050001
0.0052279262 -0.11524838 0.45548883
0.01387615 -0.11563934 0.45436293
-0.12052782 -0.1069772 0.45850003
-0.11850405 -0.10805309 0.45458332
0.0048636138 -0.10769267 0.45261118
-0.12126549 -0.092749394 0.45750004
0.0039695688 -0.094884709 0.45381704
-0.12110766 -0.086489826 0.45615
-0.11967512 -0.084623978 0.45150003
0.0062709665 -0.084261246 0.45493752
-0.12084071 -0.077834249 0.45216668
0.0073118825 -0.077364028 0.45812503
-0.12144789 -0.065767884 0.45075002
0.018009314 -0.064646311 0.45391667
0.021326115 -0.064214572 0.45561668
0.023891874 -0.055938005 0.45900002
-0.1246516 -0.04851697 0.45525002
0.025476335 -0.049103994 0.45150003
-0.051521216 -0.021667356 0.45325005
-0.048833191 -0.021949382 0.45253569
-0.053512111 -0.019291723 0.45425001
0.017211827 -0.12523727 0.46463159
-0.12030715 -0.1197794 0.46150002
-0.11991612 -0.11838484 0.46000001
0.0087576192 -0.11131874 0.46080557
0.013767992 -0.11302667 0.46296054
-0.12431369 -0.10020288 0.46900001
0.008416798 -0.10789181 0.46362504
0.011880451 -0.10723864 0.46472222
-0.12322032 -0.097799778 0.46487504
-0.12422585 -0.084078886 0.46483335
-0.12606198 -0.070824184 0.467875
0.017080378 -0.072288044 0.46480003
0.020728517 -0.071691163 0.46687502
-0.12572792 -0.065780997 0.46475002
0.023805775 -0.065603323 0.46712503
-0.12780041 -0.050762542 0.46675003
0.025256487 -0.055831913 0.46565914
-0.1277862 -0.04023673 0.46300003
0.018034361 -0.040258452 0.46325001
0.028226383 -0.047447063 0.46425003
-0.12763096 -0.037661903 0.46243751
-0.052156996 -0.020625476 0.46575004
-0.049363509 -0.02052746 0.46350002
0.019325025 -0.12814809 0.47000003
0.021892829 -0.12460572 0.47454032
-0.12526894 -0.11535736 0.47653574
0.018669968 -0.11772233 0.47075
0.021370908 -0.11891592 0.47296429
-0.12683177 -0.10380217 0.47850001
0.0077124564 -0.10516415 0.47413638
0.012967179 -0.1054332 0.47325003
0.0076700933 -0.097098708 0.47385007
0.0084869498 -0.084041946 0.47571436
0.010208031 -0.083021045 0.47625002
-0.12771226 -0.074864574 0.47400004
0.0089363614 -0.0784586 0.47510004
0.010678122 -0.072267748 0.47400004
0.018106943 -0.063343517 0.47310001
0.021862848 -0.062473614 0.47305557
0.025239043 -0.055955291 0.47386363
-0.13199516 -0.042607144 0.47825003
0.028121747 -0.044534445 0.47100002
-0.049674977 -0.019327343 0.47125003
0.015964534 -0.11471427 0.48422727
0.021078253 -0.11995069 0.48675004
0.0089541338 -0.10365199 0.48341668
0.015450227 -0.10433283 0.48619267
0.0086057177 -0.095997825 0.48071158
0.012641992 -0.097160205 0.48393333
-0.12834594 -0.088963054 0.48025003
0.01105377 -0.082591064 0.48291668
-0.12953095 -0.07854981 0.48075002
0.016615834 -0.076034509 0.48967859
0.023088088 -0.070655793 0.48425001
0.025516549 -0.064109512 0.48848963
0.028515212 -0.057170756 0.48650002
-0.053026184 -0.020864746 0.48300001
0.018200811 -0.11232307 0.49533334
0.020404348 -0.11036275 0.49625003
-0.13132426 -0.10626694 0.49408337
0.0090261158 -0.1068382 0.49388891
0.014612495 -0.10603553 0.49367398
0.021077229 -0.1051714 0.49607816
-0.13286051 -0.096437581 0.49714285
0.0084940093 -0.093302883 0.49330357
0.015759667 -0.095397979 0.49462506
0.022473687 -0.095504619 0.49410716
-0.13236003 -0.081338935 0.49125004
0.013229257 -0.08589001 0.49937508
-0.13489434 -0.071921498 0.49662504
0.010684942 -0.078181855 0.49850002
0.022401227 -0.075595759 0.49233332
-0.13357019 -0.067990005 0.49175
0.02791323 -0.066237673 0.49468753
-0.1351248 -0.054750253 0.49350002
0.028749663 -0.053881206 0.49050003
0.024090754 -0.10208711 0.50354171
0.016021714 -0.091697872 0.50091177
0.024346283 -0.094690256 0.50286669
-0.1351891 -0.084173962 0.50175005
0.016554944 -0.085118704 0.50468981
0.022141576 -0.084925719 0.50609177
0.015257944 -0.07706058 0.50537503
0.024161063 -0.076740488 0.50687504
-0.14027503 -0.046390515 0.50825
0.025254607 -0.10683478 0.51484376
0.014893386 -0.095403962 0.51200002
0.025460584 -0.094435789 0.51479548
-0.13882646 -0.087564707 0.51525003
0.025917416 -0.083687082 0.5115568
-0.13941006 -0.07713034 0.51325005
0.014121355 -0.077890009 0.51456249
0.026465362 -0.076219641 0.51558334
0.030546639 -0.062352747 0.51162505
0.031587802 -0.054794095 0.51214999
0.026773622 -0.095524974 0.52920836
-0.14307696 -0.080310196 0.52675003
0.014458741 -0.083396815 0.52325004
0.028742539 -0.08296378 0.5269286
0.027457437 -0.078696519 0.52750003
0.03188958 -0.059335671 0.52450001
0.027780419 -0.093515627 0.53511673
0.014109899 -0.082808614 0.53320003
0.028936505 -0.085419841 0.53350002
0.030173797 -0.083867095 0.53475004
0.014893418 -0.079948045 0.53200001
0.028916165 -0.078368187 0.53312498
0.030829478 -0.074406318 0.53395003
0.032436781 -0.0580221 0.53350002
0.030868543 -0.082809024 0.54706252
0.031648066 -0.078580938 0.54675007
0.032427937 -0.067377433 0.54312503
0.032511886 -0.086371988 0.55468756
0.032552183 -0.073144518 0.55537504
0.034942009 -0.054890964 0.55475003
0.034047976 -0.080484524 0.56
0.033952549 -0.076979429 0.56350005
0.034306381 -0.06999781 0.56425005
