# .PCD v0.7 - Point Cloud Data file format
VERSION 0.7
FIELDS x y z
SIZE 4 4 4
TYPE F F F
COUNT 1 1 1
WIDTH 1411
HEIGHT 1
VIEWPOINT 0 0 0 1 0 0 0
POINTS 1411
DATA ascii
0.64296442 0.38278273 0.042741291
0.61222297 0.38734224 0.060835287
0.61528236 0.38708892 0.059439339
0.61939675 0.38746515 0.057384361
0.62369996 0.38760746 0.055548862
0.62816155 0.38736254 0.053584773
0.63208359 0.38697737 0.051629212
0.63617533 0.38776526 0.049616218
0.63842422 0.38715136 0.047779046
0.64169455 0.38714072 0.045312665
0.64273608 0.38717082 0.042726766
0.61193717 0.39286882 0.06096733
0.61534882 0.39247108 0.059356127
0.61913168 0.39285827 0.057475217
0.62427384 0.392636 0.055258021
0.62849414 0.39241308 0.053290375
0.6321364 0.39237753 0.051420461
0.63656402 0.39249465 0.049429227
0.63884306 0.39222875 0.047431309
0.64161748 0.39238346 0.04509078
0.64326501 0.39034525 0.042372126
0.61159539 0.39711672 0.061078776
0.61581588 0.39765775 0.059035927
0.61884707 0.39716744 0.057472128
0.62392336 0.39728615 0.055176336
0.6281333 0.39729637 0.053335074
0.63214511 0.39772528 0.051614307
0.63574219 0.39669192 0.049975462
0.63846231 0.39769647 0.0476886
0.64118773 0.39729476 0.045248829
0.64212245 0.39809307 0.043874521
0.61150134 0.40199491 0.061281364
0.61567551 0.40214086 0.059243895
0.61925113 0.40255511 0.057349473
0.62380868 0.40230554 0.055259492
0.62800199 0.40238261 0.05352949
0.63229072 0.40232602 0.051778253
0.636603 0.40254307 0.049806461
0.63859588 0.40287954 0.047841437
0.6412878 0.40209779 0.045148283
0.64168131 0.40259287 0.043777466
0.61259848 0.40721849 0.060781617
0.61597717 0.40738109 0.059258625
0.61952817 0.40730971 0.057491194
0.62381369 0.40738899 0.055527572
0.62827027 0.40740514 0.053713579
0.63242561 0.40738738 0.052057691
0.636585 0.40811706 0.050103553
0.63916045 0.40806532 0.04771981
0.64169943 0.40699592 0.04488403
0.64146781 0.40600535 0.04370562
0.61174816 0.41224286 0.061431482
0.61565882 0.41232213 0.059536554
0.61977798 0.41234234 0.057444777
0.6234473 0.4123109 0.0556738
0.62837499 0.41239372 0.05360667
0.63235432 0.41242051 0.051988568
0.63670188 0.41205812 0.050220728
0.63929385 0.41265738 0.047638312
0.64148593 0.41185805 0.045010019
0.61232197 0.41704488 0.061215173
0.61518878 0.4172281 0.059774414
0.62015581 0.41724482 0.057466496
0.62363815 0.41748452 0.05578395
0.62833399 0.41737503 0.053567424
0.63257551 0.41761306 0.051862575
0.63608921 0.41717663 0.050391298
0.63924456 0.4178592 0.047287926
0.64109266 0.41708037 0.045026496
0.61274183 0.42062593 0.061103027
0.61548412 0.42257529 0.059606858
0.62048596 0.42242664 0.057321902
0.62348586 0.42238286 0.055801433
0.62829536 0.42268604 0.05351248
0.63192165 0.42255238 0.051827282
0.6357159 0.42286369 0.049993318
0.63910502 0.42280641 0.047356222
0.64068663 0.42238703 0.045000281
0.61536109 0.42734078 0.059906665
0.62044942 0.42753154 0.057356846
0.62384051 0.42781195 0.055697042
0.6281805 0.42765546 0.053536829
0.63208163 0.4273195 0.051704511
0.6360448 0.42797151 0.049423113
0.63835371 0.42720595 0.04742185
0.64055395 0.4270058 0.044495068
0.61553043 0.43266773 0.059945524
0.61995471 0.43216729 0.057700284
0.62364966 0.43257073 0.055820934
0.62813818 0.43265355 0.053724986
0.63183773 0.43236351 0.051896494
0.63559735 0.43160146 0.049612835
0.63801414 0.43200362 0.047387
0.63914686 0.43195072 0.045364514
0.61556542 0.4369702 0.059984449
0.62063152 0.4373062 0.057522483
0.62350529 0.43743655 0.055808946
0.62773323 0.43736595 0.053765543
0.631975 0.43768838 0.051790006
0.63465917 0.4372111 0.050127551
0.63795292 0.43720514 0.046835724
0.63899255 0.43610185 0.045564771
0.61324871 0.44332293 0.06111519
0.61596704 0.44247398 0.059618797
0.61979806 0.44324023 0.057769448
0.62368828 0.44241682 0.055514399
0.62768948 0.44240227 0.053523108
0.63185912 0.44231164 0.051504653
0.63467771 0.44233423 0.049756318
0.63788283 0.44184694 0.046712104
0.6161623 0.44697577 0.059489962
0.61996871 0.44753641 0.057688575
0.62367511 0.44779044 0.055448763
0.62777007 0.44755235 0.053405721
0.63161981 0.44733602 0.051525701
0.63407511 0.44774979 0.050044294
0.63764375 0.44542435 0.046888933
0.61705965 0.45196187 0.059385784
0.61988568 0.45259702 0.057881832
0.62395042 0.45236692 0.055602029
0.62778205 0.45257413 0.053632062
0.63123846 0.45255044 0.051873364
0.61777669 0.45780224 0.059435509
0.620534 0.45718303 0.057926126
0.62370026 0.45720693 0.055972368
0.62817663 0.45716769 0.053560559
0.63141221 0.45737946 0.051865518
0.61752164 0.45974392 0.059718549
0.62087685 0.46197638 0.058123972
0.62375283 0.46203589 0.056309339
0.62820202 0.46231097 0.05374923
0.6316275 0.46278116 0.051842362
0.63656276 0.46281329 0.046647608
0.63631481 0.46392536 0.046664219
0.62455505 0.466874 0.056149669
0.62808305 0.46757892 0.054046459
0.63148731 0.46766847 0.05197987
0.63582659 0.46733111 0.047462564
0.6366238 0.4656508 0.046270315
0.62542188 0.47246197 0.056057509
0.62886769 0.47264251 0.054206181
0.63165194 0.47197416 0.052108962
0.62548357 0.47660714 0.056590926
0.62855506 0.47762564 0.054871701
0.63158792 0.47761515 0.052557282
0.62918097 0.48239183 0.054761581
0.63170826 0.48256829 0.052649017
0.6291005 0.48747751 0.054870375
0.63180429 0.4878498 0.052329317
0.62915272 0.49260956 0.055143494
0.63134766 0.4919599 0.052913766
0.62634021 0.49855539 0.057308059
0.62941635 0.49759987 0.0551643
0.63154614 0.49737498 0.052849837
0.62654567 0.5015071 0.057175674
0.62949944 0.50248194 0.05502056
0.63201708 0.50310928 0.052219857
0.62630051 0.50727266 0.057564501
0.62950081 0.50741613 0.055165693
0.63214439 0.50793087 0.051976468
0.62663037 0.51433659 0.057477392
0.62937862 0.51272303 0.055415519
0.63197267 0.51230693 0.051888894
0.62649119 0.51583463 0.057642203
0.62909949 0.51752865 0.055583123
0.63149285 0.51764876 0.052433856
0.62937963 0.52243388 0.055116486
0.63141197 0.52225131 0.052548673
0.62912834 0.52751958 0.055184074
0.63108224 0.52637547 0.052686643
0.62908733 0.53260446 0.054938987
0.63070595 0.53251594 0.053154238
0.62894177 0.53766459 0.054651357
0.62999547 0.5360648 0.053690702
0.62616163 0.5441184 0.056578502
0.62857354 0.54262799 0.054627955
0.62594813 0.54633796 0.056658186
0.62842375 0.54775757 0.054172926
0.62573075 0.5536769 0.056333948
0.6283567 0.55244386 0.053840507
0.62566662 0.55824542 0.05605315
0.62845433 0.55730361 0.053469907
0.62567729 0.56233835 0.055882238
0.62777966 0.56278867 0.053485967
0.62550235 0.56807238 0.055683229
0.62767839 0.567442 0.053416707
0.6256578 0.57315236 0.055393301
0.62736046 0.57089126 0.053685565
0.62566316 0.57787573 0.054827299
0.6250664 0.58276707 0.054577194
0.62565964 0.58329099 0.053930443
0.62474883 0.58741742 0.053828236
0.62561852 0.58846152 0.052501876
0.62401813 0.59275073 0.053499755
0.62501866 0.59219152 0.052415594
0.62036324 0.59980083 0.055726867
0.62320697 0.59731477 0.053515773
0.62005258 0.60294384 0.055602171
0.62301314 0.60232466 0.053436168
0.62005961 0.6071558 0.055549797
0.62337309 0.6077556 0.053158291
0.62414169 0.60983568 0.052916721
0.62000632 0.61097562 0.05575246
0.62327361 0.61249238 0.053911947
0.62611723 0.61231726 0.051933918
0.62308991 0.61583906 0.054682359
0.62523466 0.61581093 0.053527299
0.56574142 0.025228081 0.052568898
0.51940316 0.029630443 0.058626905
0.52314621 0.028737189 0.058305036
0.52767986 0.028318156 0.058103614
0.53224784 0.028149953 0.057872683
0.53785026 0.02804802 0.057403304
0.54248142 0.028470241 0.056958765
0.54714674 0.028971404 0.056436397
0.55221283 0.028992336 0.055597272
0.55723822 0.028792027 0.054738253
0.56250095 0.028188072 0.05373662
0.56728745 0.027978498 0.053023361
0.57017136 0.028397501 0.052707486
0.49572161 0.033930767 0.062015712
0.5078851 0.033663578 0.06081913
0.51217836 0.033344507 0.060189188
0.51797998 0.032513727 0.059527129
0.52276522 0.032566905 0.059239458
0.52762628 0.032702159 0.059082624
0.53266865 0.032359075 0.058802158
0.53746724 0.032490958 0.058525305
0.54251009 0.032304451 0.057842929
0.54735589 0.03241463 0.057242613
0.55248368 0.03258992 0.056432765
0.55743062 0.032634046 0.055524446
0.56160295 0.032907669 0.054821122
0.56726402 0.032687768 0.053817891
0.57091624 0.032994628 0.053256314
0.51924533 0.037442498 0.060303062
0.52320737 0.037110366 0.060008764
0.52758938 0.037258703 0.059804212
0.5326283 0.037418038 0.059538018
0.53759348 0.037359983 0.059256855
0.54259855 0.037459385 0.058662064
0.5477879 0.037455026 0.058022045
0.55255282 0.037515379 0.057208329
0.55729502 0.037682675 0.056295976
0.56145281 0.037651923 0.055490874
0.56709516 0.037707157 0.054397099
0.57132649 0.037908863 0.053683236
0.21870109 0.04403628 0.054771677
0.22246717 0.043699849 0.055172116
0.22780854 0.042950321 0.055662535
0.23270853 0.043396633 0.056236975
0.237836 0.043327559 0.056773815
0.24281101 0.043911837 0.057575427
0.24782863 0.043849904 0.058357578
0.25286919 0.043775216 0.059065539
0.25749362 0.044061925 0.059672166
0.26105732 0.044052903 0.060046062
0.51876271 0.042031199 0.060948532
0.52290642 0.042377632 0.060654528
0.52772754 0.041886225 0.060256764
0.53269684 0.042061184 0.059988994
0.53757966 0.042263974 0.059681203
0.54256147 0.042464465 0.059211664
0.54769653 0.042483527 0.058548018
0.5525806 0.042285405 0.057697058
0.55739117 0.04254435 0.056779683
0.56237715 0.042732015 0.055751309
0.56677961 0.042863205 0.054912422
0.57130051 0.042951591 0.05399264
0.21469684 0.04863058 0.054988235
0.21786879 0.047803521 0.0553164
0.22254439 0.047507629 0.05584098
0.22722299 0.047224578 0.056295626
0.23203799 0.047762416 0.056907546
0.23732767 0.047205586 0.057405416
0.24226445 0.047813553 0.058175482
0.24747843 0.047247637 0.058849584
0.25163966 0.046949852 0.059384096
0.25766721 0.045640524 0.059936613
0.51868641 0.047041323 0.061574496
0.52224916 0.047499474 0.061217055
0.52759302 0.047108877 0.060682524
0.53314894 0.047375642 0.060367066
0.53770834 0.04735874 0.059952538
0.54267222 0.047469638 0.059493028
0.54752105 0.047289237 0.058873009
0.5524745 0.047520984 0.058022391
0.55757391 0.047492485 0.057093643
0.56230849 0.047440268 0.056114152
0.56669819 0.047547884 0.055186406
0.57164419 0.047838643 0.054162443
0.21315116 0.052704688 0.055372313
0.21721381 0.052775972 0.056011081
0.22268742 0.052286625 0.056617245
0.22765668 0.052695714 0.057208814
0.2328916 0.052411329 0.057694171
0.23772895 0.05241273 0.058236085
0.2426839 0.052849423 0.058949523
0.24706402 0.051774804 0.059438355
0.25005773 0.050686248 0.059709579
0.5241009 0.0515633 0.061362155
0.52754277 0.052287389 0.061030097
0.53259468 0.052240554 0.060663898
0.53793412 0.052407838 0.060248677
0.54258072 0.052334353 0.059757393
0.54785478 0.052508932 0.059079934
0.55269837 0.05256328 0.058301508
0.55749208 0.052379068 0.057347693
0.56245947 0.052532148 0.056359705
0.56682402 0.052771993 0.055404712
0.57154387 0.052405085 0.054363094
0.20878927 0.058083769 0.055327386
0.21273196 0.057583246 0.055967383
0.21792062 0.057614397 0.056757681
0.22254577 0.057422753 0.057321977
0.22701441 0.057635777 0.057806749
0.23221648 0.057177112 0.058228794
0.23728156 0.05773063 0.058834508
0.24255018 0.057308324 0.059451096
0.24547301 0.057583161 0.059876278
0.53374785 0.057867076 0.060660139
0.53797019 0.057733286 0.06037258
0.54259056 0.057200287 0.059893716
0.54751104 0.05743007 0.059280276
0.55246353 0.057358738 0.058525641
0.55756152 0.057578094 0.057583403
0.56243193 0.05760064 0.056527697
0.56662101 0.057377484 0.055568591
0.57203335 0.057623513 0.054397129
0.57554108 0.058905035 0.053696215
0.2038299 0.062384531 0.054954477
0.20726085 0.062384669 0.055580836
0.21215855 0.062798493 0.056509525
0.21757701 0.062309522 0.057299886
0.22255608 0.062683426 0.057968628
0.22775793 0.062436633 0.058420449
0.23268276 0.062648728 0.058838319
0.23723151 0.062739462 0.059289958
0.24218576 0.062130682 0.059827484
0.24509846 0.061238587 0.060137171
0.5249036 0.064786203 0.062125519
0.52860796 0.062769935 0.061380848
0.53255141 0.06230804 0.060854442
0.53792638 0.062406596 0.060490768
0.54267162 0.06240952 0.060046967
0.54778361 0.062374718 0.059448101
0.55282664 0.062497221 0.058705427
0.55764014 0.062505223 0.057825182
0.56232345 0.062438034 0.056828864
0.56707674 0.062880971 0.055773124
0.57222563 0.062803544 0.054572247
0.57631773 0.062357347 0.053629428
0.203935 0.067203529 0.055596624
0.20788926 0.067731366 0.056387816
0.21290176 0.067602679 0.057237439
0.21765268 0.067480184 0.057927158
0.22211583 0.067555845 0.058453474
0.22725871 0.067308247 0.058836374
0.23221715 0.067734011 0.059236843
0.23720492 0.066829279 0.059601557
0.24082457 0.065373078 0.059911769
0.52802861 0.067085803 0.061763369
0.53287631 0.067564882 0.061055832
0.53790367 0.067303196 0.060598385
0.54289705 0.06730102 0.060123153
0.54751885 0.067322567 0.059608456
0.55277956 0.067538634 0.058919728
0.55772609 0.067372531 0.058059439
0.56273901 0.067585394 0.057010122
0.56751174 0.067576453 0.055920068
0.57106757 0.066635899 0.055052549
0.19883445 0.073954046 0.055801772
0.20249312 0.072569765 0.056125708
0.20715816 0.072772935 0.056963246
0.21255884 0.072294764 0.057803538
0.21749887 0.072680846 0.058538754
0.22269987 0.072425991 0.058993205
0.22781669 0.072498985 0.059368826
0.23261927 0.072865084 0.05968355
0.23603959 0.072078213 0.059921145
0.52863443 0.07274767 0.062190238
0.53269297 0.072133839 0.061423324
0.5376808 0.072498254 0.060767803
0.54309022 0.072202273 0.060136572
0.54774052 0.072465524 0.059650946
0.55264711 0.07246919 0.059073254
0.55764419 0.072281197 0.058264956
0.56261861 0.072511241 0.057289544
0.56730759 0.072487772 0.056194481
0.57155353 0.073067673 0.055278145
0.17782231 0.079723835 0.054905709
0.18835631 0.079461314 0.055678796
0.19265802 0.078169547 0.055817809
0.19776079 0.077171795 0.056216311
0.20269312 0.077825762 0.057032548
0.20781234 0.077292502 0.057785012
0.2125974 0.077476636 0.058527373
0.21725281 0.077640876 0.059130762
0.22236942 0.077157557 0.059528444
0.22667213 0.076602548 0.059736531
0.23291719 0.076805621 0.060116488
0.23646976 0.076880358 0.060456868
0.52809674 0.077305131 0.062576212
0.53301525 0.077403359 0.061787304
0.53761983 0.077596083 0.061032049
0.54299051 0.077396624 0.060326014
0.5474965 0.077619858 0.059780311
0.55253243 0.077291898 0.059195448
0.55776292 0.07738848 0.058462329
0.56262887 0.077512808 0.057541035
0.56729656 0.077400997 0.05646525
0.57183522 0.077810533 0.05542884
0.57649451 0.078050181 0.054324403
0.16939662 0.084143743 0.054875065
0.17273569 0.082736909 0.054998469
0.17727593 0.082847513 0.05549996
0.18259832 0.082293026 0.055839926
0.18758348 0.082696028 0.056301616
0.19265853 0.082615018 0.056715082
0.19751285 0.082416713 0.057203319
0.20217505 0.082643166 0.057843029
0.20736995 0.08213225 0.05852592
0.21242386 0.08265426 0.059295274
0.21737102 0.082218818 0.059747323
0.22182526 0.081245981 0.059987433
0.52861023 0.081358731 0.062792867
0.53268498 0.082448915 0.062222082
0.53803176 0.082204528 0.061265096
0.54344153 0.082279846 0.060491171
0.54784095 0.082568899 0.059900582
0.55272657 0.082426958 0.059320658
0.55786252 0.082517698 0.058661595
0.56268215 0.082444996 0.057766732
0.56743026 0.08254654 0.056684818
0.57214981 0.082598589 0.05554853
0.57699049 0.082542606 0.054348528
0.57981563 0.084196314 0.05369148
0.16855687 0.087576069 0.055474415
0.17284402 0.087788336 0.056000132
0.17764351 0.0877278 0.056479249
0.18219794 0.087265663 0.056809105
0.1870884 0.087782681 0.057334553
0.19259886 0.087343775 0.057737671
0.19759957 0.087727681 0.058330569
0.20268299 0.087585367 0.058916029
0.20725222 0.08702936 0.059395898
0.21184127 0.086138919 0.059790883
0.53419006 0.087426193 0.062309474
0.53772855 0.087195382 0.061699994
0.54240525 0.087387726 0.060886085
0.54790378 0.086879246 0.060033746
0.55273807 0.087386668 0.059433687
0.55776346 0.087538831 0.058797512
0.56265897 0.087588087 0.05791479
0.56734484 0.087422244 0.05689425
0.57242256 0.08759845 0.055650759
0.57694733 0.08767999 0.05453784
0.58051139 0.08846575 0.053645212
0.15354082 0.093524143 0.054894336
0.15769871 0.093474388 0.05541778
0.16291499 0.092645332 0.055887476
0.16733311 0.092449248 0.056341741
0.17221572 0.092674151 0.056875199
0.17761588 0.092336886 0.057335414
0.18265626 0.092715085 0.057885256
0.18762451 0.092648856 0.058375545
0.19245143 0.092395626 0.058787398
0.19721496 0.092699476 0.059349697
0.20199595 0.091854423 0.059697222
0.20553896 0.091111466 0.059958477
0.53423923 0.092356429 0.062575579
0.53789222 0.092614979 0.061952304
0.54305434 0.092285074 0.061069444
0.54788905 0.092545711 0.06034309
0.55325741 0.092257835 0.059482161
0.5576005 0.092486262 0.058898296
0.56241268 0.092321932 0.058065407
0.56714135 0.092691109 0.057045083
0.57218474 0.092356339 0.05588387
0.57666373 0.092646308 0.054740716
0.58021128 0.090699919 0.053794447
0.14821047 0.09831991 0.055233866
0.15256885 0.097695887 0.055675685
0.15715478 0.097767718 0.05624393
0.1624625 0.0972431 0.056743938
0.16763878 0.097755238 0.057363153
0.17296952 0.097435869 0.057780471
0.17765693 0.097501844 0.058230091
0.18217707 0.097552642 0.058756135
0.18739536 0.097236842 0.059264965
0.19207834 0.096926242 0.059693281
0.19584639 0.09600094 0.059911724
0.53300625 0.095317371 0.062968172
0.53752613 0.095875695 0.062161636
0.543019 0.09611313 0.061311807
0.54768527 0.097564474 0.06071325
0.5532952 0.097191446 0.059808183
0.55772686 0.097533673 0.059005246
0.5626837 0.097320229 0.058117967
0.56735665 0.097621746 0.057096109
0.57231301 0.097469337 0.055971991
0.57744789 0.097528256 0.054735925
0.58013099 0.099253573 0.05412627
0.1437865 0.1023632 0.055504974
0.14736913 0.10234912 0.055989619
0.15257099 0.10287222 0.056756195
0.15790792 0.10250749 0.057278078
0.16245179 0.10246906 0.057714719
0.16699685 0.1024648 0.058109734
0.17232606 0.10216521 0.058504503
0.17747626 0.10267229 0.059141226
0.18263069 0.10224108 0.059673037
0.18658559 0.10074078 0.059846301
0.54816711 0.10207331 0.061103668
0.5525682 0.10248989 0.060456086
0.55827177 0.1021577 0.059272047
0.56252706 0.10242466 0.058459755
0.56756192 0.10244096 0.05733408
0.57236993 0.1025902 0.056180794
0.57719523 0.10245045 0.054957375
0.58094847 0.10296137 0.054045249
0.13258147 0.1094735 0.055485893
0.13740976 0.10836155 0.055874448
0.14274603 0.10739774 0.056436419
0.14768103 0.10762258 0.057173863
0.15226969 0.10774531 0.057744097
0.15725201 0.10722043 0.058145192
0.16244179 0.10772066 0.058683556
0.16775428 0.10721516 0.059028719
0.17232104 0.10730021 0.059459049
0.17684123 0.10717457 0.059912797
0.18069521 0.10624858 0.060193274
0.54880607 0.10729048 0.061709899
0.55278176 0.1074203 0.06100785
0.55830318 0.10763703 0.059855886
0.56275284 0.10728215 0.058801237
0.56730264 0.10761561 0.057780676
0.57225245 0.10748962 0.056524016
0.57721055 0.10752064 0.055306572
0.5817101 0.1078459 0.054222513
0.11473618 0.11440726 0.054550335
0.11808652 0.11427987 0.054913674
0.12233344 0.1134652 0.055224098
0.1277668 0.11260762 0.055646602
0.13270622 0.11291316 0.056329139
0.1375127 0.11257488 0.056880992
0.14229539 0.11222355 0.05746277
0.14734742 0.11282544 0.058256771
0.15284681 0.11231274 0.058788076
0.15773502 0.11262123 0.059315667
0.16213194 0.11239219 0.059634432
0.16710307 0.11119489 0.059787638
0.17123955 0.11056128 0.060020279
0.549308 0.11112785 0.062235869
0.5529719 0.11208169 0.061588433
0.55802828 0.11208241 0.060412113
0.56281763 0.11234691 0.059283435
0.56784308 0.1123936 0.058068275
0.57237214 0.11268139 0.056960139
0.57743162 0.11250046 0.055678964
0.58177722 0.11274254 0.054570679
0.58531827 0.11324463 0.053644102
0.1128691 0.11784756 0.055047147
0.1175186 0.11781082 0.05561531
0.12285463 0.11747172 0.056181539
0.12746464 0.11749624 0.056733407
0.13225318 0.11769984 0.057363391
0.13771947 0.11730244 0.057999108
0.14278808 0.11761656 0.058755655
0.14747681 0.11773878 0.059386212
0.15205891 0.11687546 0.059739988
0.15648505 0.11614062 0.059998434
0.55361974 0.11741666 0.062064067
0.55835611 0.11720154 0.060840774
0.56294918 0.11735289 0.059651483
0.56770092 0.11737942 0.058537487
0.57235199 0.11744099 0.05735248
0.57740504 0.11762626 0.056070488
0.58196843 0.11774883 0.054943044
0.58551389 0.11735663 0.053908285
0.10969807 0.12253104 0.05535733
0.11271975 0.12298163 0.0558476
0.11744873 0.12221941 0.056366742
0.12242638 0.12233879 0.057004984
0.12764972 0.1228056 0.057777576
0.13286008 0.12249999 0.058439784
0.13741744 0.12231233 0.059037182
0.14226371 0.12265289 0.059759852
0.14717421 0.1208287 0.060024664
0.55359846 0.12243237 0.062393907
0.55817699 0.12233424 0.061214875
0.56314909 0.1226379 0.059834182
0.56783783 0.12241253 0.058766052
0.57261455 0.12242589 0.05756598
0.57719916 0.12252605 0.056372974
0.5820998 0.12255084 0.055183202
0.58567744 0.12263242 0.054232895
0.10358638 0.12935024 0.055165447
0.10771644 0.12800673 0.055703923
0.11229537 0.12762488 0.056346286
0.1177204 0.12733936 0.057092909
0.12264591 0.12767591 0.057821088
0.12721096 0.1274835 0.058455028
0.13239096 0.12716775 0.059174247
0.13702267 0.1269096 0.059818193
0.14106685 0.12595513 0.060209315
0.55377859 0.12728758 0.06246338
0.55827904 0.12754719 0.061267506
0.56321156 0.1273066 0.05992607
0.56754422 0.12737796 0.05889333
0.57262409 0.12738189 0.057734746
0.57710391 0.12771003 0.056611709
0.58212578 0.12751211 0.055400722
0.58660352 0.12747161 0.054177172
0.59033722 0.12879029 0.053082217
0.10294072 0.13229987 0.055309627
0.10749704 0.13288438 0.056049403
0.11238126 0.13207236 0.056749798
0.11737528 0.132258 0.057549849
0.12237396 0.13279624 0.058363188
0.12781093 0.13235857 0.059170138
0.13256216 0.13252814 0.059923746
0.13525012 0.13071451 0.060095526
0.54968381 0.13388856 0.063315161
0.55312991 0.13233739 0.062513918
0.55824679 0.13241827 0.06116838
0.56341237 0.13227925 0.059835188
0.56764328 0.13246635 0.058892168
0.57260913 0.13259846 0.057832874
0.57736325 0.13247639 0.056723159
0.58222431 0.13264695 0.055488542
0.58643478 0.13225152 0.05432881
0.58996087 0.13111928 0.05328517
0.10790346 0.13723394 0.056393988
0.11260802 0.13754395 0.05714187
0.11754407 0.13777979 0.057985481
0.12252051 0.13726273 0.058752559
0.12723036 0.13736461 0.059513263
0.13153677 0.13746981 0.06025137
0.54951125 0.13765682 0.063241698
0.5529564 0.13755931 0.06230741
0.55787498 0.1372281 0.061134607
0.562617 0.1375176 0.059959456
0.56778115 0.13724455 0.058799583
0.57250684 0.13760997 0.057880886
0.57726341 0.13754641 0.056836598
0.58239198 0.13742636 0.055509385
0.58631927 0.13771923 0.054470282
0.10325377 0.14352006 0.056037795
0.10757869 0.14266349 0.056676243
0.11217921 0.14273234 0.057401586
0.1176229 0.14222507 0.058274239
0.12272837 0.1423353 0.059105556
0.1270501 0.14243789 0.059830144
0.13010861 0.14094582 0.060261145
0.54892731 0.14202563 0.063390486
0.55327177 0.14228538 0.062206466
0.55807579 0.14252113 0.061049767
0.56345606 0.14237186 0.059811492
0.5681659 0.1424958 0.058827478
0.57251805 0.1423604 0.057966996
0.57719284 0.14248732 0.057003804
0.58207417 0.1426295 0.055762611
0.58641607 0.14276676 0.05457915
0.59023941 0.14465304 0.053536683
0.097806588 0.14721189 0.055378631
0.10236478 0.14728853 0.056117594
0.10749929 0.14783955 0.056993626
0.11288698 0.14755674 0.057843417
0.11759705 0.14721967 0.058598951
0.12229177 0.14750548 0.059369933
0.12598634 0.14767222 0.059981067
0.55071944 0.14629337 0.063227125
0.55332631 0.14697263 0.0625154
0.55776566 0.1474476 0.061326522
0.56273967 0.14744352 0.060172625
0.56814927 0.14730129 0.059099812
0.5724175 0.14759554 0.058277164
0.57726771 0.14756916 0.057215501
0.58234745 0.14753565 0.055968229
0.5867734 0.14750347 0.054840665
0.59063369 0.14828955 0.053667512
0.11258113 0.15021028 0.058021389
0.11829078 0.1514301 0.059040431
0.12212697 0.1518376 0.05965047
0.12502901 0.15121564 0.06006911
0.55891466 0.15194689 0.061540924
0.56270832 0.15250838 0.06069956
0.56811565 0.15229362 0.059471164
0.57250565 0.15239595 0.058580227
0.57754898 0.15246846 0.057573676
0.58226043 0.15260121 0.056460451
0.58656418 0.15269116 0.055383012
0.59163356 0.15292719 0.053747047
0.55958563 0.15712805 0.062005594
0.56300753 0.15742223 0.061198402
0.56798881 0.15747355 0.060042057
0.57309562 0.15730673 0.058933605
0.57754755 0.15758413 0.058152672
0.58247072 0.15744121 0.056954268
0.58688122 0.15769963 0.05588739
0.59194207 0.15753314 0.05425166
0.59543902 0.15851806 0.053072963
0.55975199 0.1625974 0.062491447
0.56310749 0.16231623 0.061622873
0.56777161 0.16210383 0.060508329
0.57315648 0.16233659 0.05949869
0.57788157 0.16237934 0.058607332
0.58244854 0.16255657 0.057594474
0.58712715 0.16245438 0.056464426
0.59195882 0.16260844 0.054875933
0.59526211 0.16263488 0.053628679
0.55914563 0.16694582 0.06288068
0.56304979 0.1675079 0.062007997
0.56837475 0.16716261 0.060767125
0.57352328 0.16750562 0.059867524
0.57774198 0.16750321 0.059060756
0.58261192 0.16744129 0.057983454
0.58745766 0.16753756 0.0567987
0.59205061 0.1677703 0.055321109
0.59562927 0.16800308 0.05395456
0.55959684 0.17047431 0.063019671
0.5630939 0.17185821 0.062280294
0.56767565 0.17236808 0.061206013
0.57346088 0.17223056 0.060071994
0.57778054 0.17236587 0.059327055
0.58269954 0.17253558 0.058242254
0.58706421 0.17254412 0.057128947
0.59157455 0.17275752 0.055775132
0.59613591 0.17297634 0.054032352
0.56456161 0.1768495 0.06224747
0.56844139 0.17748354 0.061394341
0.57321423 0.17738329 0.060347427
0.57811111 0.17751159 0.059449363
0.58268374 0.17746374 0.05842112
0.58734578 0.17742968 0.057209559
0.5920158 0.17764656 0.055779874
0.5964027 0.17745534 0.054094642
0.56483334 0.18151005 0.062386874
0.56808728 0.18235475 0.061630804
0.57322079 0.18228298 0.060460594
0.57827348 0.18227492 0.059516672
0.58290887 0.18253589 0.058387265
0.58738548 0.18255731 0.05721283
0.5919742 0.18247522 0.055921856
0.59605277 0.1822708 0.05441086
0.56800854 0.18736508 0.06182237
0.5733822 0.18738768 0.060601536
0.57830435 0.18720232 0.059540343
0.58259469 0.18749744 0.058467504
0.58734286 0.18759209 0.057226751
0.59173298 0.18739304 0.055960301
0.59637249 0.18777715 0.054434173
0.56877947 0.19233711 0.061892547
0.57313651 0.19249916 0.060856543
0.57842618 0.19219214 0.059586227
0.58293933 0.19248685 0.058501597
0.58776051 0.19246757 0.057258889
0.59168488 0.19266853 0.05611987
0.59689128 0.19277178 0.054372843
0.59996843 0.19260581 0.053169113
0.56913579 0.19730562 0.062305074
0.57287329 0.19719552 0.061295811
0.57803804 0.19734164 0.059975538
0.58276242 0.19741723 0.058844622
0.58763224 0.1977344 0.057536244
0.59156406 0.19760965 0.056357853
0.59648657 0.19777896 0.054826513
0.60073555 0.19773151 0.053207919
0.60355717 0.19901963 0.052151572
0.56972265 0.2025016 0.062863648
0.57360041 0.20217423 0.061753843
0.57872987 0.20212024 0.06022786
0.58315825 0.20238532 0.059145901
0.58785546 0.20240918 0.057749033
0.59193027 0.20270503 0.05658178
0.59681594 0.20257206 0.054973606
0.60130399 0.20290187 0.053385369
0.6040411 0.20266834 0.052356001
0.56928694 0.20718513 0.063733682
0.57318383 0.20716816 0.062745877
0.57864296 0.20730449 0.061095797
0.58295637 0.20733862 0.05977045
0.58770859 0.2072885 0.05821446
0.59226358 0.20753503 0.056889504
0.59676349 0.20773257 0.055558641
0.60106713 0.20774657 0.05394426
0.57003748 0.2115328 0.064260341
0.5736624 0.21251637 0.063453339
0.57880867 0.21211268 0.061743006
0.58332664 0.21232261 0.060111351
0.58795685 0.21238658 0.058596019
0.59239948 0.21240519 0.057201803
0.59660804 0.21277741 0.055852011
0.60164899 0.21270202 0.053962104
0.57444423 0.21641749 0.063674286
0.57891959 0.21700093 0.062240519
0.5832876 0.2172664 0.060700174
0.58828801 0.21735629 0.05890562
0.5924685 0.21735668 0.057585146
0.59687215 0.21766944 0.056155015
0.60182911 0.21760926 0.054251466
0.60618335 0.21963979 0.052592643
0.60829806 0.22031911 0.051744591
0.57545418 0.22212122 0.06394688
0.57887894 0.22187911 0.062670082
0.58328092 0.22231258 0.061072599
0.58825022 0.22230899 0.059378352
0.59269989 0.22236139 0.057880044
0.59710681 0.22257808 0.056387976
0.60170889 0.22256 0.054708421
0.60503125 0.2230791 0.053353645
0.60888875 0.22185604 0.051575415
0.57588178 0.22586766 0.063962981
0.57929611 0.22693536 0.06283538
0.58337861 0.22742932 0.061482415
0.5882327 0.22728859 0.059715945
0.5930841 0.22744194 0.058045808
0.59668785 0.22751139 0.056904774
0.60199296 0.22755371 0.055060547
0.60460252 0.22779314 0.054085094
0.57874715 0.23225062 0.063185468
0.58340687 0.23227325 0.061765034
0.58819109 0.23223639 0.060002346
0.59297818 0.2323049 0.058337756
0.59681082 0.23247655 0.057098519
0.60166454 0.23257139 0.055438597
0.60488302 0.23291664 0.054222051
0.57956731 0.23742148 0.063293219
0.58372456 0.23717463 0.062027495
0.58823574 0.23730405 0.060241252
0.59329438 0.23744154 0.058602836
0.59740996 0.23753744 0.057253454
0.60188299 0.23747422 0.055554591
0.60513926 0.23817596 0.054286797
0.58006841 0.24145581 0.063511431
0.58387196 0.24216202 0.062327035
0.58830392 0.24232005 0.060701337
0.5932945 0.24235386 0.058891028
0.59698969 0.24253182 0.057646729
0.60193831 0.24250995 0.055880509
0.60587281 0.24259469 0.054161385
0.61084169 0.24317217 0.051727392
0.61367375 0.24392185 0.050431296
0.58459944 0.24731877 0.062383994
0.58841562 0.24728647 0.06108252
0.59351736 0.24731973 0.059303049
0.59717554 0.24754094 0.057889283
0.60198021 0.24766469 0.055884525
0.60605705 0.24749328 0.054185446
0.6105544 0.24740437 0.05180895
0.6135416 0.2478717 0.05049913
0.58470643 0.25201869 0.062518381
0.58849275 0.25226733 0.061185952
0.59351701 0.25229809 0.059478395
0.59773535 0.25250322 0.057761848
0.60182554 0.25254181 0.055900738
0.60599667 0.25297031 0.054110244
0.61055052 0.25564596 0.051982384
0.58475822 0.25684696 0.062979057
0.58848178 0.2570045 0.061685756
0.59327275 0.25728121 0.059948161
0.59815621 0.25732195 0.05769008
0.60178244 0.25798833 0.056237847
0.60633665 0.25783285 0.05411588
0.61006063 0.2588169 0.052538849
0.61420745 0.25900194 0.050713148
0.58515012 0.26189372 0.063585356
0.58919352 0.26177594 0.06206692
0.59349835 0.26204464 0.060428325
0.59803629 0.26243335 0.058514163
0.60186124 0.26229146 0.056771304
0.60689348 0.26273239 0.054638553
0.60961783 0.26163757 0.053076055
0.61386472 0.26213327 0.051229477
0.5854339 0.26656064 0.064391382
0.5894928 0.26693317 0.063066013
0.59403843 0.26693791 0.061168864
0.5983153 0.26728755 0.059299685
0.60232139 0.26724094 0.057575069
0.60650182 0.26724645 0.055945747
0.58521783 0.27191091 0.065671787
0.58958423 0.27172029 0.064075194
0.59382343 0.27185759 0.062463388
0.5987848 0.27200788 0.060284339
0.60277432 0.27219906 0.058517318
0.60694796 0.27252817 0.056930043
0.62040919 0.27531421 0.050901152
0.62358469 0.27466622 0.049446598
0.62837875 0.27472377 0.047699612
0.63359821 0.27492079 0.046006247
0.58620429 0.27574846 0.066122048
0.58990526 0.27682626 0.064962268
0.59478682 0.27698234 0.063151486
0.59932435 0.27672514 0.061219033
0.60296142 0.27717197 0.059680279
0.60804367 0.27744448 0.057576906
0.62150609 0.27709937 0.050881118
0.62445408 0.27859494 0.050045591
0.62934518 0.27856722 0.048159633
0.63375002 0.2786369 0.046708927
0.58730948 0.28397304 0.067015864
0.58985347 0.28168562 0.065889589
0.59469628 0.28183421 0.06410566
0.59960586 0.28178895 0.06208523
0.60327202 0.2821489 0.060479295
0.6083557 0.28230116 0.058255531
0.61156338 0.28312173 0.057070177
0.6252057 0.28351256 0.050398782
0.62892097 0.28352332 0.048872933
0.6335234 0.28427577 0.047234993
0.58702296 0.28666627 0.06727495
0.59047198 0.28673518 0.066256732
0.59503794 0.28696799 0.06467814
0.59977299 0.28678703 0.062651955
0.60338634 0.28717667 0.061056044
0.60827792 0.28729168 0.058832083
0.61172247 0.28720629 0.057389729
0.62543386 0.28850237 0.05075489
0.62926733 0.28821811 0.049175307
0.63366461 0.28819585 0.047475755
0.58990532 0.29216844 0.066747352
0.59517986 0.29223785 0.064864859
0.59964538 0.29224542 0.06318748
0.60363162 0.29235283 0.061303448
0.60872775 0.29251537 0.059056502
0.61204517 0.29240969 0.057578444
0.62542439 0.29312095 0.050811116
0.62963247 0.29280937 0.049095389
0.6338219 0.29245728 0.047565456
0.59076309 0.29712874 0.066366322
0.59565496 0.29758775 0.064643316
0.5996778 0.29737937 0.063151121
0.6036402 0.29753503 0.061281037
0.60813195 0.2973693 0.059227545
0.61179346 0.29749924 0.057595432
0.61860627 0.29971281 0.054301426
0.61959195 0.29828119 0.05394394
0.62517881 0.29752523 0.050831702
0.62916028 0.29698688 0.049195804
0.63301635 0.29535127 0.047765397
0.59087318 0.30215329 0.066343769
0.59523076 0.30249178 0.064810336
0.59964943 0.30235815 0.063214988
0.60394049 0.3023769 0.061145056
0.6086821 0.30260691 0.059028752
0.61209279 0.302212 0.057463758
0.61723876 0.30225945 0.054844275
0.62030303 0.30448043 0.053540513
0.6253249 0.30232891 0.050639216
0.62746716 0.30235934 0.049688581
0.59081191 0.30750754 0.066469252
0.59487551 0.30732542 0.065012194
0.59972715 0.30729118 0.063274361
0.60418975 0.30741119 0.061164275
0.60803437 0.30747369 0.05934668
0.61262399 0.30759555 0.057346217
0.6172803 0.30695668 0.054874867
0.61990476 0.30749989 0.053795442
0.62443477 0.30879265 0.051260699
0.62897348 0.30763096 0.049300879
0.63368064 0.30811492 0.047713853
0.59081012 0.31196362 0.066650525
0.59542078 0.31210703 0.065003961
0.60004359 0.31235465 0.063342385
0.60432452 0.31240165 0.061263442
0.6081816 0.31243557 0.059426311
0.61248279 0.31240249 0.05756215
0.61675233 0.31289232 0.055456799
0.62066597 0.31278133 0.053531513
0.62432414 0.31274748 0.051561177
0.6291827 0.31266382 0.049514513
0.63331145 0.31219438 0.048085291
0.59116745 0.31711829 0.066776633
0.59512073 0.31715542 0.065405987
0.59984761 0.31716534 0.063541085
0.60431457 0.31717935 0.061645199
0.60833901 0.31744489 0.059656654
0.61246532 0.31743294 0.057747819
0.61686927 0.31761786 0.05571061
0.62051404 0.31747285 0.054081473
0.62531698 0.31759658 0.051572084
0.62907839 0.31791016 0.049951758
0.63339239 0.31752509 0.048224311
0.59200037 0.32046214 0.066757612
0.59568596 0.32245627 0.065507285
0.60012132 0.32230714 0.063743182
0.60454565 0.32229057 0.061810173
0.60857618 0.32242346 0.059826162
0.61249256 0.32249045 0.05794533
0.61693358 0.32233611 0.055965737
0.6203438 0.32314375 0.054648481
0.62533528 0.32296786 0.051885664
0.62944412 0.32270017 0.050221268
0.63389087 0.32246262 0.048465099
0.59598601 0.32704681 0.065581053
0.60010982 0.32738668 0.063985281
0.60426307 0.3270981 0.062218722
0.60846293 0.32738629 0.060193028
0.6130901 0.32740957 0.058123879
0.61673403 0.32748619 0.05619657
0.62088788 0.32742715 0.054552667
0.62506694 0.32728705 0.052230176
0.62913024 0.32765254 0.050479233
0.63357085 0.3277092 0.048834346
0.59599447 0.33256537 0.065737121
0.60017508 0.33224985 0.064067453
0.60464466 0.33231068 0.062171351
0.60867077 0.33244097 0.060280956
0.61345297 0.33224487 0.058124732
0.61708713 0.33254978 0.056326699
0.62117583 0.33260819 0.054541934
0.6260525 0.33232859 0.051761847
0.62965661 0.33267936 0.050398551
0.63439071 0.33286342 0.048531558
0.59180748 0.33967203 0.067553483
0.59549761 0.33717391 0.066052251
0.60010058 0.33727127 0.06421829
0.604406 0.33729064 0.062465049
0.60830551 0.33741075 0.060413402
0.61340284 0.33747566 0.058220565
0.61758697 0.33666107 0.056036923
0.62175995 0.33643484 0.054295268
0.62561208 0.33794957 0.052161962
0.62921149 0.337589 0.050623979
0.63385004 0.33737937 0.048973102
0.59222311 0.34297162 0.067384854
0.59599191 0.3422316 0.065868549
0.60008132 0.34241456 0.064221665
0.6045621 0.34251785 0.062353395
0.60854369 0.34253666 0.060400806
0.61316985 0.34228647 0.058284659
0.62310559 0.34338117 0.053805996
0.6254496 0.34154034 0.052329604
0.63079345 0.34127894 0.050194435
0.63346386 0.3424378 0.049302228
0.59240806 0.34617883 0.067449041
0.59562987 0.34720385 0.066103257
0.6004197 0.34733677 0.064078204
0.60477769 0.34708682 0.062215753
0.60829723 0.34745497 0.060508173
0.61333293 0.34771752 0.058286641
0.61677068 0.34900436 0.056649353
0.62154788 0.34738469 0.054433756
0.63488871 0.34846911 0.048737906
0.59563172 0.35209388 0.066360377
0.60008937 0.35205653 0.06440071
0.60421866 0.35224223 0.06270653
0.60873157 0.35251981 0.060604755
0.6131283 0.35211352 0.05845077
0.61735272 0.35256878 0.056594081
0.62152827 0.35226449 0.054713622
0.62634104 0.35361296 0.052284181
0.62877232 0.35463873 0.051396489
0.63480145 0.35265672 0.048925295
0.595999 0.35715601 0.066639215
0.60089034 0.35720968 0.064512379
0.60503346 0.35674757 0.062885419
0.60869139 0.35734814 0.060909539
0.61351979 0.35732043 0.058709096
0.61910272 0.35617018 0.055989072
0.62261313 0.35723573 0.054659594
0.62495673 0.35853547 0.053817339
0.62943554 0.35759148 0.05146803
0.63417935 0.3571516 0.049610943
0.63707656 0.35902599 0.048489843
0.59616464 0.36173794 0.066942409
0.60047257 0.36196473 0.065154433
0.60441059 0.36302352 0.063538961
0.60897857 0.36245447 0.061141495
0.61364579 0.36243123 0.059061233
0.61738414 0.3636494 0.057450466
0.62167293 0.36261645 0.055492651
0.62617403 0.36301765 0.053236082
0.62960851 0.3625488 0.0516495
0.63457185 0.36219689 0.049640279
0.63796329 0.36266372 0.04816398
0.59674865 0.36567673 0.067045599
0.60009199 0.36668366 0.065600902
0.60485011 0.36710888 0.063500538
0.60917628 0.36764067 0.061503753
0.6137498 0.36735126 0.059411164
0.6175921 0.36782607 0.057724912
0.621966 0.36698368 0.055858608
0.62656331 0.36839455 0.053439666
0.62942058 0.36727878 0.052195095
0.6341477 0.36713362 0.05019635
0.63812065 0.36724222 0.048282318
0.60082388 0.37189838 0.065515339
0.60557121 0.37203619 0.06354709
0.60917348 0.37242347 0.06184078
0.61393601 0.37245199 0.059668515
0.61729211 0.37251806 0.058069553
0.62172109 0.37251419 0.056143139
0.62671793 0.37205613 0.05350899
0.62957221 0.37232697 0.052284375
0.63420945 0.37265134 0.050350092
0.63778406 0.37270242 0.048718441
0.59814656 0.37897229 0.06709142
0.60089058 0.37788135 0.065797038
0.60524064 0.37713444 0.063947447
0.60917914 0.37728474 0.062035281
0.61388212 0.37718323 0.059721891
0.61712247 0.37747881 0.058169048
0.62229925 0.37782449 0.055904511
0.62682968 0.37969694 0.053347427
0.62917465 0.37769899 0.052469343
0.6342631 0.37767258 0.050480079
0.6370905 0.376643 0.048996359
0.59781533 0.38086158 0.067290045
0.60106307 0.38228005 0.065854482
0.60568219 0.38241434 0.063855164
0.60938394 0.38243711 0.061929647
0.61384892 0.38244838 0.059854694
0.61771232 0.38161421 0.05800245
0.62255692 0.38258305 0.05569113
0.6264922 0.38253069 0.053477883
0.62959599 0.38244891 0.052271098
0.63440704 0.38200596 0.050310299
0.59821576 0.38818425 0.067277119
0.60070479 0.38748425 0.066195779
0.60525781 0.38759279 0.064148769
0.60942531 0.38742185 0.061954591
0.61386222 0.3876439 0.059747182
0.61737019 0.38753957 0.05800188
0.62179083 0.38726327 0.055953335
0.62581718 0.38726389 0.053665493
0.62945735 0.38698846 0.052307896
0.63438994 0.38703641 0.050284963
0.63661432 0.38779312 0.049046155
0.5980947 0.39184913 0.067488447
0.60125321 0.39219546 0.066137172
0.60511386 0.39228246 0.064217448
0.60948956 0.39245293 0.061943486
0.61384153 0.39238179 0.059711423
0.61728585 0.39250839 0.05797074
0.6218006 0.39211515 0.05593387
0.62651974 0.39007267 0.053405948
0.62988037 0.39174804 0.052062429
0.63433975 0.39214864 0.050130669
0.637012 0.3922115 0.04868871
0.60114068 0.39683688 0.066294871
0.60576862 0.39724299 0.063995712
0.60918689 0.39746755 0.06198591
0.61388409 0.39750677 0.05959063
0.61785859 0.39663464 0.057590909
0.62186927 0.39789933 0.055744644
0.63008904 0.39752528 0.051766906
0.63441873 0.39745131 0.050095025
0.63676602 0.3963342 0.048867095
0.60213459 0.40228775 0.065839954
0.6053319 0.40147823 0.06431333
0.60953784 0.40204388 0.06182522
0.61419296 0.40255961 0.059646063
0.61900407 0.40122104 0.057103757
0.62152922 0.40265194 0.055891804
0.62948054 0.40243286 0.052179594
0.63434231 0.40250728 0.050455056
0.6014384 0.40715551 0.066425622
0.60982144 0.4070465 0.061835613
0.61360478 0.40732971 0.060022756
0.61697143 0.40735641 0.058467396
0.62189114 0.40685937 0.055891193
0.62688488 0.40856111 0.053592328
0.6295414 0.40745229 0.052460324
0.63437355 0.40767038 0.050700609
0.63739675 0.40807158 0.049216021
0.60233545 0.41108263 0.066139542
0.60544866 0.4121668 0.064602152
0.60982907 0.41260436 0.062182587
0.61413467 0.41237888 0.059845977
0.61736828 0.41248992 0.058420893
0.6264568 0.41090003 0.053738333
0.62939805 0.41264886 0.052648135
0.63453656 0.41291162 0.050819226
0.63767827 0.41322953 0.048989329
0.60304987 0.41532952 0.065952614
0.60602885 0.41696858 0.064487301
0.61028415 0.41738573 0.062147867
0.61367965 0.4173162 0.060229786
0.6179415 0.41765547 0.058370866
0.62980193 0.4178558 0.052409843
0.63450265 0.41790926 0.050547834
0.63782501 0.41786036 0.048689421
0.60576564 0.42209446 0.064928196
0.61037427 0.4224948 0.062297691
0.61400211 0.4225201 0.060172692
0.6179691 0.42222765 0.058197808
0.62904441 0.42284182 0.052543733
0.6341399 0.42259699 0.050520781
0.63744199 0.42214942 0.048810847
0.60609883 0.42753732 0.065008119
0.61027539 0.42718452 0.062562257
0.61385489 0.42736536 0.060412791
0.6181041 0.42777103 0.058144689
0.62176156 0.42872223 0.056325614
0.62512618 0.42756984 0.054823548
0.62957317 0.42602813 0.052426804
0.63370186 0.42666692 0.050508421
0.60616636 0.43199131 0.065073937
0.61066067 0.43227667 0.062478792
0.61346787 0.43214843 0.060736384
0.61820865 0.43249527 0.05819574
0.62220752 0.43282804 0.056223076
0.62486267 0.43059245 0.055086985
0.63437515 0.43218157 0.050266869
0.60631871 0.43726352 0.065128468
0.61049265 0.43711567 0.06263905
0.61372888 0.43762913 0.060590487
0.61821473 0.43743512 0.058100697
0.62265486 0.43757164 0.05608248
0.62551552 0.43842357 0.05477035
0.63122278 0.43827015 0.051377356
0.63437349 0.43716717 0.049876627
0.63681155 0.43762404 0.048053872
0.60654753 0.44198698 0.065076716
0.6105938 0.44219822 0.06253729
0.61392975 0.44236058 0.060366523
0.61852103 0.44214138 0.058023982
0.62182063 0.44242638 0.056209803
0.62486833 0.44297364 0.054707222
0.63013154 0.44223049 0.051808503
0.6333971 0.44206002 0.050117224
0.63713449 0.44249836 0.048001245
0.60407519 0.44863594 0.066816166
0.60650396 0.44695404 0.065168038
0.61057693 0.44706655 0.062570862
0.61392903 0.44753152 0.060638111
0.61852497 0.44754854 0.058008786
0.62222731 0.447234 0.056081541
0.62920731 0.44732785 0.052069709
0.63368267 0.44714761 0.049918637
0.63703644 0.44722697 0.047682658
0.60384989 0.4512822 0.067193344
0.60689098 0.45193037 0.06537994
0.61092371 0.45203775 0.062834933
0.61425281 0.45234439 0.060819454
0.61847848 0.4525533 0.058421466
0.62217301 0.45259023 0.056303397
0.62870318 0.45192364 0.052639421
0.63307387 0.45227563 0.050311539
0.63670182 0.45244074 0.047952224
0.6073364 0.45552975 0.065707743
0.61137795 0.45698404 0.063130312
0.6145004 0.457109 0.061066788
0.61871094 0.45724809 0.058602244
0.62252671 0.45774949 0.056463234
0.62511253 0.45688406 0.055151891
0.63007689 0.45618832 0.052017856
0.63322753 0.45721748 0.050338715
0.63628793 0.45724419 0.047999628
0.61205339 0.46175706 0.063258447
0.61500514 0.46196371 0.061375573
0.61899078 0.4623858 0.058950983
0.62220979 0.46265188 0.056869153
0.62581682 0.46237448 0.054910246
0.6333456 0.46229985 0.05009729
0.63606882 0.46236742 0.047786951
0.61472678 0.46726447 0.062029507
0.61897135 0.46767181 0.059565485
0.62224197 0.4673827 0.057307832
0.62549478 0.46769777 0.055419616
0.63372737 0.46772262 0.050107878
0.63559455 0.46661091 0.048027653
0.61497217 0.47253788 0.062527925
0.61895835 0.47245798 0.060010806
0.62296736 0.47279835 0.057426229
0.62548345 0.47077805 0.055712119
0.62974983 0.47323769 0.053016316
0.63274419 0.47264853 0.050997697
0.63503551 0.47185117 0.048846714
0.61515123 0.47717315 0.062915154
0.61931932 0.47729865 0.060259361
0.62362576 0.47768843 0.057800297
0.63025647 0.47744271 0.053358521
0.63276154 0.47781509 0.05125811
0.63434851 0.47667953 0.04938164
0.61524403 0.48186734 0.062935628
0.61937588 0.48219919 0.060815476
0.62365097 0.48256415 0.058053523
0.6263482 0.48277557 0.056527548
0.63053364 0.48275527 0.053468652
0.63216603 0.48276192 0.051876612
0.63389349 0.48230493 0.049813606
0.61559629 0.48747343 0.062791295
0.6193397 0.48714137 0.06102588
0.62379175 0.48735169 0.058325924
0.62651211 0.48758149 0.05665563
0.63055801 0.48731387 0.053467847
0.63206899 0.48769996 0.051697634
0.63377911 0.48663425 0.049732804
0.61511898 0.49238876 0.063043639
0.61959672 0.49215999 0.060859099
0.62412912 0.49259675 0.05831043
0.62628335 0.49100944 0.057050034
0.6302954 0.4932206 0.053784136
0.63202327 0.49276593 0.051849194
0.63305473 0.49142712 0.050178871
0.61215001 0.4982619 0.064878047
0.61512506 0.49713299 0.063204147
0.62003988 0.49741912 0.06077696
0.62417454 0.49740985 0.058565188
0.62991714 0.49799785 0.054619115
0.63242364 0.49779174 0.051808991
0.61218053 0.50114459 0.064828873
0.61560512 0.50245428 0.063203119
0.61991531 0.50235695 0.060953509
0.62422186 0.50271118 0.058676347
0.62689167 0.50463384 0.057043452
0.62971812 0.50283796 0.054768153
0.63185757 0.50280148 0.052355457
0.61568791 0.50629961 0.062972017
0.61908448 0.50747454 0.061287317
0.6236828 0.50746083 0.058880687
0.62685966 0.50782108 0.057102017
0.6295957 0.50754249 0.055038109
0.63165843 0.50783879 0.052566752
0.6161449 0.51203823 0.062617421
0.61914909 0.51232153 0.061311565
0.62377632 0.51239389 0.058878563
0.62676561 0.51029783 0.05721667
0.62973183 0.51258999 0.054911673
0.6315549 0.5127489 0.052315667
0.61584139 0.51796001 0.062452327
0.61916339 0.51729608 0.061174456
0.62407243 0.51771361 0.058765341
0.62665522 0.51744086 0.057500023
0.62987351 0.51732451 0.054719891
0.63142151 0.51797324 0.052023452
0.61561054 0.52301365 0.062277663
0.61914277 0.52257204 0.060890175
0.62384039 0.5225988 0.058729302
0.62698698 0.52335 0.057174556
0.62973475 0.52217597 0.054595325
0.63163495 0.52236748 0.05168508
0.61544609 0.52761126 0.062173352
0.61905563 0.52791756 0.060583442
0.62340176 0.5274694 0.058767941
0.62635541 0.52708954 0.057388995
0.62987882 0.52707827 0.054246958
0.63187677 0.52740306 0.051368363
0.61525059 0.53257078 0.062008291
0.61878955 0.53257662 0.060416762
0.62356305 0.53255981 0.058430422
0.62660694 0.53306115 0.057004202
0.6295113 0.53179741 0.054500312
0.63128752 0.53160292 0.052281227
0.61502832 0.53752315 0.061847005
0.61852986 0.53761512 0.060270354
0.62327498 0.53760928 0.05835627
0.62681139 0.53753209 0.056439746
0.62999314 0.53684551 0.053490482
0.61468095 0.54259562 0.061520699
0.6185838 0.54257947 0.059846111
0.62330842 0.54265189 0.057976875
0.6277982 0.54237711 0.055313513
0.62972361 0.54268312 0.053327415
0.6305601 0.54097766 0.05239271
0.61516416 0.54721594 0.061061028
0.61817414 0.54760492 0.059804738
0.62288123 0.54755586 0.057727002
0.62687111 0.5472703 0.055871669
0.62924349 0.54695433 0.053255972
0.63064289 0.54716933 0.051244576
0.61496419 0.55087948 0.060861208
0.61769831 0.55237979 0.059469312
0.62269062 0.55232137 0.057776153
0.62605649 0.55139601 0.056227602
0.62882537 0.55194151 0.053328015
0.62991619 0.55141318 0.052166037
0.61510617 0.55661958 0.060300771
0.61777586 0.55752301 0.059120361
0.62256855 0.55738854 0.05770557
0.62865764 0.55661058 0.053681407
0.62940341 0.55766863 0.052517585
0.61789697 0.56228018 0.059197191
0.6225425 0.56253797 0.057565875
0.62520611 0.56353265 0.056259353
0.62816781 0.56225735 0.053757634
0.62896544 0.56175214 0.052558228
0.61842018 0.5675813 0.059514973
0.62227023 0.56708604 0.057889335
0.62599415 0.56648803 0.055308867
0.62762815 0.56648207 0.053873733
0.62877202 0.56503552 0.052409444
0.61585295 0.57398826 0.061158698
0.61827457 0.5723111 0.059927527
0.6228258 0.57207292 0.057592932
0.62572789 0.57184738 0.055568062
0.62679136 0.5712685 0.054558992
0.61533111 0.57710028 0.061420329
0.61849606 0.57758349 0.059887674
0.6220783 0.57731235 0.057818174
0.62525606 0.57672697 0.05567348
0.62670624 0.57677794 0.054242831
0.6187647 0.58247149 0.059154566
0.62224084 0.58306563 0.056892287
0.62467897 0.58211905 0.055516385
0.62604672 0.58102697 0.054202024
0.61855084 0.58725047 0.058631182
0.62185359 0.58762807 0.056523819
0.62435955 0.58642113 0.054836232
0.62537271 0.58651608 0.053646624
0.61471969 0.5936932 0.059665337
0.61792237 0.59213179 0.058253899
0.62154514 0.59240407 0.05576789
0.62382412 0.59052706 0.054294281
0.62489057 0.58973503 0.053443283
0.61367708 0.59764451 0.059695084
0.61782944 0.59734225 0.057532072
0.62129039 0.59759223 0.055195432
