# .PCD v0.7 - Point Cloud Data file format
VERSION 0.7
FIELDS x y z
SIZE 4 4 4
TYPE F F F
COUNT 1 1 1
WIDTH 1395
HEIGHT 1
VIEWPOINT 0 0 0 1 0 0 0
POINTS 1395
DATA ascii
0.17083929 0.13512981 0.059117589
0.1970147 0.13544039 0.061966006
0.1999083 0.13527927 0.062178738
0.61357981 0.1375747 0.059079658
0.61753815 0.13748072 0.058030654
0.6226961 0.13759825 0.056885839
0.14434002 0.1439801 0.057109028
0.14776173 0.1422967 0.057430275
0.15274751 0.14249673 0.058036521
0.15746959 0.14243031 0.058558881
0.16213194 0.14217596 0.059049159
0.16726579 0.14232649 0.05972011
0.1712776 0.14356342 0.060483966
0.61313194 0.14244302 0.059319511
0.61782122 0.14237019 0.058074292
0.62250745 0.14275497 0.057074975
0.62580401 0.14255489 0.055265572
0.14377651 0.14771584 0.057222757
0.14745516 0.14732507 0.057941373
0.152741 0.14753719 0.058558751
0.15725754 0.14760728 0.059078362
0.162552 0.14706476 0.059664775
0.1675368 0.14719319 0.060379334
0.17155068 0.14710331 0.06092371
0.60398871 0.14717008 0.062001478
0.60839558 0.1482117 0.060911212
0.61320674 0.14745539 0.059541967
0.61765558 0.14727248 0.058329433
0.6221661 0.14761464 0.057300355
0.62630022 0.14530298 0.055233143
0.14290565 0.15273835 0.057404421
0.14765877 0.15226577 0.058179282
0.15274504 0.15272099 0.058854669
0.15748359 0.15251379 0.059355248
0.16250943 0.1521223 0.060046006
0.1670918 0.15233259 0.060697991
0.17180233 0.15090296 0.061319642
0.60457641 0.15210764 0.061922166
0.60846001 0.15250356 0.061080586
0.61253083 0.15219137 0.059950858
0.6179713 0.15219685 0.058491141
0.62152296 0.15267287 0.05769258
0.14004321 0.15798721 0.05724863
0.14271529 0.15718651 0.057613663
0.14749256 0.1575681 0.058296982
0.15232278 0.15775912 0.058895204
0.15693592 0.15738179 0.059429437
0.16214624 0.1572108 0.06009936
0.16573656 0.15534757 0.060563393
0.60817325 0.15588699 0.061220687
0.61294794 0.15695934 0.060034491
0.61765724 0.15798579 0.058898278
0.62182897 0.15615769 0.057889912
0.14273061 0.16125953 0.057758585
0.14765084 0.16233204 0.058434986
0.1524639 0.16248085 0.059087891
0.15701972 0.16268852 0.059688084
0.61359221 0.16169381 0.060203571
0.61803955 0.16267574 0.059134897
0.15201376 0.16499247 0.059056267
0.15933438 0.16528825 0.060116157
0.61420864 0.16777772 0.060514256
0.61785054 0.16691399 0.059423435
0.62080038 0.16935095 0.058777437
0.61417651 0.17244193 0.060853459
0.61826867 0.17228712 0.059604611
0.62114686 0.17363028 0.058784224
0.61407799 0.17737842 0.061173856
0.61773664 0.17769973 0.059922148
0.62156427 0.17776008 0.058704924
0.61456114 0.18195596 0.061287086
0.6175552 0.1828375 0.06016764
0.62171745 0.18220207 0.058665965
0.61528641 0.18574041 0.061393894
0.61818498 0.18723427 0.060140565
0.62148643 0.18746316 0.058866341
0.61893493 0.19210671 0.060185377
0.62105691 0.19276844 0.059274524
0.61893922 0.19709969 0.060363904
0.6209622 0.19741476 0.059437603
0.61924577 0.20179966 0.060164012
0.61092126 0.21447636 0.062624052
0.61029035 0.21698226 0.062701985
0.61201435 0.21770193 0.061996002
0.6107648 0.22374201 0.062343877
0.61223692 0.22212605 0.061764844
0.61784691 0.22050259 0.059371322
0.61043239 0.22549443 0.062515624
0.61325121 0.22773516 0.061395232
0.61328602 0.23213759 0.061655935
0.62674874 0.23206311 0.055641025
0.57258463 0.034581132 0.063138604
0.57833993 0.034578923 0.061611239
0.58216703 0.034307376 0.060547318
0.55284858 0.03930176 0.064316608
0.55809987 0.038894963 0.06424918
0.56276107 0.038192324 0.064281739
0.56746197 0.03776329 0.063864447
0.57239467 0.037421037 0.06306389
0.57744354 0.037723452 0.062024537
0.58239442 0.037740201 0.06069497
0.58684355 0.038164455 0.059604589
0.26722956 0.043971609 0.059229963
0.27287251 0.044158667 0.060282651
0.27754757 0.044217203 0.061026108
0.29265422 0.044663012 0.062244888
0.29730469 0.044932421 0.062445518
0.30136091 0.044287801 0.062601909
0.31470218 0.044787712 0.064066984
0.32015562 0.044924907 0.064510211
0.51328802 0.04435068 0.067980304
0.51822954 0.043946166 0.067828931
0.52319807 0.043729287 0.067348428
0.52802277 0.043967247 0.066807702
0.53459048 0.043706015 0.066177078
0.53827363 0.043407101 0.065664001
0.54293352 0.043079142 0.065153502
0.54608023 0.04372577 0.064982988
0.55772889 0.041553181 0.064493924
0.56251425 0.041965276 0.064429998
0.56772649 0.042155579 0.064166375
0.57272792 0.04249201 0.06351506
0.57746935 0.042620812 0.062509269
0.5823797 0.042615917 0.061412469
0.58714461 0.042659998 0.060187615
0.58998662 0.042336088 0.059406891
0.26296714 0.047640625 0.058573011
0.26802331 0.047848314 0.059599672
0.27274683 0.048062079 0.060588967
0.27741942 0.047951423 0.061372425
0.28253129 0.04811411 0.062001258
0.28752193 0.047921374 0.062279571
0.29263541 0.047788259 0.062468868
0.29736474 0.047937188 0.062689453
0.30238536 0.047794197 0.063120969
0.30733579 0.047685083 0.063606404
0.31239939 0.047974478 0.06415543
0.31723347 0.047850598 0.064582206
0.32182202 0.048095964 0.064997248
0.32640398 0.049096059 0.065645114
0.33149657 0.049147137 0.066124663
0.33709589 0.048727956 0.066635132
0.33971089 0.0493428 0.067150898
0.3469359 0.049248256 0.068136796
0.35078222 0.048430562 0.068571888
0.50487906 0.045498293 0.068747185
0.50841963 0.045938782 0.068529509
0.51302534 0.045322102 0.068247154
0.51785529 0.045433104 0.068164155
0.52297103 0.045856774 0.067745961
0.52771014 0.047166791 0.067458957
0.53269404 0.047210068 0.066887029
0.5376581 0.047212135 0.066344865
0.54261559 0.047030758 0.065781161
0.54638666 0.046711124 0.06540183
0.558164 0.048068959 0.065213591
0.5625115 0.047495816 0.065094687
0.56752437 0.047462277 0.064692371
0.57241863 0.047754411 0.064155623
0.5773102 0.047579501 0.063232027
0.58235323 0.047415927 0.061925005
0.5873729 0.047549166 0.060638931
0.59132653 0.048490189 0.059643574
0.25968775 0.053268861 0.05818931
0.26319125 0.053113014 0.058969047
0.26807731 0.052853744 0.060021874
0.27263579 0.052422646 0.060964651
0.27753958 0.052539919 0.061749309
0.28247654 0.052480627 0.062370226
0.28762126 0.052583084 0.062749475
0.29256979 0.052288972 0.063015461
0.29746956 0.052524991 0.063485853
0.30233887 0.052422993 0.063870952
0.30744383 0.052304458 0.064340577
0.31202731 0.051715527 0.064657941
0.31708628 0.051290538 0.065037414
0.32239369 0.051071875 0.065596484
0.3274394 0.051889781 0.066300802
0.3320587 0.052114587 0.066781893
0.33716163 0.052147597 0.067279451
0.34221005 0.052134767 0.067829154
0.3464641 0.051207867 0.068218201
0.52896446 0.050100703 0.067726523
0.53286123 0.05188363 0.067560248
0.5376243 0.052192811 0.067121401
0.54262012 0.052059706 0.066450506
0.54665881 0.051964834 0.06611865
0.5585655 0.051540799 0.065525219
0.56237346 0.052495457 0.065471552
0.56776369 0.052267957 0.064959928
0.57271385 0.052138932 0.064404093
0.57764137 0.05252856 0.063607313
0.58242261 0.052442212 0.062368978
0.58733767 0.052334569 0.060955446
0.59228724 0.052897353 0.059622269
0.5960868 0.053578805 0.058673736
0.25822964 0.058606505 0.058336984
0.2630477 0.057427164 0.059185859
0.26795796 0.057495598 0.060303494
0.27266318 0.057541441 0.061324954
0.27746528 0.057535391 0.062197749
0.28244027 0.05737133 0.06280145
0.28723928 0.057558432 0.06318415
0.29228264 0.05734805 0.063580006
0.29745352 0.057469528 0.064237326
0.30233538 0.057349164 0.06467478
0.30706602 0.056812417 0.065027885
0.31225607 0.056332752 0.065438189
0.32874528 0.055382937 0.067044847
0.3322531 0.057010926 0.067584671
0.33711249 0.056639127 0.067895077
0.34183514 0.054866832 0.068131551
0.53391844 0.056410003 0.068053655
0.53818363 0.057292275 0.067671292
0.54315478 0.057129227 0.066987902
0.54713404 0.056985673 0.066565044
0.55965346 0.055326097 0.065662995
0.56346619 0.055944614 0.065408364
0.56798238 0.056865722 0.065033488
0.5731076 0.057390645 0.064498842
0.57760715 0.057263523 0.063766494
0.58234769 0.057564795 0.062717043
0.58718592 0.057464935 0.061338671
0.59145522 0.05815839 0.060134377
0.59665328 0.057584997 0.058735713
0.60734308 0.057079218 0.056068093
0.24484058 0.065366626 0.05752901
0.248519 0.064179122 0.057724621
0.25277588 0.062601589 0.057905242
0.25767928 0.062682554 0.058764845
0.26318401 0.062248997 0.059835758
0.26760402 0.062491812 0.060876563
0.27242246 0.062587939 0.061960302
0.27764732 0.062494978 0.06288749
0.28262067 0.062458582 0.063511692
0.28718591 0.062506378 0.063844308
0.29245263 0.062373634 0.064382635
0.29711819 0.062066752 0.064875752
0.30224136 0.061146025 0.065320306
0.30590925 0.060743142 0.065564133
0.33229312 0.062082693 0.068160392
0.33553886 0.061500248 0.068281889
0.53398204 0.062469933 0.068832442
0.53770524 0.062463582 0.068297759
0.54287887 0.062109519 0.06756223
0.54785204 0.062063593 0.066978432
0.55113232 0.064621016 0.066925362
0.57419413 0.062219467 0.064368263
0.57811505 0.06265267 0.063733734
0.58221811 0.062704429 0.062890589
0.58723909 0.062694438 0.061630279
0.59198624 0.062666103 0.060279027
0.59699637 0.062458172 0.058931325
0.24035276 0.069446281 0.057782765
0.24272962 0.068053283 0.05780039
0.24753694 0.067967415 0.058270179
0.2525478 0.067508191 0.058750499
0.25748685 0.067647643 0.059450474
0.26282263 0.067751594 0.060422793
0.26755321 0.067561649 0.061441921
0.27246305 0.067563988 0.062561385
0.27731988 0.067559667 0.063411027
0.282206 0.067382872 0.064065054
0.28711784 0.066774882 0.064467095
0.29207551 0.066039965 0.064793311
0.32205006 0.068576567 0.06829866
0.32708728 0.067103833 0.068452977
0.33154541 0.066963658 0.068613455
0.33481103 0.065488942 0.068589583
0.53359628 0.066337079 0.069273718
0.53682619 0.066392124 0.068812236
0.54268211 0.065454751 0.067912154
0.54790384 0.066748366 0.067396834
0.55247891 0.067862049 0.067126922
0.55759513 0.06847389 0.066612035
0.56171679 0.069371074 0.066182569
0.5777328 0.06751667 0.063824944
0.5824061 0.067500055 0.062925696
0.58717501 0.067665644 0.061844219
0.59204757 0.06759581 0.060452428
0.59590715 0.066926405 0.05936154
0.23396221 0.074777342 0.057888128
0.23786078 0.07330133 0.058185935
0.24292035 0.072625764 0.058523878
0.24792995 0.072915345 0.059094183
0.2528013 0.073007308 0.059686337
0.25830013 0.072706141 0.060385015
0.26271832 0.072584361 0.061122712
0.26768291 0.072510742 0.062093873
0.27263007 0.07248044 0.062985808
0.27733946 0.072439216 0.063727736
0.28211704 0.072143309 0.06437315
0.28551158 0.072778776 0.064868301
0.31839472 0.072641574 0.068574563
0.3216379 0.071962781 0.068708725
0.54904956 0.07181114 0.067749679
0.55276716 0.072243087 0.067405485
0.55774933 0.072349757 0.066845857
0.56202 0.072297916 0.066273354
0.56574756 0.073909178 0.065796413
0.57800597 0.072681233 0.064083949
0.58234358 0.072503932 0.063224785
0.58706975 0.072382972 0.062103957
0.59198946 0.072687052 0.06068857
0.59615457 0.072998345 0.059590966
0.22982185 0.078043558 0.057608146
0.23313814 0.078144856 0.058220774
0.23818134 0.077804163 0.058847729
0.24307349 0.077698112 0.05934548
0.24778828 0.078168079 0.059961401
0.25261852 0.078234509 0.060621638
0.25768664 0.077688575 0.061239634
0.26244095 0.077685192 0.062010448
0.26717892 0.077459142 0.062729321
0.27254128 0.077519357 0.06342528
0.2774089 0.077346988 0.064009242
0.28216329 0.077040784 0.064638585
0.28567743 0.078036882 0.06506063
0.31800723 0.076238357 0.068935417
0.54936016 0.077066407 0.068032742
0.5531953 0.07720238 0.067695469
0.55821693 0.076921433 0.06708961
0.56196451 0.076125495 0.06653735
0.57408935 0.077800795 0.064837821
0.57806045 0.077640235 0.064230718
0.58231723 0.077276684 0.063342668
0.5873943 0.077421732 0.062200334
0.59256434 0.077549554 0.060879935
0.59684998 0.077700987 0.059762068
0.60011125 0.079120159 0.059157725
0.22836594 0.082974978 0.057969429
0.23273237 0.08318679 0.058739644
0.23755582 0.082900159 0.059360679
0.24308003 0.082574651 0.060079083
0.2478317 0.082600273 0.060692836
0.25264615 0.082377695 0.061344523
0.25762042 0.082304195 0.061959762
0.26246694 0.08277484 0.062817
0.26761919 0.082348682 0.063378341
0.27236581 0.082412362 0.0638142
0.27743104 0.082548529 0.064244419
0.28212672 0.082365878 0.0647479
0.28584677 0.083291307 0.065049924
0.54917163 0.082865871 0.06837669
0.55267656 0.082435958 0.068018205
0.55681688 0.08043243 0.067476228
0.57325155 0.082687378 0.064966239
0.57783478 0.082543872 0.064252697
0.58200604 0.081901781 0.063512228
0.5872454 0.082744032 0.062509418
0.5921734 0.082498625 0.061346427
0.59708714 0.082357466 0.060135484
0.60116827 0.082958862 0.059362836
0.22468516 0.090182886 0.057954777
0.22806548 0.087854676 0.058454581
0.2330834 0.087794051 0.0592953
0.23772991 0.087651744 0.05990462
0.24286324 0.08781518 0.060675107
0.24741653 0.087570667 0.061251555
0.25252864 0.087489747 0.061951064
0.25752902 0.087469131 0.062671557
0.26230261 0.087549716 0.063216135
0.26726431 0.087293729 0.063699089
0.272257 0.087442622 0.064042717
0.27739179 0.087798588 0.064401925
0.28128219 0.087234959 0.064684644
0.28752214 0.089174569 0.065199584
0.29022369 0.08968287 0.065526485
0.55364007 0.087029234 0.068129137
0.55561048 0.089266092 0.067984268
0.57360882 0.087473378 0.064976618
0.57771659 0.087389842 0.064338662
0.58219349 0.087560125 0.063597955
0.58792382 0.087552957 0.062520206
0.59231657 0.087521151 0.061661184
0.59707636 0.087492526 0.060685545
0.60096872 0.087296031 0.059854724
0.22396196 0.093604982 0.058319431
0.22812608 0.092957295 0.05906269
0.23301768 0.092513047 0.059785627
0.23794436 0.093075693 0.060621027
0.24290192 0.092557669 0.061266523
0.24756394 0.092747405 0.061877474
0.25259298 0.092577063 0.062420208
0.25741202 0.092379168 0.063031606
0.26246461 0.092466466 0.063596524
0.26756653 0.092519239 0.064042896
0.2725327 0.092207417 0.064323418
0.27724421 0.092479996 0.064548433
0.28178602 0.091751404 0.064773537
0.28730997 0.092762038 0.065264836
0.29231751 0.092092805 0.065876432
0.29489145 0.092453055 0.066411875
0.55431277 0.091434352 0.068176143
0.55806994 0.093364291 0.067755923
0.56297106 0.093956381 0.067008317
0.56850779 0.093448497 0.066111378
0.57344812 0.092070177 0.065226264
0.57806754 0.092382543 0.064528517
0.58257306 0.092701808 0.063787885
0.58778864 0.092740148 0.062851623
0.59221864 0.092414886 0.062062338
0.59673095 0.092707396 0.061247285
0.60138196 0.092691533 0.060170054
0.22353067 0.098731317 0.059024911
0.2281073 0.098318443 0.059737746
0.23302914 0.098096862 0.060486101
0.23769286 0.097528629 0.061124731
0.24266247 0.097439088 0.06173756
0.24755494 0.097563826 0.062309012
0.25241676 0.097534895 0.062793814
0.25754344 0.097573683 0.063441627
0.26253241 0.097448848 0.064055584
0.26733977 0.097739168 0.064516567
0.27230525 0.097163625 0.06470871
0.27675456 0.097005658 0.064851724
0.28233561 0.096994691 0.065174736
0.28703952 0.097562768 0.065583959
0.29224426 0.097200327 0.066254318
0.29496312 0.097882994 0.066669405
0.55419129 0.098526753 0.068475544
0.55784357 0.097060755 0.067956731
0.56268847 0.097291596 0.067245066
0.56782794 0.097362764 0.06646914
0.5732004 0.096961804 0.065654807
0.57788777 0.09748175 0.064963013
0.58251601 0.097555839 0.06418661
0.58754796 0.097787984 0.063228719
0.59250069 0.097251199 0.062299978
0.59735078 0.097703964 0.061362654
0.60196561 0.097625747 0.060356338
0.60554385 0.099208869 0.059551705
0.21872473 0.10327377 0.058898337
0.22289021 0.10278761 0.059598677
0.22768876 0.10271969 0.060338851
0.23257151 0.1026702 0.061037403
0.23751636 0.10244057 0.061642203
0.24243887 0.10240629 0.06219504
0.2477085 0.10254773 0.06286972
0.25249392 0.10252949 0.063339002
0.25727576 0.1027313 0.063940123
0.26238763 0.10265674 0.064487197
0.26708424 0.10222159 0.064932086
0.27200282 0.10185066 0.065176368
0.27727476 0.10205657 0.06541685
0.28236538 0.10241483 0.065867811
0.28748521 0.10202769 0.066161796
0.2920104 0.10230907 0.066790305
0.29654536 0.10312781 0.067304321
0.30140856 0.10371429 0.068100788
0.55443835 0.10261501 0.068582296
0.55775201 0.10213864 0.068221755
0.56275135 0.10232401 0.06753023
0.56773478 0.10235148 0.066848882
0.57288313 0.10222441 0.066002831
0.57793134 0.10212888 0.065176606
0.58281392 0.10212478 0.064437538
0.58763188 0.10234743 0.063552171
0.59233212 0.10256347 0.062622085
0.59740829 0.10246571 0.061569214
0.60210592 0.10261208 0.060594309
0.60699672 0.10311287 0.059387546
0.21392673 0.10872991 0.058810335
0.21832646 0.10811982 0.059555933
0.22270156 0.10767408 0.060317684
0.22750333 0.10778614 0.061110206
0.23242441 0.10740429 0.061683543
0.23752441 0.10755968 0.062348016
0.24263275 0.10762531 0.062831543
0.2475092 0.10757394 0.063372292
0.25250676 0.10729276 0.063987993
0.25742424 0.10724718 0.064571999
0.2621069 0.10702723 0.065001726
0.26682004 0.10710876 0.06542968
0.27148196 0.10658461 0.065675512
0.27756616 0.10646706 0.066030711
0.28198504 0.1076479 0.066593893
0.28722975 0.10686995 0.066973135
0.29232246 0.10646008 0.067485191
0.29676706 0.10595065 0.067802668
0.3019816 0.10473458 0.068299733
0.55896449 0.10623733 0.068231374
0.56357282 0.1069876 0.067741908
0.56829327 0.10727092 0.067141943
0.57272625 0.107316 0.066465594
0.57642961 0.10554162 0.065780491
0.58244747 0.10526226 0.064772457
0.58808142 0.10674337 0.063839637
0.5923456 0.10772689 0.062998317
0.59716082 0.10765585 0.06189869
0.60205054 0.10770877 0.060801458
0.60731715 0.10738746 0.059624102
0.21314076 0.1128427 0.059344474
0.21811761 0.11276952 0.06029968
0.22280486 0.11262546 0.061176531
0.22743553 0.11236934 0.061866149
0.23243527 0.11251619 0.06247063
0.2373323 0.11245217 0.062949806
0.24242827 0.11246582 0.063419871
0.24742578 0.11212187 0.063920639
0.25247642 0.11257859 0.064716414
0.25733653 0.11204469 0.065222964
0.26188502 0.11173235 0.065650411
0.26671228 0.11141954 0.066088997
0.28268561 0.11133923 0.067461163
0.28592461 0.1107548 0.067642689
0.56805718 0.11229298 0.067649081
0.57139879 0.11131805 0.067111365
0.58868778 0.11284017 0.064346768
0.59246224 0.11245229 0.063566208
0.59751302 0.11244331 0.062155858
0.60194385 0.1126257 0.061096065
0.60687971 0.11216992 0.059969235
0.20210607 0.11982447 0.059064988
0.20806427 0.11923099 0.059732497
0.21255925 0.11790697 0.060185526
0.21767715 0.11754281 0.061022297
0.22253326 0.11749841 0.061934076
0.22756815 0.11734816 0.062626176
0.23240706 0.1174621 0.063217543
0.23747386 0.11728476 0.063654989
0.2422516 0.11727492 0.064100139
0.24697009 0.11700667 0.064618714
0.25162762 0.11711448 0.065266609
0.25713351 0.11665915 0.065893941
0.2619521 0.11713634 0.066534474
0.26470101 0.11501837 0.066453896
0.28212661 0.11472125 0.068114616
0.5643754 0.11816069 0.068514034
0.56614113 0.11782145 0.068324216
0.58751512 0.11744761 0.064979531
0.5923869 0.11747061 0.063980773
0.59750086 0.11749972 0.062664479
0.60230899 0.11743387 0.061410766
0.60616702 0.1174469 0.060430903
0.19010143 0.12512723 0.059155863
0.19285481 0.12268955 0.0588114
0.19799635 0.12298732 0.059214629
0.20274168 0.1227292 0.059761085
0.20757362 0.12285756 0.060377464
0.21252461 0.12278757 0.061188996
0.21767958 0.12251668 0.061974857
0.22236979 0.12236279 0.062666565
0.22746617 0.12250795 0.063369796
0.2324145 0.12221759 0.063891523
0.23723172 0.12211218 0.064383902
0.24215057 0.12134281 0.064840801
0.24696051 0.12213887 0.065525934
0.25211152 0.12199338 0.066077225
0.25712204 0.12226845 0.066748224
0.26232743 0.12199599 0.0672272
0.26583058 0.12345537 0.067779042
0.2715722 0.12358127 0.068452403
0.56513876 0.12278896 0.06870003
0.56757814 0.12356572 0.068398312
0.58513868 0.12337835 0.065766029
0.58788455 0.12270918 0.06523592
0.59299767 0.1220359 0.064096041
0.59744042 0.12256264 0.062957674
0.60249066 0.12258204 0.061625145
0.60688734 0.12288125 0.060537886
0.18281098 0.12934905 0.059548348
0.18774094 0.12837851 0.059744444
0.19306667 0.12797734 0.060022056
0.19776627 0.12773943 0.060333584
0.20262542 0.12775111 0.06080645
0.20750037 0.12775032 0.0615368
0.21258794 0.12781826 0.06220695
0.21755388 0.12767562 0.062887974
0.22261289 0.12746488 0.06357149
0.22746028 0.12724113 0.064087369
0.23221231 0.12670512 0.064554363
0.23693204 0.12733102 0.065252714
0.24211439 0.12622356 0.06566263
0.2470526 0.1276118 0.066447832
0.25215682 0.12628753 0.066729158
0.25786597 0.1260462 0.067348354
0.26184642 0.12592717 0.067717753
0.266716 0.12586243 0.068153813
0.56819671 0.12720545 0.068393208
0.57110167 0.12726605 0.068017885
0.58451086 0.12640987 0.065932468
0.58755225 0.12727758 0.065407008
0.59305155 0.12719853 0.06426058
0.59791559 0.12740929 0.062951088
0.60213554 0.12746592 0.061856072
0.60703647 0.12780507 0.06068391
0.61020619 0.12793356 0.059920784
0.17386015 0.13375239 0.05927955
0.17766082 0.13298939 0.059640292
0.18266577 0.13282652 0.060239524
0.18775423 0.13295963 0.060710527
0.19269574 0.1328329 0.061085947
0.19756612 0.13258325 0.061421707
0.20266274 0.13272683 0.061956469
0.20758183 0.13280666 0.062524162
0.212478 0.13274933 0.063008979
0.21722171 0.13254289 0.063634545
0.22220372 0.13215213 0.064211585
0.22680768 0.13166341 0.064700872
0.23213103 0.13235988 0.065489344
0.23578961 0.13163897 0.065769702
0.24395603 0.13257542 0.0668028
0.2477483 0.13204832 0.067147188
0.25119078 0.13080929 0.067270264
0.56841969 0.13230038 0.068368025
0.5731498 0.132452 0.067756057
0.58847696 0.13246733 0.065180212
0.59262478 0.13244401 0.064251989
0.59751385 0.1326416 0.063175924
0.60238957 0.13241594 0.061881203
0.60737836 0.13270886 0.060687479
0.61139131 0.13268259 0.059692949
0.16252576 0.13980722 0.058785882
0.16871624 0.13884637 0.059415806
0.17263448 0.1373819 0.059699398
0.17756969 0.13769357 0.060354237
0.18261695 0.13789205 0.061065465
0.18759622 0.13773185 0.061558306
0.19254103 0.13770984 0.062018055
0.19766583 0.13750203 0.062418241
0.20262678 0.13770971 0.062883079
0.20732448 0.13742171 0.063305803
0.21222925 0.13724837 0.063830055
0.21712339 0.13696301 0.064410135
0.22193518 0.13708061 0.065128818
0.22753468 0.13676688 0.065731332
0.232162 0.13758679 0.066262789
0.23720697 0.13650186 0.066576138
0.2420153 0.13699232 0.06720259
0.24573971 0.13531531 0.067385219
0.56934339 0.1374829 0.068229549
0.5730713 0.13747959 0.067691006
0.57791549 0.13771565 0.067063078
0.58298367 0.13795334 0.066220745
0.587116 0.13989042 0.065402932
0.59240282 0.13748991 0.064297631
0.59794462 0.13763289 0.063190669
0.60211009 0.13768966 0.062090721
0.60714972 0.13758582 0.060876016
0.61090672 0.13706999 0.059894506
0.15967213 0.14335729 0.058916591
0.16294426 0.14298292 0.059280936
0.16738646 0.14272705 0.059807003
0.17251255 0.14243895 0.060463127
0.17769316 0.14244987 0.061144486
0.18247338 0.14277673 0.06178106
0.18743289 0.14270411 0.062358465
0.19230056 0.14237228 0.062748678
0.19751981 0.14257425 0.063215576
0.20250562 0.14255652 0.063637488
0.20764464 0.14256647 0.064160272
0.21217422 0.14197241 0.064603679
0.21686275 0.14214118 0.065300614
0.22242734 0.14189704 0.066077083
0.22710609 0.14224087 0.066581011
0.23199569 0.14121139 0.066778712
0.23598598 0.14006481 0.067001455
0.56975836 0.14079261 0.068251751
0.57280594 0.14259735 0.067821428
0.57804447 0.14243123 0.067136198
0.58316821 0.14213747 0.066263482
0.58793092 0.14269772 0.06530036
0.59257221 0.14289728 0.064379998
0.59735769 0.14250843 0.063319772
0.60246766 0.14268306 0.062150814
0.60736382 0.14237294 0.060953323
0.61096364 0.14277221 0.059994031
0.15864089 0.14743204 0.059207886
0.16278458 0.14774147 0.059791185
0.16767329 0.14738567 0.06041247
0.17286924 0.14773856 0.06118105
0.17745689 0.14726128 0.061742742
0.18271121 0.14762381 0.062395737
0.18754938 0.14747922 0.063003764
0.19239762 0.14748444 0.06350743
0.19740851 0.14787234 0.063907325
0.20193517 0.14692415 0.064185157
0.20700841 0.14720789 0.064778268
0.21252827 0.14695524 0.065462567
0.21631353 0.14740629 0.066063464
0.22124073 0.14493658 0.06637007
0.2278446 0.14611468 0.067244671
0.23009098 0.14555679 0.06732437
0.57325304 0.14773272 0.068033427
0.5782491 0.14750458 0.06726215
0.58330739 0.14712466 0.066400982
0.58852994 0.14739588 0.065313146
0.59281689 0.14713676 0.064383395
0.5976249 0.14746231 0.063321307
0.60226935 0.14739674 0.06233364
0.607095 0.14724694 0.061183348
0.61194438 0.14779851 0.059888452
0.61503434 0.14967935 0.05915102
0.1586875 0.15270849 0.059531495
0.16295473 0.15239051 0.060125634
0.16776426 0.15255512 0.060798593
0.17260501 0.15273966 0.06148316
0.17738873 0.1522491 0.062152643
0.18266743 0.1524788 0.062890701
0.1876352 0.15233918 0.063566044
0.19264235 0.15252188 0.064098321
0.19731045 0.15272941 0.064516403
0.20277061 0.15201381 0.064959079
0.20737012 0.15177873 0.065416738
0.21214588 0.15251352 0.066166922
0.21716195 0.15166245 0.066784836
0.22024906 0.15127781 0.067152083
0.22665809 0.14967786 0.067642085
0.57468891 0.15011288 0.06796062
0.57797074 0.15250419 0.06759043
0.5825007 0.15228198 0.066706911
0.58773047 0.15220657 0.06562645
0.59385866 0.15190449 0.064273261
0.59778768 0.15296653 0.063462161
0.60248196 0.15242983 0.062397268
0.6072191 0.1527586 0.061278407
0.6123684 0.15236787 0.059967037
0.6165992 0.1534276 0.058845505
0.15898342 0.15807511 0.059704643
0.16235428 0.15766697 0.060124211
0.16764723 0.15781857 0.060876478
0.17263725 0.15745239 0.061565127
0.17772146 0.15734154 0.062330902
0.18253839 0.15750425 0.063110255
0.18750249 0.15728903 0.063943483
0.1924805 0.15770748 0.064539589
0.19657606 0.15727071 0.064869367
0.20733574 0.15594824 0.066005148
0.21201642 0.15618028 0.066652603
0.21527934 0.154954 0.066982582
0.57952654 0.15663637 0.067572199
0.58332664 0.15743451 0.066866986
0.58788276 0.15753448 0.06588462
0.59450698 0.15736683 0.064265043
0.59797776 0.15754235 0.063561052
0.60253501 0.15758367 0.062596716
0.60724825 0.15784009 0.06154925
0.61206251 0.1577237 0.060330961
0.61707944 0.15752915 0.058964182
0.62129188 0.15815397 0.058091503
0.15907212 0.16175339 0.059906859
0.1624755 0.16272265 0.060404766
0.16772746 0.16259845 0.061105162
0.17261304 0.16245174 0.061807089
0.17759101 0.16229558 0.062568538
0.18254313 0.16245723 0.063552827
0.18753225 0.16243388 0.064349145
0.19203654 0.16264002 0.064843185
0.19527054 0.16139182 0.065039724
0.20841146 0.1633516 0.066952176
0.21187747 0.16417387 0.06751316
0.58276987 0.16216232 0.067340352
0.58777887 0.16213678 0.066192597
0.59266162 0.16288647 0.065155961
0.59790176 0.1625631 0.063916467
0.60230076 0.16260061 0.062960893
0.60747558 0.16253431 0.061837886
0.61215621 0.16263716 0.060730189
0.61713147 0.16274415 0.059352312
0.62122422 0.16230746 0.058407445
0.15958412 0.16543849 0.060158152
0.16184939 0.16604824 0.060497064
0.16713355 0.16576213 0.06119173
0.1725357 0.16653924 0.062059533
0.17765459 0.16717219 0.062947214
0.1823298 0.16757669 0.06400498
0.1872811 0.16732803 0.064642854
0.19130816 0.16683215 0.064968474
0.20807745 0.16702992 0.06714604
0.21153863 0.16726212 0.067681812
0.58449775 0.16660346 0.067276828
0.58820403 0.16730861 0.066443354
0.59368265 0.16735838 0.06520424
0.597601 0.16726677 0.064254709
0.60231525 0.16753592 0.063233651
0.60739917 0.16765483 0.062207971
0.61230958 0.1676257 0.061088696
0.61731082 0.16749309 0.059577562
0.62105024 0.16751491 0.058647901
0.18347086 0.17044899 0.064445645
0.1878138 0.17108086 0.064981386
0.19105728 0.17159432 0.065244704
0.20825677 0.17214884 0.067519031
0.21124204 0.17268874 0.067939036
0.58410454 0.1739116 0.067667596
0.58793002 0.17109439 0.066774398
0.59325939 0.17112142 0.065491557
0.59766501 0.17236531 0.064510956
0.60275704 0.17211898 0.063487366
0.60742629 0.17244318 0.062597081
0.61222029 0.17274299 0.061480146
0.61686665 0.17251989 0.060042083
0.62044346 0.17100388 0.058939241
0.20850402 0.1756589 0.067727715
0.21363921 0.17476511 0.068372332
0.58296067 0.17765442 0.06812872
0.58777118 0.17776275 0.06716416
0.59765518 0.17726265 0.06489908
0.60270739 0.17705807 0.063906968
0.60770047 0.17720793 0.062887408
0.61209041 0.1773555 0.06185567
0.61738187 0.17759162 0.060037442
0.58363813 0.18226141 0.068252355
0.58814073 0.18225724 0.067409009
0.59217232 0.18274127 0.066692546
0.59927613 0.18237458 0.065127134
0.60261691 0.18214202 0.064457372
0.60799611 0.18269193 0.063340001
0.61224258 0.18255274 0.062172007
0.61744648 0.18254149 0.060198497
0.61980206 0.18199795 0.059236191
0.58408922 0.18568972 0.068351693
0.58807415 0.18677095 0.067702942
0.5920108 0.18713237 0.067115813
0.6025995 0.18764052 0.065065354
0.60837591 0.18765904 0.063850835
0.61222869 0.18741733 0.062757432
0.61684597 0.18777712 0.060878359
0.60347426 0.19213258 0.065344401
0.60759681 0.19229327 0.064381659
0.61269736 0.19240421 0.062826663
0.61691266 0.19269447 0.06119423
0.6037758 0.19513254 0.065489702
0.60789353 0.1970565 0.064470299
0.61275059 0.19779274 0.06287156
0.61729604 0.19740987 0.061135549
0.62011248 0.19841883 0.059932776
0.60905719 0.20202601 0.064020827
0.61225832 0.20251441 0.062934041
0.61625385 0.20233464 0.061348218
0.59320801 0.20717825 0.067824125
0.59815741 0.20953101 0.066790342
0.60919809 0.20741588 0.063628681
0.61206424 0.20761056 0.062598623
0.61596465 0.20809659 0.061029274
0.59516394 0.2102316 0.067460142
0.59828138 0.21259855 0.066654071
0.60348028 0.21296689 0.065240726
0.60767275 0.21300243 0.063835405
0.61198765 0.21225122 0.062306128
0.61554986 0.2125233 0.060846474
0.59870183 0.21772507 0.066425122
0.6031549 0.2173824 0.065145858
0.60780317 0.21729948 0.063590601
0.61240476 0.21742973 0.061818548
0.61587912 0.21741119 0.060345579
0.59794039 0.22225313 0.066594817
0.60315573 0.22254182 0.06508588
0.60802138 0.22273225 0.063370988
0.61232233 0.22247636 0.061716437
0.61593354 0.22241269 0.060195636
0.59548223 0.22723004 0.067353807
0.59821117 0.22732462 0.066630132
0.60328466 0.2271942 0.065147117
0.60764867 0.22787733 0.063642755
0.61216962 0.2274486 0.061836693
0.61589175 0.22705753 0.060306013
0.59847379 0.23233457 0.066840842
0.60444784 0.230719 0.064886443
0.60858172 0.23245049 0.063490711
0.61212152 0.23229428 0.062073197
0.59819269 0.23735806 0.067240097
0.60260242 0.23782656 0.065878369
0.60871071 0.23761003 0.063737459
0.61144614 0.2371393 0.062552266
0.59915864 0.24204697 0.067085505
0.60339981 0.24226446 0.06581673
0.60831082 0.24285117 0.064120069
0.61116505 0.24192832 0.062953301
0.59947747 0.24787652 0.0671454
0.60329622 0.24718344 0.065913528
0.60732752 0.24647515 0.064599656
0.61097473 0.2453776 0.063223742
0.59968585 0.25230661 0.067280076
0.60297668 0.25227675 0.066197664
0.6070931 0.25257149 0.064866588
0.60038817 0.25723696 0.067337826
0.60297287 0.25719458 0.066314258
0.60788316 0.25755674 0.064673491
0.6109485 0.25945127 0.063521259
0.60417026 0.26181918 0.066243947
0.60830551 0.26254264 0.064642891
0.61259162 0.26233801 0.063034594
0.60517877 0.26831946 0.06651181
0.60767365 0.26743537 0.065422654
0.61235285 0.26697391 0.063254878
0.60809797 0.27240512 0.065646954
0.61192518 0.27085686 0.063909672
0.60747647 0.27600864 0.066141307
0.54469526 0.039365623 0.064441599
0.5463801 0.039776217 0.064500816
0.55333394 0.040024493 0.064369522
0.30269778 0.044794381 0.062815152
0.49577856 0.044643074 0.069318853
0.50197107 0.044571638 0.068782583
0.50724268 0.044362862 0.068191752
0.51260877 0.044103026 0.067926913
0.51714748 0.043667484 0.067781754
0.52220845 0.043433443 0.067351095
0.52736396 0.043583352 0.06678538
0.53231627 0.043297976 0.066239335
0.53755665 0.043049671 0.065606728
0.54242283 0.042680439 0.065101475
0.54734021 0.042616427 0.064725153
0.5521183 0.042689916 0.064640567
0.55724782 0.043612443 0.064672649
0.56290048 0.043734007 0.064570144
0.56745774 0.043174691 0.064312935
0.57084733 0.043258157 0.063932873
0.30272192 0.04781967 0.063109852
0.30772546 0.047928691 0.063636295
0.31331977 0.048411768 0.0642782
0.31852618 0.048689634 0.064764082
0.32309276 0.048530418 0.065193214
0.32745534 0.048315808 0.065608196
0.33254692 0.048457205 0.066100806
0.3377451 0.048626367 0.066747837
0.34238473 0.048348613 0.067332685
0.34731025 0.048311803 0.068090096
0.35279703 0.048234936 0.068743393
0.35763967 0.04842015 0.069195576
0.36221972 0.048162717 0.069360994
0.36715746 0.048187491 0.069636099
0.37212804 0.047833316 0.069773443
0.37758404 0.047577541 0.069916457
0.3830283 0.048498265 0.070390038
0.38727731 0.048642643 0.07064461
0.39178771 0.049326699 0.071198463
0.41330904 0.049666181 0.072392464
0.44384348 0.049172208 0.071729369
0.44736943 0.048802387 0.071538754
0.45220453 0.048677869 0.071664721
0.45728669 0.048651736 0.071766384
0.46235219 0.048272952 0.071862064
0.46743613 0.048269596 0.072118215
0.47211322 0.048406925 0.072530903
0.47736946 0.049051851 0.072723031
0.48409781 0.049186762 0.07216572
0.48759589 0.048548635 0.071513698
0.49240324 0.047238156 0.070434734
0.49770451 0.047232483 0.069709778
0.50253147 0.047648706 0.069259062
0.50746232 0.047710091 0.068852752
0.51261032 0.047408693 0.068564951
0.51781803 0.047452174 0.068446636
0.52245057 0.047710534 0.068143904
0.52725095 0.047712483 0.067556426
0.53226417 0.047922969 0.067011319
0.53711218 0.047763865 0.066394061
0.54233301 0.048035286 0.065882683
0.5473116 0.04788607 0.065426521
0.55240041 0.047856942 0.065252297
0.55709076 0.047479287 0.065139338
0.56239724 0.047556654 0.065088406
0.56716019 0.047050066 0.06466084
0.57065576 0.046735637 0.064328313
0.29312047 0.053438552 0.063169792
0.29809052 0.052631442 0.063535713
0.30277237 0.052946921 0.063978679
0.30802846 0.052943826 0.064489029
0.31281069 0.053225987 0.065012716
0.31758803 0.053005353 0.065370418
0.32260859 0.052875005 0.065911688
0.32742542 0.052562956 0.066379987
0.33242351 0.052494578 0.066847995
0.33744362 0.052408747 0.067330807
0.3426019 0.052575022 0.067896739
0.34756222 0.052858885 0.068461448
0.35207042 0.052232031 0.068956748
0.35722613 0.052405681 0.069242761
0.36234635 0.052228674 0.06961254
0.36727008 0.051788438 0.069966003
0.37251484 0.05260371 0.070288233
0.37737209 0.052597828 0.070548452
0.38227144 0.051989056 0.070889726
0.38734233 0.05216879 0.071412876
0.39224973 0.052237913 0.071908377
0.39573258 0.052575231 0.0721462
0.40789321 0.05251044 0.072584748
0.41271415 0.05245417 0.072659627
0.41769573 0.052438352 0.072672613
0.42305791 0.052547399 0.072570585
0.42774883 0.052402303 0.072495595
0.43253598 0.052158605 0.072411202
0.43762729 0.052331503 0.072300665
0.44249254 0.05208078 0.072065227
0.44728461 0.051922768 0.071941391
0.45246014 0.05180205 0.072100498
0.45722368 0.052184876 0.072360456
0.46178797 0.051598094 0.072459176
0.46716809 0.050712105 0.072683416
0.47286573 0.050800458 0.073070236
0.47789711 0.052290667 0.073211916
0.48304898 0.052020796 0.072717316
0.48837012 0.052024044 0.071967967
0.49311852 0.052077185 0.071129598
0.4981209 0.05238444 0.070361607
0.50326389 0.052184612 0.069746733
0.50792056 0.05235105 0.069496438
0.51275748 0.052514147 0.069347404
0.51787108 0.05214972 0.069166712
0.52256817 0.052224807 0.068770215
0.52748644 0.052326433 0.068281062
0.53276497 0.052617792 0.067633614
0.53749961 0.052705351 0.067126244
0.54227823 0.052696038 0.066525593
0.54721731 0.052821416 0.066066764
0.55216646 0.052745812 0.065669112
0.55685705 0.052773438 0.065589927
0.56239051 0.052706838 0.065449536
0.5674271 0.05241717 0.065001614
0.57108307 0.054089963 0.064679109
0.28895068 0.058309164 0.063430734
0.29255384 0.057768077 0.06365788
0.29746243 0.057567742 0.064244382
0.30317876 0.058031265 0.064818576
0.30778846 0.057893164 0.065268286
0.31267324 0.05788878 0.065754347
0.31764674 0.05751773 0.066198036
0.32264027 0.05770776 0.066799171
0.32755783 0.057622835 0.067272782
0.33239225 0.057469051 0.067632541
0.3375878 0.057636607 0.068029724
0.34253389 0.057544898 0.068446368
0.34743902 0.057588849 0.068871029
0.35217133 0.057491716 0.069148168
0.35744444 0.056550086 0.06945879
0.36244071 0.057658825 0.069845356
0.36762688 0.0573113 0.070271283
0.37241694 0.057333451 0.070602186
0.37691784 0.055919323 0.070803024
0.38242733 0.057150383 0.071570501
0.38739455 0.056806821 0.07216657
0.39212427 0.05728747 0.072668009
0.40900862 0.056026299 0.073001564
0.41154492 0.057226665 0.073136732
0.41679245 0.055541798 0.072915241
0.42045116 0.054783147 0.072779067
0.42803326 0.056690179 0.07271637
0.43257791 0.057292733 0.072706915
0.43743679 0.057449892 0.072622597
0.44254109 0.057150144 0.07247103
0.44745129 0.057237938 0.072464347
0.45238522 0.057315193 0.072682053
0.45702752 0.057066679 0.072928466
0.46057719 0.055616688 0.072910503
0.47934529 0.05786895 0.073714957
0.4807494 0.055698562 0.073387384
0.49403194 0.05592639 0.071413875
0.49807373 0.057264641 0.070909992
0.50315976 0.057163227 0.070305526
0.50812733 0.057037637 0.070022263
0.51284772 0.057493396 0.069903336
0.51786625 0.057241194 0.06975738
0.52267987 0.057228677 0.069489583
0.5275299 0.057485186 0.069013797
0.53251886 0.057164747 0.068284482
0.53734863 0.057376906 0.067742944
0.54249829 0.057564352 0.067070454
0.54731929 0.057788085 0.066547975
0.55223697 0.057559043 0.066162385
0.55713338 0.057723787 0.065971829
0.56205839 0.058128014 0.065581046
0.56712687 0.058019724 0.065136537
0.57200474 0.057519805 0.064596869
0.57588905 0.059367895 0.064171918
0.28891507 0.062777966 0.064034335
0.29260111 0.062682323 0.064426832
0.29796553 0.062775679 0.065050997
0.30276987 0.062736943 0.065553591
0.30753946 0.062687278 0.065987095
0.31257877 0.062621824 0.066462494
0.31761265 0.062435668 0.066967569
0.32255694 0.062572204 0.067507423
0.32757846 0.062553123 0.067930959
0.33240554 0.062488351 0.068196729
0.33759475 0.0621861 0.068408147
0.3425979 0.061966147 0.068756156
0.34743884 0.062392034 0.069106497
0.35214838 0.062322441 0.069507182
0.35721919 0.061910264 0.069803908
0.36238956 0.062658474 0.070301801
0.36747807 0.062266838 0.070691392
0.37197003 0.061641175 0.07105884
0.38783807 0.060186449 0.072567917
0.39308009 0.059838228 0.072995529
0.41385356 0.059928492 0.073314629
0.42909026 0.060411889 0.072891124
0.43340349 0.062058728 0.072963744
0.43720934 0.062233146 0.072922476
0.44236669 0.062263634 0.072893694
0.44763112 0.062135782 0.072969705
0.45234066 0.062070288 0.073114313
0.45683017 0.062539548 0.073434696
0.48151636 0.062681697 0.073876828
0.49788031 0.062158734 0.071402207
0.5024761 0.062500462 0.070916735
0.50957835 0.059803665 0.070293345
0.51307613 0.062079396 0.070448764
0.5175063 0.061681528 0.070272766
0.52155852 0.061378133 0.070071563
0.52793443 0.062494937 0.06953612
0.53239417 0.06215186 0.068951152
0.53789401 0.062679335 0.068254478
0.54238659 0.062598474 0.067631133
0.54732716 0.062540352 0.067021579
0.55221504 0.06262698 0.066606253
0.55715752 0.062655598 0.066256672
0.5622468 0.062553868 0.065795816
0.56705821 0.062900551 0.06524276
0.57212502 0.06259799 0.064587601
0.57607681 0.062137239 0.064110257
0.28389123 0.068989918 0.064394973
0.28816146 0.068215221 0.064688429
0.29278028 0.067985833 0.065112747
0.29755983 0.067542978 0.065601915
0.30243546 0.06758704 0.066309683
0.30757663 0.06751962 0.066800974
0.31228322 0.067576274 0.06726525
0.31741938 0.067440465 0.067770846
0.32238713 0.067238882 0.068167739
0.32751513 0.067126885 0.068431586
0.33241597 0.067667358 0.068638101
0.33701307 0.067577071 0.068795078
0.34225503 0.067185409 0.0689914
0.34722129 0.066547863 0.069377318
0.35183388 0.067337416 0.069828905
0.35707235 0.066979222 0.070224792
0.36206028 0.067190185 0.070741072
0.36701757 0.067410514 0.071294278
0.37220001 0.067010447 0.071724273
0.3761065 0.068326324 0.072319679
0.38882497 0.068964191 0.073492467
0.41478875 0.068772674 0.073825017
0.41640776 0.069155544 0.073772244
0.42847732 0.068817832 0.073504828
0.43272358 0.067393132 0.073410787
0.43728751 0.066421621 0.073282018
0.44266421 0.066188775 0.073235907
0.44757476 0.066600516 0.073333226
0.45242539 0.067210771 0.073582485
0.45651162 0.067019939 0.073730834
0.48485932 0.066138461 0.073600024
0.48775029 0.067972586 0.073237658
0.49301577 0.067741826 0.072444409
0.49780506 0.067248382 0.071767218
0.50282085 0.067515098 0.071162231
0.50804168 0.067641273 0.071031049
0.51265502 0.067195408 0.070779398
0.51742393 0.067132264 0.070635602
0.52116418 0.06615378 0.07050579
0.52854925 0.067584455 0.069908924
0.53283703 0.067392528 0.069402337
0.53795987 0.068017624 0.068757184
0.54265809 0.067496538 0.068038844
0.54741198 0.067610264 0.067487955
0.5522837 0.067429557 0.067013614
0.55734938 0.067689486 0.066539496
0.56227577 0.067526408 0.065987572
0.56745905 0.067707293 0.065251142
0.57221317 0.067567021 0.064674832
0.57590729 0.067457996 0.06409695
0.26953799 0.074423812 0.062652111
0.27313039 0.072960317 0.063073814
0.27783337 0.072596796 0.063814111
0.28282747 0.072746925 0.064508885
0.28765801 0.072612628 0.065013483
0.29253274 0.072592966 0.065506123
0.29755422 0.072554469 0.066057913
0.30248165 0.072551377 0.066834472
0.30758327 0.072467379 0.067542426
0.31241429 0.072606735 0.068038642
0.31764215 0.072346926 0.068403631
0.32240465 0.072426178 0.068749428
0.32718143 0.07244499 0.068839051
0.33252752 0.071555309 0.068938017
0.33575574 0.071426541 0.068912432
0.34805158 0.072015025 0.069796957
0.35219336 0.072627522 0.070170321
0.3572481 0.072235651 0.070635386
0.36206943 0.071582995 0.071167395
0.36690784 0.071578003 0.07174854
0.37239489 0.071816616 0.072406217
0.37738487 0.072006315 0.072927348
0.38209075 0.071962252 0.07326439
0.38835233 0.070572317 0.073579989
0.3918134 0.07058017 0.073779866
0.40865928 0.07237342 0.074062981
0.41270611 0.071690954 0.073988281
0.41779649 0.070377812 0.073800303
0.42285913 0.070794791 0.073596053
0.42789623 0.070935257 0.073636755
0.43223476 0.070562854 0.073611431
0.49026361 0.070978396 0.072906934
0.49259689 0.070499673 0.072566323
0.49727014 0.070752911 0.071955457
0.50287098 0.072370291 0.071492478
0.50776553 0.072360046 0.071236178
0.51279372 0.072074287 0.071042344
0.51702327 0.071302861 0.070861913
0.52954859 0.071719192 0.069975846
0.5331893 0.071843296 0.069672644
0.53788239 0.072776154 0.069132924
0.54244006 0.072689496 0.068534136
0.5472157 0.072876111 0.067996755
0.55236483 0.072575912 0.06740649
0.55742353 0.072519273 0.06684491
0.56204456 0.072566412 0.06620954
0.56722081 0.072483994 0.065442413
0.57231528 0.072491795 0.064783446
0.57623219 0.072898246 0.064347528
0.26822892 0.078245252 0.06294205
0.27269202 0.077891037 0.063467078
0.27794749 0.07758306 0.06408602
0.28266087 0.077667519 0.064699575
0.28777835 0.077632539 0.065276533
0.29255661 0.077637337 0.065948904
0.29756194 0.077596009 0.066620834
0.30246729 0.077515103 0.067495383
0.30730376 0.07745517 0.068186566
0.31238762 0.077411592 0.068684831
0.31730646 0.077572212 0.068974324
0.32248348 0.077392049 0.069118485
0.32702655 0.077648394 0.069203049
0.33254331 0.078976758 0.06921345
0.33806708 0.078494273 0.069285259
0.34265816 0.078972295 0.069482923
0.34850779 0.076972008 0.070013069
0.35260478 0.076754063 0.070389092
0.35609567 0.076052345 0.070659064
0.37436685 0.075987086 0.073154472
0.37672418 0.076491117 0.073456958
0.49486855 0.079046674 0.072544113
0.49821553 0.078810573 0.072131202
0.50259686 0.07776884 0.071618892
0.50765061 0.077555224 0.071275502
0.51243597 0.077212684 0.071145408
0.53432441 0.077159911 0.069856323
0.53780806 0.077210672 0.069350608
0.54260492 0.076998182 0.068698771
0.54728341 0.077337921 0.068204202
0.55258453 0.077150829 0.067700669
0.55754501 0.077236712 0.067155994
0.56200892 0.077709317 0.066518933
0.56730634 0.077534415 0.065704547
0.57235295 0.077307001 0.065006867
0.57735658 0.077690363 0.064290553
0.58224005 0.07775148 0.063334949
0.2678315 0.082959421 0.063425444
0.27282006 0.083172061 0.063809589
0.27776766 0.082729712 0.064245157
0.28306535 0.082404137 0.064826101
0.2878041 0.082659855 0.065252125
0.29265064 0.082525238 0.065952741
0.29749003 0.082752518 0.066694677
0.30246103 0.082568564 0.067678273
0.3075538 0.082502469 0.068502448
0.31245002 0.082459442 0.069004796
0.31758332 0.082345285 0.06934505
0.322281 0.08219976 0.069386333
0.32709849 0.082400642 0.069286644
0.33178303 0.082548484 0.069344431
0.33713865 0.081744574 0.069376722
0.34226876 0.082363479 0.069615193
0.3456082 0.082854398 0.069956876
0.48943099 0.083366781 0.073325217
0.4929781 0.082411334 0.072868779
0.49763379 0.082144141 0.072341174
0.50238645 0.082333669 0.071898118
0.50730413 0.082568765 0.071585283
0.51262414 0.082485564 0.0713403
0.51740551 0.0831085 0.071110561
0.52861893 0.083993994 0.070259742
0.53377873 0.082972221 0.069969743
0.53781098 0.082570277 0.06954442
0.54248303 0.082241803 0.069049545
0.54707479 0.082406081 0.068552531
0.55235517 0.082751609 0.06801334
0.55767947 0.082495093 0.067370236
0.56224197 0.082554393 0.06666027
0.56768364 0.082364447 0.065742992
0.5722748 0.082607158 0.06505987
0.57700783 0.082469776 0.064342327
0.58173782 0.082540087 0.06350261
0.58481282 0.082941644 0.062936939
0.26342306 0.087993555 0.06334307
0.26795846 0.088097446 0.063787133
0.27288485 0.087752774 0.064100869
0.2778466 0.087929003 0.064387567
0.28338802 0.087831199 0.064763337
0.2879515 0.087623388 0.065222442
0.29284567 0.087562159 0.065962233
0.29761842 0.087538846 0.066786185
0.30250263 0.087488092 0.067712359
0.30737162 0.087651506 0.06845782
0.31227407 0.087520443 0.069076851
0.31730586 0.087510481 0.0694618
0.32246846 0.087433949 0.069530986
0.32740459 0.087266542 0.069558211
0.33209842 0.087345608 0.069664016
0.33740044 0.086986028 0.069855772
0.34236267 0.087282002 0.07019496
0.34673068 0.087493636 0.07053028
0.36317751 0.08930406 0.073236115
0.48888803 0.087473541 0.073545247
0.49293837 0.087267995 0.073115833
0.49785787 0.087421231 0.072662286
0.5028553 0.087324642 0.072253898
0.5079596 0.087513119 0.071880743
0.51277208 0.087434381 0.071593225
0.5178197 0.087093554 0.071186326
0.52266324 0.087087847 0.070809714
0.52778381 0.087328754 0.070494577
0.53282636 0.08761923 0.070117757
0.53750831 0.087621346 0.069687903
0.54265624 0.087365009 0.069130749
0.54745764 0.087485746 0.068718433
0.5521034 0.087602839 0.068271481
0.55756068 0.087734997 0.067598052
0.56214708 0.087529995 0.066849522
0.56738597 0.087242752 0.065884538
0.57197553 0.087744147 0.065157153
0.57706809 0.087476298 0.064383261
0.58195293 0.087489672 0.063595019
0.58542293 0.088226207 0.062965497
0.25832382 0.093293153 0.063299708
0.26309493 0.092968836 0.06371855
0.26808378 0.092863359 0.064106718
0.27288082 0.092919923 0.064375564
0.27765697 0.092876934 0.064555869
0.28267366 0.092890441 0.064914577
0.28751835 0.092623904 0.06527596
0.29266652 0.092521831 0.065915093
0.29779524 0.092376411 0.066890299
0.30278692 0.092490852 0.067709342
0.3077442 0.092675693 0.06849353
0.31249559 0.092556551 0.069112577
0.31740713 0.09247379 0.069486424
0.32271129 0.092503801 0.069804505
0.32726121 0.092139803 0.069950208
0.3323873 0.092053533 0.070243038
0.33746126 0.092315167 0.070563249
0.34265319 0.092003353 0.070865996
0.3474682 0.091688514 0.071225338
0.3517341 0.09180408 0.071778491
0.35719386 0.09259671 0.072651744
0.36223048 0.092600346 0.073374964
0.36641237 0.090448402 0.073751941
0.4894096 0.091382712 0.073718503
0.49304223 0.092221335 0.0734552
0.49812138 0.0922416 0.072998948
0.50217563 0.091409072 0.072649002
0.50781304 0.091535576 0.072168954
0.5129109 0.092342444 0.071940623
0.51795518 0.091981448 0.071489185
0.52282083 0.092305817 0.07111416
0.5278722 0.092507951 0.070737794
0.53262866 0.092371635 0.070341311
0.53769779 0.092575133 0.069817483
0.54279548 0.092314802 0.069355674
0.548078 0.092414021 0.068850718
0.55242926 0.092357233 0.068404116
0.55704892 0.09272638 0.067796141
0.5625962 0.092430428 0.066946678
0.567348 0.092178464 0.06614244
0.57179737 0.092931651 0.065483123
0.57696235 0.092646345 0.064681157
0.58227128 0.092588879 0.063767612
0.5863626 0.092294276 0.063039333
0.24866769 0.099195816 0.062581651
0.2531375 0.097962067 0.062973194
0.25747356 0.0977908 0.063442044
0.26261732 0.097770825 0.06408456
0.26794729 0.097432539 0.064502686
0.27273005 0.097782277 0.064762905
0.2778419 0.097735092 0.0649615
0.28254715 0.097678736 0.06524609
0.28747246 0.097570769 0.065633975
0.29252174 0.097537532 0.066308826
0.29770187 0.0976464 0.067016803
0.30267829 0.097618371 0.067763902
0.30756712 0.097745635 0.068567425
0.31223297 0.09759517 0.069183208
0.3168703 0.097748831 0.069740869
0.32211491 0.096717261 0.070072524
0.32745495 0.096023783 0.070432849
0.33268026 0.095716469 0.070862785
0.33714929 0.095837019 0.071196981
0.34018254 0.094756715 0.071183816
0.3540138 0.096106865 0.072668172
0.35906589 0.097214416 0.073284954
0.36153132 0.097132459 0.07359504
0.49787271 0.095746033 0.073309332
0.50051236 0.09688364 0.07317473
