# .PCD v0.7 - Point Cloud Data file format
VERSION 0.7
FIELDS x y z rgb
SIZE 4 4 4 4
TYPE F F F U
COUNT 1 1 1 1
WIDTH 1098
HEIGHT 1
VIEWPOINT 0 0 0 1 0 0 0
POINTS 1098
DATA ascii
0.014511189 0.048249148 0.37275001 8230805
0.015326389 0.048249148 0.37275001 8165012
0.016152415 0.048281509 0.37300003 8428186
0.016968161 0.048281509 0.37300003 8363165
0.017783908 0.048281509 0.37300003 8231579
0.018599655 0.048281509 0.37300003 8166299
0.019415401 0.048281509 0.37300003 8166299
0.020231148 0.048281509 0.37300003 8231579
0.021046894 0.048281509 0.37300003 8493981
0.021862641 0.048281509 0.37300003 8756637
0.022678386 0.048281509 0.37300003 8691358
0.023494134 0.048281509 0.37300003 8429469
0.024309877 0.048281509 0.37300003 8297881
0.025108784 0.048249148 0.37275001 8691358
0.025923982 0.048249148 0.37275001 8625567
0.026739184 0.048249148 0.37275001 8626337
0.027554382 0.048249148 0.37275001 8691358
0.028369583 0.048249148 0.37275001 8757151
0.029184781 0.048249148 0.37275001 8822944
0.029999983 0.048249148 0.37275001 8757151
0.03081518 0.048249148 0.37275001 8756635
0.032415308 0.049446478 0.38200003 9148050
0.036144942 0.053750396 0.41525003 9148816
0.060956791 0.064655803 0.49950004 12438729
0.062049188 0.064655803 0.49950004 12505292
0.06317319 0.064688161 0.49975002 12636876
0.064233996 0.064655803 0.49950004 12767692
0.065326393 0.064655803 0.49950004 13095630
0.0663523 0.06459108 0.49900001 13226448
0.067443609 0.06459108 0.49900001 12964046
0.068500586 0.064558722 0.49875003 12964048
0.069591343 0.064558722 0.49875003 13095630
0.070682101 0.064558722 0.49875003 12832711
0.071808837 0.06459108 0.49900001 13095113
0.072936669 0.064623438 0.49925002 12964046
0.073472477 0.06413804 0.49550003 13095632
0.074179962 0.063814439 0.49300003 12964046
0.075258143 0.063814439 0.49300003 12964048
0.076375045 0.063846797 0.49325001 12898766
0.077532291 0.06391152 0.49375004 13030603
0.078691721 0.063976236 0.49425003 12964044
0.079772636 0.063976236 0.49425003 12964044
0.080853559 0.063976236 0.49425003 13030603
0.081893027 0.063943878 0.49400002 12964044
0.082931414 0.06391152 0.49375004 13030350
0.083883621 0.063814439 0.49300003 12832971
0.084789477 0.063684992 0.49200001 12964044
0.085734583 0.063587911 0.49125004 12898251
0.086720578 0.063523188 0.49075001 12898255
0.087749124 0.06349083 0.49050003 13161427
0.088776566 0.063458472 0.49025002 13030352
0.089757107 0.063393749 0.48975003 13161423
0.090689085 0.063296668 0.48900002 12964297
0.091711603 0.06326431 0.48875001 13030350
0.092827953 0.063296668 0.48900002 12899278
0.093993403 0.063361391 0.48950002 12767692
0.095209591 0.063458472 0.49025002 12964044
0.096379958 0.063523188 0.49075001 12767178
0.097502865 0.063555554 0.49100003 12964046
0.098626874 0.063587911 0.49125004 12964044
0.099650487 0.063555554 0.49100003 13095632
0.10005759 0.063134871 0.48775002 12832460
0.1008133 0.062940709 0.48625001 12701385
0.10140532 0.062649466 0.48400003 12636108
0.10193457 0.062325865 0.48150003 12898251
0.10272024 0.062164061 0.48025003 12898251
0.10355446 0.062034618 0.47925001 12898251
-0.089051522 0.032248456 0.245 6847609
-0.088606037 0.032281365 0.24525002 6849406
-0.088159457 0.032314271 0.24550001 6980224
-0.087622546 0.032314271 0.24550001 6980226
-0.087174326 0.032347176 0.24575001 7111297
-0.086636871 0.032347176 0.24575001 6717054
-0.086099423 0.032347176 0.24575001 6651523
-0.085561968 0.032347176 0.24575001 6849156
-0.085111007 0.032380085 0.24600001 6849154
-0.084573008 0.032380085 0.24600001 7045758
-0.084035009 0.032380085 0.24600001 7045506
-0.08349701 0.032380085 0.24600001 7111047
-0.083043329 0.032412991 0.24625002 6782847
-0.082504779 0.032412991 0.24625002 7046019
-0.082049452 0.032445896 0.24650002 7046019
-0.081510358 0.032445896 0.24650002 7046019
-0.081053376 0.032478806 0.24675001 7046019
-0.080513738 0.032478806 0.24675001 6914949
-0.0799741 0.032478806 0.24675001 6980228
-0.079434462 0.032478806 0.24675001 7111814
-0.078894824 0.032478806 0.24675001 6848902
-0.078355186 0.032478806 0.24675001 7045767
-0.077815548 0.032478806 0.24675001 6980742
-0.077275909 0.032478806 0.24675001 6653576
-0.076814011 0.032511711 0.24700001 7309705
-0.076351024 0.032544617 0.24725001 8822430
-0.075963601 0.032610431 0.24775001 8561827
-0.075802311 0.032774962 0.24900001 7508619
-0.075408868 0.032840777 0.24950001 6849152
-0.076063432 0.033367284 0.25350001 6784131
-0.076477095 0.03379507 0.25675002 6718336
-0.07658086 0.034091227 0.259 6914945
-0.076087803 0.034124132 0.25925002 6849924
-0.075593658 0.034157041 0.25950003 6588033
-0.07509841 0.034189947 0.25975001 6391171
-0.074602075 0.034222856 0.26000002 5599859
-0.074033462 0.034222856 0.26000002 7705748
-0.07353548 0.034255758 0.26025 7838102
-0.072966315 0.034255758 0.26025 8035481
-0.072466701 0.034288667 0.26050001 7837850
-0.071896993 0.034288667 0.26050001 7968666
-0.071327277 0.034288667 0.26050001 7903897
-0.070757568 0.034288667 0.26050001 7837850
-0.070187859 0.034288667 0.26050001 7968666
-0.069618151 0.034288667 0.26050001 7771287
-0.069048442 0.034288667 0.26050001 7968920
-0.068478726 0.034288667 0.26050001 7902614
-0.067909017 0.034288667 0.26050001 8099991
-0.067339309 0.034288667 0.26050001 7902612
-0.066769592 0.034288667 0.26050001 7837332
-0.066263415 0.034321576 0.26075003 7771026
-0.065756142 0.034354478 0.26100001 8164498
-0.065185338 0.034354478 0.26100001 8033428
-0.064676434 0.034387387 0.26125002 7967383
-0.064166419 0.034420293 0.2615 7967637
-0.06359452 0.034420293 0.2615 7836049
-0.063022628 0.034420293 0.2615 7901840
-0.062450729 0.034420293 0.2615 7705233
-0.061878834 0.034420293 0.2615 7705235
-0.061306931 0.034420293 0.2615 7705235
-0.060793102 0.034453198 0.26175001 7705233
-0.060220659 0.034453198 0.26175001 7836821
-0.05970519 0.034486108 0.26200002 7571332
-0.059132196 0.034486108 0.26200002 6979961
-0.06034727 0.035539117 0.27000001 6847607
-0.062633969 0.037250262 0.28300002 6979965
-0.062343746 0.037447698 0.2845 6847607
-0.063728318 0.038665242 0.29375002 6716789
-0.064965039 0.039816972 0.30250001 6651000
-0.06956467 0.043074723 0.32725 6650746
-0.074371621 0.046529915 0.35350001 6781049
-0.075680524 0.047846183 0.36350003 6912889
-0.076224625 0.048701752 0.37 6848125
-0.075721182 0.048899192 0.37150002 6651261
-0.074908718 0.048899192 0.37150002 6717054
-0.074146122 0.048932102 0.37175003 6651261
-0.073382415 0.048965003 0.37200001 6717052
-0.072568856 0.048965003 0.37200001 6585980
-0.071803525 0.048997913 0.37225002 6455164
-0.071037099 0.049030822 0.37250003 6191992
-0.070269562 0.049063724 0.37275001 5072741
-0.069500953 0.049096633 0.37300003 7110529
-0.068685204 0.049096633 0.37300003 6914433
-0.067914948 0.049129538 0.37325001 6783359
-0.067098647 0.049129538 0.37325001 6783359
-0.066282362 0.049129538 0.37325001 6783359
-0.065422222 0.049096633 0.37300003 6783359
-0.06456317 0.049063724 0.37275001 6914947
-0.063747972 0.049063724 0.37275001 6718338
-0.062890567 0.049030822 0.37250003 6718338
-0.062075913 0.049030822 0.37250003 6520961
-0.061261263 0.049030822 0.37250003 6520959
-0.060446605 0.049030822 0.37250003 6783361
-0.059631955 0.049030822 0.37250003 6651777
-0.058856774 0.049063724 0.37275001 6849154
-0.058041576 0.049063724 0.37275001 6782845
-0.057226378 0.049063724 0.37275001 6914431
-0.056411173 0.049063724 0.37275001 6914433
-0.055633266 0.049096633 0.37300003 6783361
-0.05481752 0.049096633 0.37300003 6585982
-0.054001775 0.049096633 0.37300003 6783361
-0.053221669 0.049129538 0.37325001 6520189
-0.052405376 0.049129538 0.37325001 6651775
-0.051589087 0.049129538 0.37325001 6520191
-0.050772794 0.049129538 0.37325001 6520191
-0.04992304 0.049096633 0.37300003 6914433
-0.049107295 0.049096633 0.37300003 6717052
-0.048291549 0.049096633 0.37300003 6782845
-0.047475804 0.049096633 0.37300003 6717052
-0.046660054 0.049096633 0.37300003 6585466
-0.045844309 0.049096633 0.37300003 6651261
-0.045028564 0.049096633 0.37300003 6520189
-0.044212814 0.049096633 0.37300003 6651259
-0.043426156 0.049129538 0.37325001 6782334
-0.042609859 0.049129538 0.37325001 6388601
-0.04179357 0.049129538 0.37325001 6651259
-0.040977273 0.049129538 0.37325001 6782332
-0.04016098 0.049129538 0.37325001 7110781
-0.039318338 0.049096633 0.37300003 6782586
-0.038502593 0.049096633 0.37300003 6717306
-0.037686843 0.049096633 0.37300003 6585980
-0.036895808 0.049129538 0.37325001 6454394
-0.036079515 0.049129538 0.37325001 6651259
-0.035286844 0.049162444 0.37350002 6717054
-0.034470003 0.049162444 0.37350002 6717052
-0.033653162 0.049162444 0.37350002 6651773
-0.032836325 0.049162444 0.37350002 6782847
-0.032019485 0.049162444 0.37350002 6914433
-0.031202646 0.049162444 0.37350002 6914433
-0.030385803 0.049162444 0.37350002 6914433
-0.029568965 0.049162444 0.37350002 6783359
-0.028771371 0.049195353 0.37375003 6783359
-0.027953984 0.049195353 0.37375003 6980224
-0.027154747 0.049228258 0.37400001 7045504
-0.026336815 0.049228258 0.37400001 6914431
-0.025518881 0.049228258 0.37400001 7046017
-0.024700949 0.049228258 0.37400001 6980226
-0.023883013 0.049228258 0.37400001 6980226
-0.023065081 0.049228258 0.37400001 7242885
-0.022247147 0.049228258 0.37400001 7307908
-0.021443538 0.049261164 0.37425002 7438979
-0.02343723 0.063542627 0.48275003 7243912
-0.022393052 0.063575529 0.48300001 6783099
-0.021358825 0.063641347 0.48350003 6058863
-0.020311914 0.063674249 0.48375002 5729896
-0.019273859 0.06374006 0.48425001 5664616
-0.018224215 0.063772969 0.48450002 5598825
-0.017182332 0.06383878 0.48500001 5532778
-0.016129954 0.063871689 0.48525003 5860714
-0.015076482 0.063904598 0.48550004 5925222
-0.014014699 0.063904598 0.48550004 5597027
-0.012952917 0.063904598 0.48550004 5465443
-0.011885011 0.063871689 0.48525003 5136991
-0.010823775 0.063871689 0.48525003 4808794
-0.0097575095 0.06383878 0.48500001 4743001
-0.0086968206 0.06383878 0.48500001 4873819
-0.0076361313 0.06383878 0.48500001 5005151
-0.0065788324 0.063871689 0.48525003 5136478
-0.0055175968 0.063871689 0.48525003 5136476
-0.0044563608 0.063871689 0.48525003 5333855
-0.003393376 0.06383878 0.48500001 5202269
-0.0023314846 0.063805878 0.48475003 5333083
-0.0012628187 0.063378096 0.48150003 5793122
-0.00020956638 0.063312277 0.48100004 5464419
0.0008419368 0.063279375 0.48075002 6122351
0.0018923465 0.063246466 0.48050001 8293772
0.0029171614 0.062687054 0.47625002 8164239
0.0038963724 0.061699856 0.46875003 7835533
0.0056852899 0.050314173 0.38225001 7836817
0.0063762544 0.049195353 0.37375003 7771024
0.0071888291 0.049162444 0.37350002 8033426
0.0080056693 0.049162444 0.37350002 8296084
0.0088166036 0.049129538 0.37325001 8033426
0.0096328966 0.049129538 0.37325001 8033428
0.010442191 0.049096633 0.37300003 8165014
0.011257937 0.049096633 0.37300003 8033430
0.012073684 0.049096633 0.37300003 8165016
0.01288943 0.049096633 0.37300003 8427672
0.013705176 0.049096633 0.37300003 8165014
0.014520923 0.049096633 0.37300003 8099991
0.015336669 0.049096633 0.37300003 8100504
0.016152415 0.049096633 0.37300003 8034713
0.016968161 0.049096633 0.37300003 8165786
0.017795827 0.049129538 0.37325001 8230809
0.01861212 0.049129538 0.37325001 8362393
0.019428413 0.049129538 0.37325001 8231577
0.020244706 0.049129538 0.37325001 8363163
0.021060999 0.049129538 0.37325001 8297370
0.021877293 0.049129538 0.37325001 8231577
0.022693586 0.049129538 0.37325001 8297368
0.023509879 0.049129538 0.37325001 8297881
0.02432617 0.049129538 0.37325001 8363163
0.025125626 0.049096633 0.37300003 8625565
0.02594137 0.049096633 0.37300003 8888223
0.026757119 0.049096633 0.37300003 8756635
0.027572865 0.049096633 0.37300003 8822428
0.028388612 0.049096633 0.37300003 8691358
0.029204357 0.049096633 0.37300003 8692130
0.030020105 0.049096633 0.37300003 8626337
0.03083585 0.049096633 0.37300003 8625563
0.032394093 0.050248362 0.38175002 8885907
0.036144942 0.054657847 0.41525003 9148050
0.038503092 0.056796774 0.43150002 9411475
0.040063847 0.057685252 0.43825004 9477015
0.061552297 0.065220863 0.49550003 12504520
0.062635951 0.065220863 0.49550003 12898764
0.063687459 0.065187953 0.49525002 12964046
0.064770557 0.065187953 0.49525002 12964046
0.065853663 0.065187953 0.49525002 12964046
0.06690298 0.065155052 0.49500003 13095632
0.067985542 0.065155052 0.49500003 13226448
0.06910298 0.065187953 0.49525002 13226446
0.070186086 0.065187953 0.49525002 13029320
0.071269192 0.065187953 0.49525002 13095113
0.072242729 0.065089233 0.49450001 13226446
0.073064707 0.064858891 0.49275002 12964044
0.074142344 0.064858891 0.49275002 12701387
0.074685693 0.064398199 0.48925003 12898766
0.075755686 0.064398199 0.48925003 12964044
0.076825663 0.064398199 0.48925003 12898253
0.077895649 0.064398199 0.48925003 12964046
0.078965627 0.064398199 0.48925003 12964044
0.079994716 0.06436529 0.48900002 12898251
0.080981269 0.064299479 0.48850003 12964046
0.082007617 0.06426657 0.48825002 12767180
0.083075412 0.06426657 0.48825002 12832971
0.084100135 0.064233668 0.48800004 12898253
0.085167378 0.064233668 0.48800004 12964048
0.086190447 0.064200759 0.48775002 13358034
0.087257154 0.064200759 0.48775002 13160142
0.088323854 0.064200759 0.48775002 12964046
0.089390561 0.064200759 0.48775002 12964046
0.090457261 0.064200759 0.48775002 13226446
0.091430143 0.064134948 0.48725003 13095630
0.092400834 0.06406913 0.48675004 12832971
0.093465358 0.06406913 0.48675004 12767694
0.094529875 0.06406913 0.48675004 12767694
0.095643483 0.064102039 0.48700002 12767694
0.096758187 0.064134948 0.48725003 12899282
0.097873993 0.06416785 0.48750001 12701903
0.098940149 0.06416785 0.48750001 12767182
0.099493451 0.06383878 0.48500001 12832458
0.10008765 0.063542627 0.48275003 12898251
0.10014822 0.062917396 0.47800002 12898253
0.10119361 0.062917396 0.47800002 12832458
0.10223898 0.062917396 0.47800002 12767180
0.10323034 0.062884495 0.47775003 12832971
0.10400236 0.062719963 0.47650003 12832711
-0.088877 0.032917667 0.24600001 6652545
-0.088339001 0.032917667 0.24600001 6784131
-0.087801002 0.032917667 0.24600001 6585982
-0.087263003 0.032917667 0.24600001 6914435
-0.086725004 0.032917667 0.24600001 6782595
-0.086187012 0.032917667 0.24600001 6782595
-0.085649014 0.032917667 0.24600001 6783363
-0.085111007 0.032917667 0.24600001 6718340
-0.084573008 0.032917667 0.24600001 7046017
-0.084120415 0.03295112 0.24625002 6848125
-0.083581872 0.03295112 0.24625002 6980228
-0.083043329 0.03295112 0.24625002 6783363
-0.082588539 0.032984573 0.24650002 6849156
-0.082049452 0.032984573 0.24650002 7046021
-0.081593022 0.033018027 0.24675001 7046021
-0.081053376 0.033018027 0.24675001 6849154
-0.080513738 0.033018027 0.24675001 6718340
-0.080055133 0.03305148 0.24700001 6914947
-0.079434462 0.033018027 0.24675001 6914947
-0.078894824 0.033018027 0.24675001 6980488
-0.078355186 0.033018027 0.24675001 6848902
-0.077815548 0.033018027 0.24675001 6849924
-0.0773542 0.03305148 0.24700001 6653058
-0.076891758 0.033084933 0.24725001 7243398
-0.076428227 0.033118386 0.24750002 8821915
-0.076040253 0.033185292 0.24800001 8757921
-0.075650096 0.033252195 0.2485 8165782
-0.075408868 0.033386007 0.24950001 6717052
-0.075988419 0.0338878 0.25325 7046019
-0.076328166 0.034289241 0.25625002 7112064
-0.076654784 0.034690674 0.25925002 7046785
-0.076087803 0.034690674 0.25925002 6784383
-0.075593658 0.034724128 0.25950003 6587263
-0.07509841 0.034757577 0.25975001 6653058
-0.074602075 0.034791034 0.26000002 5402480
-0.074104644 0.034824483 0.26025 7244682
-0.07353548 0.034824483 0.26025 7837332
-0.07303641 0.034857936 0.26050001 7902614
-0.072466701 0.034857936 0.26050001 8100506
-0.071965992 0.034891393 0.26075003 7838104
-0.071395732 0.034891393 0.26075003 8034713
-0.070825472 0.034891393 0.26075003 7837334
-0.07025522 0.034891393 0.26075003 7968920
-0.06968496 0.034891393 0.26075003 7837334
-0.069048442 0.034857936 0.26050001 7837332
-0.068478726 0.034857936 0.26050001 7706516
-0.067909017 0.034857936 0.26050001 7838102
-0.067339309 0.034857936 0.26050001 7837332
-0.066833675 0.034891393 0.26075003 7968918
-0.066263415 0.034891393 0.26075003 7968918
-0.065756142 0.034924842 0.26100001 7967635
-0.065247782 0.034958296 0.26125002 7902614
-0.064738318 0.034991749 0.2615 8033430
-0.064166419 0.034991749 0.2615 8032916
-0.06359452 0.034991749 0.2615 7901844
-0.063082881 0.035025202 0.26175001 7901844
-0.062510438 0.035025202 0.26175001 7836819
-0.061937992 0.035025202 0.26175001 7771028
-0.061365545 0.035025202 0.26175001 7639955
-0.060793102 0.035025202 0.26175001 7574162
-0.060278181 0.035058655 0.26200002 7443342
-0.05970519 0.035058655 0.26200002 7771791
-0.059132196 0.035058655 0.26200002 6782332
-0.060067885 0.035961885 0.26875001 7045754
-0.061969999 0.037467264 0.28 6979195
-0.062179402 0.03796906 0.28375003 6717306
-0.0625351 0.038571209 0.28825 6782586
-0.063998617 0.039875872 0.29800001 6650998
-0.067385793 0.042418294 0.317 6387574
-0.072478145 0.046098117 0.34450001 6781049
-0.074743629 0.048038386 0.35900003 6781814
-0.075864106 0.049276143 0.36825001 6847607
-0.075670227 0.049677577 0.37125 6650746
-0.074908718 0.04971103 0.37150002 6651261
-0.074096255 0.04971103 0.37150002 6717054
-0.073333099 0.049744487 0.37175003 6651513
-0.072568856 0.049777936 0.37200001 6323578
-0.071803525 0.049811389 0.37225002 6389373
-0.071037099 0.049844846 0.37250003 6060406
-0.070269562 0.049878296 0.37275001 5139304
-0.069500953 0.049911749 0.37300003 6717306
-0.068685204 0.049911749 0.37300003 6782845
-0.067914948 0.049945202 0.37325001 6783363
-0.067098647 0.049945202 0.37325001 6783361
-0.066282362 0.049945202 0.37325001 6849154
-0.065466069 0.049945202 0.37325001 6651775
-0.06460648 0.049911749 0.37300003 6783363
-0.063747972 0.049878296 0.37275001 6783361
-0.062932767 0.049878296 0.37275001 6520957
-0.062075913 0.049844846 0.37250003 6455677
-0.061261263 0.049844846 0.37250003 6520957
-0.06048717 0.049878296 0.37275001 6651773
-0.059671972 0.049878296 0.37275001 6651775
-0.058856774 0.049878296 0.37275001 6585982
-0.058080506 0.049911749 0.37300003 6585982
-0.05726476 0.049911749 0.37300003 6651775
-0.056449011 0.049911749 0.37300003 6651775
-0.055633266 0.049911749 0.37300003 6585980
-0.05481752 0.049911749 0.37300003 6914433
-0.054037966 0.049945202 0.37325001 6323580
-0.053221669 0.049945202 0.37325001 6389373
-0.052405376 0.049945202 0.37325001 6585980
-0.051589087 0.049945202 0.37325001 6717054
-0.050772794 0.049945202 0.37325001 6585982
-0.049956497 0.049945202 0.37325001 6520187
-0.049140204 0.049945202 0.37325001 6782845
-0.048291549 0.049911749 0.37300003 6717054
-0.047475804 0.049911749 0.37300003 6520187
-0.046660054 0.049911749 0.37300003 6651261
-0.045844309 0.049911749 0.37300003 6651261
-0.045058742 0.049945202 0.37325001 6716541
-0.044242445 0.049945202 0.37325001 6650746
-0.043455243 0.049978655 0.37350002 6651261
-0.042638402 0.049978655 0.37350002 6650746
-0.041821562 0.049978655 0.37350002 6913148
-0.041004721 0.049978655 0.37350002 6716539
-0.04016098 0.049945202 0.37325001 6716539
-0.039344687 0.049945202 0.37325001 6651513
-0.038528394 0.049945202 0.37325001 6585466
-0.037712101 0.049945202 0.37325001 6651259
-0.036895808 0.049945202 0.37325001 6914433
-0.036103681 0.049978655 0.37350002 6585982
-0.035286844 0.049978655 0.37350002 6782847
-0.034493074 0.050012108 0.37375003 6651775
-0.033675689 0.050012108 0.37375003 6717052
-0.032858305 0.050012108 0.37375003 6717054
-0.032040916 0.050012108 0.37375003 6782847
-0.031223532 0.050012108 0.37375003 6717054
-0.030406144 0.050012108 0.37375003 6979713
-0.029588759 0.050012108 0.37375003 6978943
-0.028771371 0.050012108 0.37375003 7176322
-0.027972681 0.050045561 0.37400001 6848127
-0.027154747 0.050045561 0.37400001 6914431
-0.026354421 0.050079014 0.37425002 6980226
-0.025535939 0.050079014 0.37425002 7045506
-0.024717461 0.050079014 0.37425002 7111299
-0.02389898 0.050079014 0.37425002 7111812
-0.023080498 0.050079014 0.37425002 7111299
-0.022262018 0.050079014 0.37425002 7242883
-0.021772997 0.050848432 0.38000003 7111297
-0.02434079 0.064196147 0.47975004 7309705
-0.023425093 0.064564124 0.48250002 6322810
-0.022393052 0.06463103 0.48300001 5334888
-0.021347782 0.064664483 0.48325002 5333603
-0.020311914 0.064731389 0.48375002 5135704
-0.01926391 0.064764842 0.48400003 4939097
-0.018214811 0.064798295 0.48425001 4675927
-0.017173477 0.064865202 0.48475003 4939099
-0.016121643 0.064898655 0.48500001 4545624
-0.015068718 0.064932108 0.48525003 4610393
-0.014007483 0.064932108 0.48525003 4478807
-0.012946246 0.064932108 0.48525003 5004892
-0.011885011 0.064932108 0.48525003 5399650
-0.010818198 0.064898655 0.48500001 5334368
-0.0097575095 0.064898655 0.48500001 5597540
-0.0086968206 0.064898655 0.48500001 6121572
-0.0076361313 0.064898655 0.48500001 6122338
-0.0065754429 0.064898655 0.48500001 5925222
-0.0055175968 0.064932108 0.48525003 5925222
-0.0044540651 0.064898655 0.48500001 5991013
-0.003393376 0.064898655 0.48500001 5925473
-0.0023314846 0.064865202 0.48475003 5925471
-0.001262163 0.064396858 0.48125002 6056545
-0.00020956638 0.064363413 0.48100004 5989986
0.0008419368 0.064329952 0.48075002 6187365
0.0018923465 0.064296499 0.48050001 5924197
0.0029186928 0.063761257 0.47650003 7440262
0.0039233873 0.063159101 0.47200003 7901580
0.0048795259 0.062188968 0.46475002 8098446
0.0059195436 0.053257041 0.39800003 7967887
0.0064359647 0.050480448 0.37725002 8032912
0.0071936408 0.050012108 0.37375003 8033426
0.0080110272 0.050012108 0.37375003 8098959
0.0088225091 0.049978655 0.37350002 8164752
0.0096393488 0.049978655 0.37350002 8033428
0.010449189 0.049945202 0.37325001 7901842
0.011265482 0.049945202 0.37325001 8164500
0.012081775 0.049945202 0.37325001 8296086
0.012898068 0.049945202 0.37325001 8427672
0.013714361 0.049945202 0.37325001 8230807
0.014530654 0.049945202 0.37325001 8230809
0.015346947 0.049945202 0.37325001 8099993
0.016163241 0.049945202 0.37325001 8165784
0.016979534 0.049945202 0.37325001 8296600
0.017795827 0.049945202 0.37325001 8296602
0.01861212 0.049945202 0.37325001 8296602
0.019428413 0.049945202 0.37325001 8362395
0.020244706 0.049945202 0.37325001 8165784
0.021060999 0.049945202 0.37325001 8493981
0.021877293 0.049945202 0.37325001 8231579
0.022693586 0.049945202 0.37325001 8297883
0.023525625 0.049978655 0.37350002 8297885
0.024342464 0.049978655 0.37350002 8560544
0.025142465 0.049945202 0.37325001 8691356
0.025958756 0.049945202 0.37325001 8493977
0.026775051 0.049945202 0.37325001 8888221
0.027591342 0.049945202 0.37325001 8691358
0.028407637 0.049945202 0.37325001 8691360
0.029223928 0.049945202 0.37325001 8626337
0.030020105 0.049911749 0.37300003 8560544
0.03083585 0.049911749 0.37300003 8887708
0.032372877 0.051049147 0.38150001 8885907
0.036123183 0.055531837 0.41500002 9148052
0.038503092 0.057739731 0.43150002 9280151
0.03994957 0.058475692 0.43700001 9345431
0.060900129 0.065601163 0.49025002 12896970
0.062003899 0.065634623 0.49050003 12832462
0.063076623 0.065634623 0.49050003 12832462
0.064182036 0.065668069 0.49075001 12898255
0.065288536 0.065701522 0.49100003 12964046
0.06639614 0.065734982 0.49125004 12767694
0.067539178 0.065801881 0.49175003 12767180
0.068684392 0.065868787 0.49225003 13094862
0.069831789 0.065935694 0.49275002 13094860
0.070945404 0.065969147 0.49300003 13094860
0.07198707 0.065935694 0.49275002 12963274
0.072508655 0.065433905 0.48900002 13029069
0.073578097 0.065433905 0.48900002 12832460
0.074647531 0.065433905 0.48900002 12701387
0.074942768 0.064764842 0.48400003 12832973
0.075962014 0.064731389 0.48375002 12766667
0.076980166 0.064697936 0.48350003 12898255
0.077997215 0.064664483 0.48325002 13029067
0.079013184 0.06463103 0.48300001 12832971
0.080069497 0.06463103 0.48300001 12636106
0.081167802 0.064664483 0.48325002 12701901
0.082352281 0.064764842 0.48400003 12701899
0.083496951 0.064831749 0.48450002 12636106
0.08460018 0.064865202 0.48475003 12898766
0.085660324 0.064865202 0.48475003 12898504
0.086720459 0.064865202 0.48475003 12833224
0.087690055 0.064798295 0.48425001 12636876
0.088657476 0.064731389 0.48375002 12701899
0.089576334 0.06463103 0.48300001 12832973
0.090538822 0.064564124 0.48250002 12898766
0.091499127 0.064497218 0.48200002 12832973
0.092505254 0.064463764 0.48175001 12636878
0.093558833 0.064463764 0.48175001 12571085
0.094661519 0.064497218 0.48200002 12898768
0.095814928 0.064564124 0.48250002 12832462
0.096920349 0.064597577 0.48275003 12832458
0.097976118 0.064597577 0.48275003 12833224
0.099031888 0.064597577 0.48275003 12767178
0.099051014 0.063928522 0.47775003 12832973
0.10004347 0.063895069 0.47750002 12767694
0.10108776 0.063895069 0.47750002 12701903
0.1020251 0.063828163 0.47700003 12832975
0.10290623 0.063727804 0.47625002 12767180
0.10389322 0.06369435 0.47600001 12701638
0.10410754 0.063192554 0.47225001 12766918
0.10508469 0.063159101 0.47200003 12964044
-0.089596741 0.033523254 0.24650002 5925744
-0.088967323 0.033489257 0.24625002 6651523
-0.08842878 0.033489257 0.24625002 6651523
-0.087890238 0.033489257 0.24625002 6914435
-0.087351695 0.033489257 0.24625002 6848129
-0.086813144 0.033489257 0.24625002 6914435
-0.086274602 0.033489257 0.24625002 6914433
-0.085736059 0.033489257 0.24625002 6849154
-0.085197508 0.033489257 0.24625002 6914947
-0.084658958 0.033489257 0.24625002 6784131
-0.084120415 0.033489257 0.24625002 6980224
-0.083581872 0.033489257 0.24625002 7046019
-0.083127633 0.033523254 0.24650002 6980488
-0.082588539 0.033523254 0.24650002 6980228
-0.082049452 0.033523254 0.24650002 7045506
-0.081593022 0.033557255 0.24675001 7307908
-0.081053376 0.033557255 0.24675001 7045506
-0.080595315 0.033591252 0.24700001 7177094
-0.080055133 0.033591252 0.24700001 7177605
-0.079514943 0.033591252 0.24700001 7046017
-0.078974761 0.033591252 0.24700001 7111301
-0.078434572 0.033591252 0.24700001 7111814
-0.07789439 0.033591252 0.24700001 7112328
-0.0773542 0.033591252 0.24700001 7111814
-0.076891758 0.033625253 0.24725001 7177094
-0.076428227 0.033659253 0.24750002 8492954
-0.076040253 0.033727251 0.24800001 8692130
-0.075650096 0.033795249 0.2485 8692641
-0.075257756 0.033863246 0.24900001 6980224
-0.075838394 0.034373235 0.25275001 6783359
-0.076104768 0.034747228 0.25550002 6784642
-0.076654784 0.035257217 0.25925002 6784383
-0.076161176 0.035291217 0.25950003 6587517
-0.075593658 0.035291217 0.25950003 6784383
-0.075170688 0.035359215 0.26000002 6783613
-0.074602075 0.035359215 0.26000002 6125433
-0.074104644 0.035393212 0.26025 6653830
-0.073606119 0.035427213 0.26050001 7969690
-0.07303641 0.035427213 0.26050001 7838104
-0.072536252 0.035461213 0.26075003 7838104
-0.071965992 0.035461213 0.26075003 7968920
-0.071395732 0.035461213 0.26075003 8099993
-0.070893377 0.03549521 0.26100001 8099993
-0.07025522 0.035461213 0.26075003 7968666
-0.06968496 0.035461213 0.26075003 7837850
-0.069114707 0.035461213 0.26075003 7771541
-0.068544447 0.035461213 0.26075003 7837332
-0.067974195 0.035461213 0.26075003 7838104
-0.067403935 0.035461213 0.26075003 7838104
-0.066833675 0.035461213 0.26075003 8034198
-0.066326946 0.03549521 0.26100001 7771539
-0.065756142 0.03549521 0.26100001 7837334
-0.065247782 0.035529211 0.26125002 7902614
-0.064738318 0.035563208 0.2615 8165014
-0.064166419 0.035563208 0.2615 7967123
-0.063655324 0.035597209 0.26175001 7770774
-0.063082881 0.035597209 0.26175001 7705235
-0.062510438 0.035597209 0.26175001 7836819
-0.061937992 0.035597209 0.26175001 7574160
-0.061365545 0.035597209 0.26175001 7967633
-0.060793102 0.035597209 0.26175001 7770256
-0.060278181 0.03563121 0.26200002 7836047
-0.05970519 0.03563121 0.26200002 8034196
-0.059188616 0.035665207 0.26225001 6652797
-0.060067885 0.036549188 0.26875001 6913148
-0.061195377 0.037603162 0.27650002 6782584
-0.062124617 0.038555142 0.28350002 6717306
-0.062046975 0.038895134 0.28600001 6783099
-0.062978506 0.039881114 0.29325002 6585205
-0.065313205 0.041785073 0.30725002 6650746
-0.07000611 0.045252994 0.33275002 6716023
-0.073650576 0.048108932 0.35375002 6847609
-0.075040057 0.049536895 0.36425 6585207
-0.075619273 0.050454877 0.37100002 6585207
-0.074858308 0.050488874 0.37125 6650750
-0.074096255 0.050522875 0.37150002 6519675
-0.073283784 0.050522875 0.37150002 6520187
-0.072520092 0.050556876 0.37175003 6323578
-0.071755297 0.050590873 0.37200001 6324093
-0.070989423 0.050624873 0.37225002 6192505
-0.070222437 0.050658874 0.37250003 5467753
-0.069454364 0.050692871 0.37275001 6256753
-0.068685204 0.050726872 0.37300003 6455166
-0.067914948 0.050760869 0.37325001 6587267
-0.067143597 0.05079487 0.37350002 6520959
-0.066282362 0.050760869 0.37325001 6718338
-0.065466069 0.050760869 0.37325001 6652545
-0.06460648 0.050726872 0.37300003 6784129
-0.063747972 0.050692871 0.37275001 6652545
-0.062932767 0.050692871 0.37275001 6587265
-0.062117573 0.050692871 0.37275001 6849152
-0.061302375 0.050692871 0.37275001 6783361
-0.06048717 0.050692871 0.37275001 6651777
-0.059671972 0.050692871 0.37275001 6651775
-0.058896251 0.050726872 0.37300003 6585982
-0.058080506 0.050726872 0.37300003 6651777
-0.05726476 0.050726872 0.37300003 6717052
-0.056449011 0.050726872 0.37300003 6717052
-0.055670548 0.050760869 0.37325001 6717052
-0.054854259 0.050760869 0.37325001 6651261
-0.054037966 0.050760869 0.37325001 6454396
-0.053257316 0.05079487 0.37350002 6651773
-0.052440479 0.05079487 0.37350002 6586234
-0.051623642 0.05079487 0.37350002 6716539
-0.050806802 0.05079487 0.37350002 6782332
-0.049989957 0.05079487 0.37350002 6717306
-0.04917312 0.05079487 0.37350002 6717052
-0.048323914 0.050760869 0.37325001 6520189
-0.047507621 0.050760869 0.37325001 6323580
-0.046691325 0.050760869 0.37325001 6520189
-0.045905761 0.05079487 0.37350002 6585468
-0.045088921 0.05079487 0.37350002 6717054
-0.04427208 0.05079487 0.37350002 6651261
-0.04348433 0.05082887 0.37375003 6717054
-0.042666942 0.05082887 0.37375003 6453882
-0.041849557 0.05082887 0.37375003 6454394
-0.041004721 0.05079487 0.37350002 6519927
-0.040187884 0.05079487 0.37350002 6651000
-0.03937104 0.05079487 0.37350002 6651259
-0.038528394 0.050760869 0.37325001 6585468
-0.037712101 0.050760869 0.37325001 6716541
-0.036920521 0.05079487 0.37350002 6520189
-0.036103681 0.05079487 0.37350002 6389373
-0.035310462 0.05082887 0.37375003 6323582
-0.034493074 0.05082887 0.37375003 6520961
-0.033698212 0.050862867 0.37400001 6389373
-0.03288028 0.050862867 0.37400001 6651775
-0.032062348 0.050862867 0.37400001 6849154
-0.031244416 0.050862867 0.37400001 6585982
-0.03042648 0.050862867 0.37400001 6914433
-0.029608548 0.050862867 0.37400001 6782336
-0.028790614 0.050862867 0.37400001 6980226
-0.027991381 0.050896868 0.37425002 6914431
-0.027172899 0.050896868 0.37425002 7111297
-0.026372025 0.050930865 0.37450001 7045504
-0.025552996 0.050930865 0.37450001 7045504
-0.02473397 0.050930865 0.37450001 7111299
-0.023914943 0.050930865 0.37450001 7111299
-0.023095915 0.050930865 0.37450001 7046019
-0.022276888 0.050930865 0.37450001 6980478
-0.022088133 0.052426834 0.38550001 6782845
-0.024689449 0.060926642 0.44800001 7242885
-0.025125379 0.064564563 0.47475001 7242883
-0.024467632 0.06558454 0.48225003 6255988
-0.023425093 0.065618537 0.48250002 4544091
-0.022381462 0.065652542 0.48275003 4806491
-0.021336738 0.065686539 0.48300001 4872284
-0.020301418 0.06575454 0.48350003 4675673
-0.019253958 0.065788537 0.48375002 4610393
-0.018205408 0.065822534 0.48400003 4873567
-0.01716462 0.065890536 0.48450002 5136739
-0.016113333 0.065924533 0.48475003 5400679
-0.015060955 0.06595853 0.48500001 5927277
-0.014000266 0.06595853 0.48500001 6781301
-0.012939576 0.06595853 0.48500001 7043189
-0.011878887 0.06595853 0.48500001 6781299
-0.010818198 0.06595853 0.48500001 6847094
-0.0097524803 0.065924533 0.48475003 6518640
-0.0086923381 0.065924533 0.48475003 6518378
-0.0076361313 0.06595853 0.48500001 6452585
-0.0065754429 0.06595853 0.48500001 6321001
-0.0055175968 0.065992534 0.48525003 6386024
-0.0044540651 0.06595853 0.48500001 6188645
-0.003393376 0.06595853 0.48500001 6122852
-0.0023302822 0.065890536 0.48450002 6122852
-0.001262163 0.065448545 0.48125002 5858913
-0.00020945746 0.065380543 0.48075002 5989988
0.0008419368 0.065380543 0.48075002 5793120
0.001891362 0.065312549 0.48025003 5859166
0.0029217554 0.064870559 0.47700003 5070685
0.0039545582 0.064700559 0.47575003 7111297
0.0049215229 0.063748583 0.46875003 8031629
0.0058451835 0.062660605 0.46075001 7836047
0.0065852418 0.052494831 0.38600001 7901326
0.0071984525 0.050862867 0.37400001 8098705
0.0080110272 0.05082887 0.37375003 8164500
0.0088284146 0.05082887 0.37375003 8033426
0.009645801 0.05082887 0.37375003 7902612
0.010456188 0.05079487 0.37350002 7771026
0.011273027 0.05079487 0.37350002 8033426
0.012089868 0.05079487 0.37350002 8230805
0.012906708 0.05079487 0.37350002 8165012
0.013714361 0.050760869 0.37325001 8033428
0.014530654 0.050760869 0.37325001 8296600
0.015346947 0.050760869 0.37325001 8296084
0.016163241 0.050760869 0.37325001 8296598
0.016979534 0.050760869 0.37325001 7902612
0.017795827 0.050760869 0.37325001 8100506
0.01861212 0.050760869 0.37325001 8034713
0.019428413 0.050760869 0.37325001 8231579
0.020244706 0.050760869 0.37325001 8231579
0.021075107 0.05079487 0.37350002 8362393
0.021891946 0.05079487 0.37350002 8231579
0.022708787 0.05079487 0.37350002 8101276
0.023525625 0.05079487 0.37350002 8297885
0.024342464 0.05079487 0.37350002 8297372
0.025159307 0.05079487 0.37350002 8363163
0.025976144 0.05079487 0.37350002 8429469
0.026792986 0.05079487 0.37350002 8560540
0.027609825 0.05079487 0.37350002 8756637
0.028426666 0.05079487 0.37350002 8756637
0.029223928 0.050760869 0.37325001 8625051
0.030040223 0.050760869 0.37325001 8888223
0.030856516 0.050760869 0.37325001 8821915
0.03233045 0.051814847 0.38100001 8885905
0.036014378 0.056268748 0.41375002 9213845
0.038101554 0.058070708 0.42700002 9148567
0.059999514 0.065686539 0.48300001 12634313
0.061308645 0.06595853 0.48500001 12832462
0.062401492 0.065992534 0.48525003 12964048
0.06349542 0.066026531 0.48550004 12898255
0.064590447 0.066060528 0.48575002 12767182
0.065787934 0.066196531 0.48675004 12701903
0.066989794 0.066332527 0.48775002 12701903
0.068126261 0.066400521 0.48825002 12636108
0.069229491 0.066434525 0.48850003 12570313
0.070333801 0.066468522 0.48875001 12701385
0.071402699 0.066468522 0.48875001 12701387
0.072471589 0.066468522 0.48875001 12701387
0.073277161 0.066230528 0.48700002 12767180
0.073884264 0.065822534 0.48400003 12766665
0.074904054 0.065788537 0.48375002 12898253
0.075922757 0.06575454 0.48350003 12766669
0.076820947 0.065618537 0.48250002 12766669
0.077634066 0.065414548 0.48100004 12963276
0.078645118 0.065380543 0.48075002 12832711
0.079779394 0.065448545 0.48125002 12832971
0.081041835 0.065618537 0.48250002 12701385
0.082097054 0.065618537 0.48250002 12701899
0.083152279 0.065618537 0.48250002 12701901
0.084163874 0.06558454 0.48225003 12898766
0.085218541 0.06558454 0.48225003 12767945
0.08622849 0.065550543 0.48200002 12767945
0.08728262 0.065550543 0.48200002 12701899
0.088016026 0.065312549 0.48025003 12832971
0.088695407 0.065040551 0.47825003 12832973
0.089694418 0.065006554 0.47800002 12832973
0.090692341 0.064972557 0.47775003 12571336
0.091689177 0.064938553 0.47750002 12768462
0.092733458 0.064938553 0.47750002 12767180
0.093925044 0.065040551 0.47825003 12964046
0.095119901 0.06514255 0.47900003 12832971
0.096167475 0.06514255 0.47900003 12964295
0.097215042 0.06514255 0.47900003 12898504
0.097903602 0.064904556 0.47725001 12832458
0.098947346 0.064904556 0.47725001 13029067
0.099938713 0.064870559 0.47700003 12767431
0.10092898 0.064836554 0.47675002 12701899
0.1018112 0.064734556 0.47600001 12832460
0.10274417 0.064666562 0.47550002 12832462
0.10302017 0.064190574 0.47200003 12570317
0.10399731 0.06415657 0.47175002 12439497
0.10491771 0.064088576 0.47125003 12899531
-0.089687608 0.034096476 0.24675001 5268323
-0.089057647 0.034061931 0.24650002 6520961
-0.088518552 0.034061931 0.24650002 6651777
-0.087979466 0.034061931 0.24650002 6980228
-0.087440372 0.034061931 0.24650002 6782849
-0.086901277 0.034061931 0.24650002 6979713
-0.086362191 0.034061931 0.24650002 7045506
-0.085823096 0.034061931 0.24650002 7177094
-0.085284002 0.034061931 0.24650002 6783361
-0.084658958 0.034027386 0.24625002 6849922
-0.084205814 0.034061931 0.24650002 6718338
-0.083666727 0.034061931 0.24650002 6389888
-0.083127633 0.034061931 0.24650002 6849924
-0.082588539 0.034061931 0.24650002 6783363
-0.08213266 0.034096476 0.24675001 6914949
-0.081593022 0.034096476 0.24675001 6914949
-0.081135496 0.03413102 0.24700001 6980742
-0.080595315 0.03413102 0.24700001 6849156
-0.080055133 0.03413102 0.24700001 6980226
-0.079514943 0.03413102 0.24700001 7177603
-0.078974761 0.03413102 0.24700001 6980740
-0.078434572 0.03413102 0.24700001 6980228
-0.07789439 0.03413102 0.24700001 7242887
-0.0773542 0.03413102 0.24700001 7439494
-0.076891758 0.034165565 0.24725001 7177094
-0.076428227 0.034200113 0.24750002 7836049
-0.076040253 0.034269203 0.24800001 8561057
-0.075573988 0.034303747 0.24825001 8496034
-0.075182192 0.03437284 0.24875002 6915717
-0.075388305 0.034718294 0.25125 6849154
-0.075955831 0.035236482 0.25500003 6784129
-0.076654784 0.035823755 0.25925002 6718849
-0.076161176 0.035858303 0.25950003 6718851
-0.07566648 0.035892844 0.25975001 6587265
-0.075170688 0.035927393 0.26000002 6718851
-0.074673802 0.035961937 0.26025 6191996
-0.074104644 0.035961937 0.26025 6520957
-0.073606119 0.035996482 0.26050001 8166295
-0.073106505 0.03603103 0.26075003 7837332
-0.072536252 0.03603103 0.26075003 7969688
-0.072034992 0.036065571 0.26100001 7968918
-0.071464181 0.036065571 0.26100001 7968920
-0.070893377 0.036065571 0.26100001 7706264
-0.070322573 0.036065571 0.26100001 8034461
-0.069751769 0.036065571 0.26100001 7968920
-0.069180965 0.036065571 0.26100001 7771539
-0.068544447 0.03603103 0.26075003 8034713
-0.067974195 0.03603103 0.26075003 7771541
-0.067403935 0.03603103 0.26075003 7837334
-0.06689775 0.036065571 0.26100001 7902612
-0.066326946 0.036065571 0.26100001 8033426
-0.065819129 0.036100119 0.26125002 8165014
-0.065247782 0.036100119 0.26125002 7967635
-0.064738318 0.036134664 0.2615 7901842
-0.064227767 0.036169209 0.26175001 7705233
-0.063655324 0.036169209 0.26175001 7770774
-0.063082881 0.036169209 0.26175001 7705235
-0.062510438 0.036169209 0.26175001 7705231
-0.061937992 0.036169209 0.26175001 7705231
-0.061365545 0.036169209 0.26175001 7901842
-0.060851172 0.036203757 0.26200002 7835535
-0.060278181 0.036203757 0.26200002 7770254
-0.059762157 0.036238302 0.26225001 8166036
-0.059245043 0.036272846 0.26250002 6915199
-0.059285611 0.036652852 0.26525003 6848377
-0.060531415 0.037792854 0.27350003 6979963
-0.06206983 0.039140128 0.28325 6848377
-0.062101215 0.039554678 0.28625003 6848377
-0.062656365 0.040314678 0.29175001 6781816
-0.06382519 0.041489229 0.30025002 6584953
-0.067113288 0.044080146 0.31900001 6650746
-0.071776785 0.047638338 0.34475002 6715769
-0.074112996 0.049711071 0.35975 6781816
-0.075568311 0.051231079 0.37075001 6782332
-0.074807897 0.051265623 0.37100002 6782334
-0.074046388 0.051300168 0.37125 6585720
-0.073234469 0.051300168 0.37125 6454648
-0.072471321 0.051334713 0.37150002 6258298
-0.071707077 0.051369261 0.37175003 6324345
-0.070941739 0.051403806 0.37200001 6192246
-0.070175312 0.05143835 0.37225002 6058863
-0.069454364 0.051507443 0.37275001 6320498
-0.068685204 0.051541988 0.37300003 6717306
-0.067914948 0.051576532 0.37325001 6389884
-0.067143597 0.051611081 0.37350002 6652543
-0.06632676 0.051611081 0.37350002 6652545
-0.065466069 0.051576532 0.37325001 6389373
-0.06460648 0.051541988 0.37300003 6652543
-0.063790724 0.051541988 0.37300003 6652543
-0.062974982 0.051541988 0.37300003 6652543
-0.062159237 0.051541988 0.37300003 6783361
-0.061343491 0.051541988 0.37300003 6783359
-0.060527742 0.051541988 0.37300003 6651775
-0.059711996 0.051541988 0.37300003 6717052
-0.058896251 0.051541988 0.37300003 6848125
-0.058119431 0.051576532 0.37325001 6782847
-0.057303138 0.051576532 0.37325001 6585982
-0.056486841 0.051576532 0.37325001 6717054
-0.055670548 0.051576532 0.37325001 6651261
-0.054891001 0.051611081 0.37350002 6782847
-0.054074161 0.051611081 0.37350002 6520189
-0.053292967 0.051645625 0.37375003 6323578
-0.052475583 0.051645625 0.37375003 6454648
-0.051658198 0.051645625 0.37375003 6454648
-0.05084081 0.051645625 0.37375003 6651513
-0.050023422 0.051645625 0.37375003 6651513
-0.049206037 0.051645625 0.37375003 6585980
-0.04835628 0.051611081 0.37350002 6454396
-0.047539443 0.051611081 0.37350002 6520189
-0.046753872 0.051645625 0.37375003 6519675
-0.045936488 0.051645625 0.37375003 6454396
-0.045119103 0.051645625 0.37375003 6455164
-0.044331346 0.05168017 0.37400001 6454396
-0.043513414 0.05168017 0.37400001 6585470
-0.042695481 0.05168017 0.37400001 6651261
-0.041849557 0.051645625 0.37375003 6585468
-0.041032169 0.051645625 0.37375003 6650748
-0.040187884 0.051611081 0.37350002 6650748
-0.03937104 0.051611081 0.37350002 6585466
-0.038554203 0.051611081 0.37350002 6454648
-0.037737362 0.051611081 0.37350002 6454394
-0.036920521 0.051611081 0.37350002 6585466
-0.03612785 0.051645625 0.37375003 6651259
-0.035310462 0.051645625 0.37375003 6585980
-0.034516145 0.05168017 0.37400001 6585982
-0.033698212 0.05168017 0.37400001 6520191
-0.03288028 0.05168017 0.37400001 6783363
-0.032062348 0.05168017 0.37400001 6717054
-0.031244416 0.05168017 0.37400001 6782847
-0.03042648 0.05168017 0.37400001 6978943
-0.029608548 0.05168017 0.37400001 6978941
-0.02880986 0.051714718 0.37425002 6848127
-0.027991381 0.051714718 0.37425002 6848125
-0.02719105 0.051749259 0.37450001 6848125
-0.026372025 0.051749259 0.37450001 6980224
-0.025570055 0.051783808 0.37475002 6914431
-0.024750482 0.051783808 0.37475002 6980226
-0.023930907 0.051783808 0.37475002 6980226
-0.023111334 0.051783808 0.37475002 6914433
-0.022291761 0.051783808 0.37475002 6978943
-0.022918945 0.055272907 0.40000001 6717052
-0.025447218 0.06380567 0.46175003 7045504
-0.025231227 0.065878399 0.47675002 6256501
-0.024454946 0.066603854 0.48200002 4874585
-0.023400819 0.066603854 0.48200002 4808022
-0.022358282 0.066638403 0.48225003 4873815
-0.021325694 0.066707492 0.48275003 5267294
-0.020280423 0.06674204 0.48300001 5794921
-0.01924401 0.066811129 0.48350003 6387574
-0.018196004 0.06684567 0.48375002 6848125
-0.017155761 0.066914767 0.48425001 7571328
-0.016105024 0.066949308 0.48450002 7506558
-0.015053191 0.066983856 0.48475003 7178106
-0.014000266 0.067018405 0.48500001 7111547
-0.012939576 0.067018405 0.48500001 7176310
-0.011878887 0.067018405 0.48500001 7176310
-0.010812622 0.066983856 0.48475003 6912885
-0.0097524803 0.066983856 0.48475003 6781812
-0.0086923381 0.066983856 0.48475003 6453100
-0.0076361313 0.067018405 0.48500001 6452585
-0.0065754429 0.067018405 0.48500001 6321001
-0.0055175968 0.067052945 0.48525003 6320748
-0.0044563608 0.067052945 0.48525003 5925990
-0.003393376 0.067018405 0.48500001 6056806
-0.0023302822 0.066949308 0.48450002 6122338
-0.001262163 0.066500217 0.48125002 5793887
-0.00020945746 0.066431127 0.48075002 5727841
0.00084149896 0.066396579 0.48050001 5727329
0.001891362 0.066362038 0.48025003 5792090
0.002934006 0.066189311 0.47900003 5857630
0.0039607924 0.065843858 0.47650003 5332060
0.0049582701 0.065256581 0.47225001 6122089
0.0058959285 0.064220212 0.46475002 7703947
0.0069520366 0.056309279 0.40750003 7900293
0.0071984525 0.05168017 0.37400001 8032912
0.0080163861 0.05168017 0.37400001 8033426
0.0088343192 0.05168017 0.37400001 8165266
0.0096522523 0.05168017 0.37400001 8033426
0.010463187 0.051645625 0.37375003 7902610
0.011280574 0.051645625 0.37375003 8034196
0.012089868 0.051611081 0.37350002 7902610
0.012906708 0.051611081 0.37350002 7902612
0.013723548 0.051611081 0.37350002 8165016
0.014540387 0.051611081 0.37350002 8296600
0.015346947 0.051576532 0.37325001 8033426
0.016163241 0.051576532 0.37325001 8230805
0.016979534 0.051576532 0.37325001 8165014
0.017795827 0.051576532 0.37325001 8034711
0.01861212 0.051576532 0.37325001 8232092
0.019428413 0.051576532 0.37325001 8362393
0.020258266 0.051611081 0.37350002 8362395
0.021075107 0.051611081 0.37350002 8428186
0.021891946 0.051611081 0.37350002 8428188
0.022723988 0.051645625 0.37375003 8362911
0.023541374 0.051645625 0.37375003 8231325
0.024358759 0.051645625 0.37375003 8297372
0.025176147 0.051645625 0.37375003 8297370
0.025993532 0.051645625 0.37375003 8297883
0.02681092 0.051645625 0.37375003 8232088
0.027628306 0.051645625 0.37375003 8494747
0.028426666 0.051611081 0.37350002 8822430
0.029243505 0.051611081 0.37350002 8822430
0.030060345 0.051611081 0.37350002 8822428
0.030877184 0.051611081 0.37350002 8756889
0.031969812 0.052060172 0.37675002 8689813
0.03557916 0.056482006 0.40875003 9017493
0.037700012 0.058382008 0.42250001 9345431
0.059254181 0.065912947 0.47700003 12371657
0.061055828 0.06674204 0.48300001 12766667
0.062208593 0.06684567 0.48375002 12963276
0.063462727 0.067052945 0.48525003 12766667
0.064523958 0.067052945 0.48525003 12701387
0.065585196 0.067052945 0.48525003 12832460
0.066612095 0.067018405 0.48500001 12766667
0.067637905 0.066983856 0.48475003 12766667
0.068698041 0.066983856 0.48475003 12635594
0.069722205 0.066949308 0.48450002 12635592
0.070781805 0.066949308 0.48450002 12701385
0.071841404 0.066949308 0.48450002 12832458
0.072788142 0.06684567 0.48375002 12635594
0.073846094 0.06684567 0.48375002 12701389
0.074826635 0.066776581 0.48325002 12635594
0.075687215 0.066603854 0.48200002 12635594
0.076582126 0.066465676 0.48100004 12963278
0.077593714 0.066431127 0.48075002 13094862
0.078604214 0.066396579 0.48050001 12963278
0.079696506 0.066431127 0.48075002 12898253
0.080747902 0.066431127 0.48075002 12898253
0.081799291 0.066431127 0.48075002 12832973
0.082721442 0.06632749 0.48000002 12832971
0.0836403 0.066223852 0.47925001 12832711
0.084600054 0.066154763 0.47875002 12832971
0.085602351 0.066120215 0.47850001 12701899
0.086558282 0.066051126 0.47800002 13095630
0.087557852 0.066016585 0.47775003 13029067
0.088556312 0.065982036 0.47750002 12898251
0.089553684 0.065947488 0.47725001 12898253
0.090549968 0.065912947 0.47700003 12701901
0.09149716 0.065843858 0.47650003 12636106
0.092539258 0.065843858 0.47650003 12898251
0.093581356 0.065843858 0.47650003 12832975
0.094673097 0.065878399 0.47675002 12767178
0.095715746 0.065878399 0.47675002 12833224
0.096758388 0.065878399 0.47675002 12964044
0.097852327 0.065912947 0.47700003 12964046
0.09801437 0.06532567 0.47275001 13030352
0.098995894 0.065291122 0.47250003 12701901
0.099976316 0.065256581 0.47225001 12898764
0.10095565 0.065222032 0.47200003 12832973
0.10198791 0.065222032 0.47200003 12767180
0.1029656 0.065187484 0.47175002 12701901
0.1035013 0.064876579 0.46950004 12701385
0.10436112 0.064772941 0.46875003 12832711
0.10448696 0.064220212 0.46475002 13161423
-0.088608332 0.034635704 0.24675001 6782336
-0.088068694 0.034635704 0.24675001 6979715
-0.087529056 0.034635704 0.24675001 6848129
-0.086989418 0.034635704 0.24675001 6847877
-0.08644978 0.034635704 0.24675001 7110277
-0.085823096 0.034600612 0.24650002 6914433
-0.085284002 0.034600612 0.24650002 6849154
-0.084744908 0.034600612 0.24650002 6849154
-0.084205814 0.034600612 0.24650002 6652547
-0.083666727 0.034600612 0.24650002 6784133
-0.083127633 0.034600612 0.24650002 6914435
-0.082588539 0.034600612 0.24650002 7045508
-0.08213266 0.034635704 0.24675001 6783363
-0.081675693 0.034670793 0.24700001 6718340
-0.081135496 0.034670793 0.24700001 6980226
-0.080676891 0.034705885 0.24725001 7046019
-0.080136158 0.034705885 0.24725001 7046019
-0.079595424 0.034705885 0.24725001 7045506
-0.078974761 0.034670793 0.24700001 7177092
-0.078434572 0.034670793 0.24700001 7111814
-0.07789439 0.034670793 0.24700001 7046021
-0.0773542 0.034670793 0.24700001 7111301
-0.076891758 0.034705885 0.24725001 6914949
-0.076428227 0.034740981 0.24750002 7508367
-0.076040253 0.034811161 0.24800001 8758434
