# .PCD v0.7 - Point Cloud Data file format
VERSION 0.7
FIELDS x y z rgb
SIZE 4 4 4 4
TYPE F F F U
COUNT 1 1 1 1
WIDTH 1134
HEIGHT 1
VIEWPOINT 0 0 0 1 0 0 0
POINTS 1134
DATA ascii
0.025905121 -0.11537313 0.27675 5263686
0.026510369 -0.11537313 0.27675 5262914
0.027115619 -0.11537313 0.27675 5328194
0.027720867 -0.11537313 0.27675 5590850
0.028326117 -0.11537313 0.27675 5852995
0.028905232 -0.11526892 0.27650002 5590850
0.029509934 -0.11526892 0.27650002 5394754
0.030114636 -0.11526892 0.27650002 5460547
0.030719336 -0.11526892 0.27650002 5328194
0.03132404 -0.11526892 0.27650002 5656130
0.03192874 -0.11526892 0.27650002 5721669
0.032533444 -0.11526892 0.27650002 5327428
0.033108182 -0.1151647 0.27625 5459010
0.033712339 -0.1151647 0.27625 5590850
0.034316491 -0.1151647 0.27625 5459264
0.034952249 -0.11526892 0.27650002 5327426
0.035556953 -0.11526892 0.27650002 5655878
0.036194351 -0.11537313 0.27675 5459012
0.036799598 -0.11537313 0.27675 5393471
0.037438635 -0.11547736 0.27700001 5262655
0.038044434 -0.11547736 0.27700001 5328196
0.03865023 -0.11547736 0.27700001 5262403
0.039220594 -0.11537313 0.27675 5262403
0.039825842 -0.11537313 0.27675 5261633
0.040431093 -0.11537313 0.27675 5327426
0.040999271 -0.11526892 0.27650002 5196610
0.041603975 -0.11526892 0.27650002 5262401
0.042246837 -0.11537313 0.27675 5393217
0.042929512 -0.11558159 0.27725002 5589569
0.043535851 -0.11558159 0.27725002 5523776
0.044102389 -0.11547736 0.27700001 5459012
0.044506431 -0.11495625 0.27575001 5459010
0.045109496 -0.11495625 0.27575001 5459010
0.045712557 -0.11495625 0.27575001 5459014
0.046315618 -0.11495625 0.27575001 5655880
0.046961218 -0.11506048 0.27600002 5656389
0.04760791 -0.1151647 0.27625 5591368
0.048255697 -0.11526892 0.27650002 5262403
0.048860397 -0.11526892 0.27650002 5459784
0.049465101 -0.11526892 0.27650002 5394500
0.050069802 -0.11526892 0.27650002 5525827
0.050674506 -0.11526892 0.27650002 5657159
0.051232841 -0.1151647 0.27625 5525575
0.051836994 -0.1151647 0.27625 5329481
0.05244115 -0.1151647 0.27625 5460295
0.052997306 -0.11506048 0.27600002 5919565
0.053552359 -0.11495625 0.27575001 5853772
0.054155421 -0.11495625 0.27575001 5591883
0.054758482 -0.11495625 0.27575001 5723469
0.055361547 -0.11495625 0.27575001 5723467
0.055964608 -0.11495625 0.27575001 5657674
0.056567669 -0.11495625 0.27575001 5855055
0.05717073 -0.11495625 0.27575001 5592653
0.057721414 -0.11485203 0.2755 5790030
0.058323927 -0.11485203 0.2755 5657163
0.058872972 -0.11474781 0.27525002 5787979
0.059474941 -0.11474781 0.27525002 5657161
0.060076911 -0.11474781 0.27525002 5592651
0.060678877 -0.11474781 0.27525002 5723467
0.061336502 -0.11485203 0.2755 5461065
0.061995223 -0.11495625 0.27575001 5461324
0.062598288 -0.11495625 0.27575001 5000773
0.063258648 -0.11506048 0.27600002 4539965
0.063862257 -0.11506048 0.27600002 3618863
0.064465865 -0.11506048 0.27600002 2566948
0.065069482 -0.11506048 0.27600002 2237213
0.065613598 -0.11495625 0.27575001 2170395
0.066216655 -0.11495625 0.27575001 2169882
0.066759132 -0.11485203 0.2755 1905938
0.067361653 -0.11485203 0.2755 1907221
0.067902498 -0.11474781 0.27525002 1842198
0.06844224 -0.11464359 0.27500001 2171417
0.069043666 -0.11464359 0.27500001 3355691
0.069645092 -0.11464359 0.27500001 4804934
0.070310369 -0.11474781 0.27525002 5133899
0.070976742 -0.11485203 0.2755 5068106
0.071579255 -0.11485203 0.2755 5067852
0.073229782 -0.11651957 0.27950001 5527887
0.073841043 -0.11651957 0.27950001 5790032
0.074319124 -0.11631113 0.27900001 5986126
0.074727871 -0.11599847 0.27825001 5788747
0.075268716 -0.11589425 0.27800003 6052434
0.075808465 -0.11579002 0.27775002 7303267
0.077310055 -0.11714491 0.28100002 7434855
0.081321664 -0.12225176 0.29325002 7632493
0.085875981 -0.12808816 0.30725002 7763820
0.089223944 -0.13204858 0.31675002 7698029
0.091690876 -0.1346541 0.32300001 7829613
0.092325762 -0.13454989 0.32275 7763820
0.093031608 -0.13454989 0.32275 7960429
0.092720948 -0.13309079 0.31925002 7632236
0.09319967 -0.13277812 0.31850001 8157810
0.093822524 -0.13267389 0.31825 8025457
0.09578076 -0.13444567 0.32250002 7894638
0.096486069 -0.13444567 0.32250002 7894638
0.097116023 -0.13434143 0.32225001 7959918
0.097820789 -0.13434143 0.32225001 8025711
0.098296233 -0.13402878 0.3215 8026224
0.097998574 -0.13267389 0.31825 7960431
0.098694585 -0.13267389 0.31825 7829615
0.099390596 -0.13267389 0.31825 7763822
0.10016523 -0.13277812 0.31850001 7829615
0.10228683 -0.1346541 0.32300001 7764079
0.10315266 -0.13486254 0.32350001 7698802
0.10394041 -0.13496678 0.32375002 7698032
0.10464846 -0.13496678 0.32375002 7763825
0.10535649 -0.13496678 0.32375002 7763825
0.10606453 -0.13496678 0.32375002 7763825
0.10570072 -0.13361189 0.32050002 7829361
0.10623565 -0.13340345 0.32000002 7763570
0.10693549 -0.13340345 0.32000002 7829618
0.10763533 -0.13340345 0.32000002 7763825
0.10850443 -0.13361189 0.32050002 7698029
0.10920537 -0.13361189 0.32050002 7829613
0.11007775 -0.13382034 0.32100001 7829361
0.11198766 -0.13527945 0.32450002 7763574
0.11278415 -0.13538365 0.32475001 7633009
0.11349438 -0.13538365 0.32475001 7763825
0.11429252 -0.13548788 0.32500002 7829361
0.11518022 -0.13569632 0.32550001 7698032
0.11420088 -0.13371612 0.32075003 7763827
0.11463369 -0.13340345 0.32000002 7895156
0.11533353 -0.13340345 0.32000002 7895156
0.11603336 -0.13340345 0.32000002 7960179
0.11691559 -0.13361189 0.32050002 8222838
0.11770827 -0.13371612 0.32075003 7894384
0.11859433 -0.13392456 0.32125002 8025972
0.11985391 -0.13454989 0.32275 8025972
0.12112007 -0.13517521 0.32425001 8223349
0.12192314 -0.13527945 0.32450002 8157556
0.1227273 -0.13538365 0.32475001 7895156
0.12353255 -0.13548788 0.32500002 7895154
0.1250079 -0.13632165 0.32700002 8025970
0.12553081 -0.13611321 0.32650003 8092533
0.12614818 -0.13600899 0.32625002 7829620
0.12657005 -0.13569632 0.32550001 7698551
0.12718417 -0.1355921 0.32525003 7830390
0.12789547 -0.1355921 0.32525003 7961206
0.12860681 -0.1355921 0.32525003 8026742
0.12931812 -0.1355921 0.32525003 8025970
0.13002944 -0.1355921 0.32525003 8025970
0.1301378 -0.13496678 0.32375002 7960431
0.13054271 -0.1346541 0.32300001 7763568
0.13114752 -0.13454989 0.32275 8026742
0.13185337 -0.13454989 0.32275 7829110
0.13255921 -0.13454989 0.32275 7829363
0.13326508 -0.13454989 0.32275 7632241
0.13397092 -0.13454989 0.32275 7698032
0.13467677 -0.13454989 0.32275 7763568
0.13538262 -0.13454989 0.32275 7895154
0.13629931 -0.13475834 0.32325003 7894384
0.1371122 -0.13486254 0.32350001 7763317
0.13792621 -0.13496678 0.32375002 7828593
0.13863423 -0.13496678 0.32375002 7631982
0.13934228 -0.13496678 0.32375002 7764079
0.14005032 -0.13496678 0.32375002 8091504
0.14086704 -0.13507099 0.324 8025970
0.14157562 -0.13507099 0.324 7960177
0.1422842 -0.13507099 0.324 8025970
0.14288247 -0.13496678 0.32375002 7895154
0.14347962 -0.13486254 0.32350001 7960179
0.14418711 -0.13486254 0.32350001 7960177
0.14478263 -0.13475834 0.32325003 7895154
0.14548957 -0.13475834 0.32325003 7763825
0.14608344 -0.1346541 0.32300001 7763825
0.14678985 -0.1346541 0.32300001 7698032
0.14749624 -0.1346541 0.32300001 7566448
0.14820263 -0.1346541 0.32300001 7961725
0.14890903 -0.1346541 0.32300001 8685966
0.14949962 -0.13454989 0.32275 8687766
0.15008913 -0.13444567 0.32250002 8425108
-0.14107856 -0.12316604 0.29700002 4474170
-0.14184749 -0.12441014 0.30000001 5065024
-0.14119139 -0.12441014 0.30000001 5130047
-0.14065242 -0.12451382 0.30025002 5523780
-0.14011234 -0.12461749 0.30050001 5326399
-0.13945515 -0.12461749 0.30050001 5326911
-0.13891344 -0.12472117 0.30075002 5655614
-0.13837063 -0.12482484 0.30100003 5392442
-0.13782673 -0.12492851 0.30125001 5326651
-0.13887537 -0.12648363 0.30500001 5655362
-0.1384349 -0.12669098 0.3055 5458235
-0.13776678 -0.12669098 0.3055 5589053
-0.13721086 -0.12679467 0.30575001 5719872
-0.13654219 -0.12679467 0.30575001 5654592
-0.13587351 -0.12679467 0.30575001 5524544
-0.13509429 -0.12669098 0.3055 5787200
-0.13431616 -0.12658732 0.30525002 5918016
-0.13353911 -0.12648363 0.30500001 5785917
-0.13145624 -0.12513587 0.30175 5392956
-0.13068795 -0.1250322 0.30150002 5590848
-0.13013639 -0.12513587 0.30175 5787454
-0.12947647 -0.12513587 0.30175 5458751
-0.12892328 -0.12523954 0.30200002 5262401
-0.12836899 -0.12534322 0.30225003 5524290
-0.12770797 -0.12534322 0.30225003 5589571
-0.12715203 -0.12544689 0.30250001 5458497
-0.12659501 -0.12555057 0.30275002 5392958
-0.12614088 -0.12575792 0.30325001 4999483
-0.125788 -0.12606895 0.30400002 5460032
-0.12532896 -0.1262763 0.30450001 5786430
-0.12476537 -0.12637997 0.30475003 5851712
-0.12409889 -0.12637997 0.30475003 5786948
-0.12322988 -0.12617262 0.30425 5656128
-0.12256449 -0.12617262 0.30425 5524542
-0.12219959 -0.12648363 0.30500001 5458497
-0.12193103 -0.12689835 0.30600002 5393217
-0.12165809 -0.12731305 0.30700001 5262655
-0.12098669 -0.12731305 0.30700001 5328448
-0.12031528 -0.12731305 0.30700001 5262401
-0.11964387 -0.12731305 0.30700001 5393471
-0.1188756 -0.12720938 0.30675003 5983811
-0.11820474 -0.12720938 0.30675003 5719872
-0.11753387 -0.12720938 0.30675003 5785665
-0.11676777 -0.1271057 0.30650002 5918018
-0.11609746 -0.1271057 0.30650002 5524030
-0.11533299 -0.12700202 0.30625001 5786948
-0.11456963 -0.12689835 0.30600002 5524290
-0.11380736 -0.12679467 0.30575001 5327678
-0.11313868 -0.12679467 0.30575001 5326911
-0.11247002 -0.12679467 0.30575001 5458499
-0.11189276 -0.12689835 0.30600002 5326911
-0.1113144 -0.12700202 0.30625001 5327163
-0.11064464 -0.12700202 0.30625001 5458235
-0.11006466 -0.1271057 0.30650002 5458235
-0.1095728 -0.12731305 0.30700001 5523776
-0.10899008 -0.12741672 0.30725002 5523010
-0.10831813 -0.12741672 0.30725002 5193791
-0.10720824 -0.12689835 0.30600002 5326399
-0.10601676 -0.1262763 0.30450001 5589053
-0.10535082 -0.1262763 0.30450001 5457983
-0.10468488 -0.1262763 0.30450001 5458497
-0.10436055 -0.12669098 0.3055 5261631
-0.10411671 -0.12720938 0.30675003 5393471
-0.10353015 -0.12731305 0.30700001 5261883
-0.10294251 -0.12741672 0.30725002 5392958
-0.10235377 -0.1275204 0.3075 5458751
-0.10176395 -0.12762406 0.30775002 5261885
-0.10117301 -0.12772775 0.30800003 5459780
-0.10058099 -0.12783141 0.30825001 5393217
-0.099906854 -0.12783141 0.30825001 5327165
-0.0993132 -0.1279351 0.30850002 5524544
-0.09863852 -0.1279351 0.30850002 5458751
-0.097963832 -0.1279351 0.30850002 5327424
-0.097289152 -0.1279351 0.30850002 5459264
-0.096614465 -0.1279351 0.30850002 5196090
-0.09593977 -0.1279351 0.30850002 5131328
-0.094493084 -0.12689835 0.30600002 5196862
-0.093670554 -0.12669098 0.3055 5065535
-0.092317477 -0.12575792 0.30325001 5196608
-0.091729835 -0.1258616 0.30350003 5327678
-0.091066085 -0.1258616 0.30350003 5261885
-0.090476796 -0.12596527 0.30375001 5327678
-0.090403862 -0.12679467 0.30575001 5327676
-0.090762407 -0.12824613 0.30925003 5392956
-0.09008608 -0.12824613 0.30925003 5327676
-0.089409754 -0.12824613 0.30925003 5131069
-0.088733435 -0.12824613 0.30925003 5130815
-0.087985918 -0.12814245 0.30900002 5393471
-0.087239496 -0.12803876 0.30875 5326911
-0.086424083 -0.12783141 0.30825001 5327678
-0.085610852 -0.12762406 0.30775002 5262401
-0.084799811 -0.12741672 0.30725002 5589823
-0.084059395 -0.12731305 0.30700001 5392958
-0.083387993 -0.12731305 0.30700001 5261883
-0.082783952 -0.12741672 0.30725002 5065789
-0.082245626 -0.12762406 0.30775002 5196862
-0.082301497 -0.1287645 0.31050003 5327678
-0.081688158 -0.12886816 0.31075001 5327678
-0.081073724 -0.12897184 0.31100002 5195579
-0.080393575 -0.12897184 0.31100002 5261372
-0.079328939 -0.1283498 0.30950001 5327165
-0.078461468 -0.12803876 0.30875 5327165
-0.077786237 -0.12803876 0.30875 5261372
-0.077111006 -0.12803876 0.30875 5327424
-0.076435775 -0.12803876 0.30875 5458497
-0.07588324 -0.12824613 0.30925003 5261631
-0.075571693 -0.12886816 0.31075001 5262655
-0.075012587 -0.12907551 0.31125 5196862
-0.074331895 -0.12907551 0.31125 5131069
-0.073710352 -0.12917919 0.31150001 5130815
-0.073029101 -0.12917919 0.31150001 5195838
-0.072289787 -0.12907551 0.31125 5262401
-0.071551576 -0.12897184 0.31100002 5196610
-0.070814453 -0.12886816 0.31075001 5196610
-0.070134841 -0.12886816 0.31075001 5393219
-0.069511116 -0.12897184 0.31100002 5195840
-0.068941623 -0.12917919 0.31150001 5262655
-0.068260379 -0.12917919 0.31150001 5196860
-0.067524895 -0.12907551 0.31125 5131069
-0.06636098 -0.12814245 0.30900002 5065789
-0.065047488 -0.12689835 0.30600002 3026204
-0.064273074 -0.12669098 0.3055 3551013
-0.062355753 -0.1242028 0.29950002 4274223
-0.057838012 -0.11642715 0.28075001 3947054
-0.057224017 -0.11642715 0.28075001 3815470
-0.056610022 -0.11642715 0.28075001 3945773
-0.055996023 -0.11642715 0.28075001 4274223
-0.055332713 -0.11632349 0.28050002 4143150
-0.054719262 -0.11632349 0.28050002 4012588
-0.054105815 -0.11632349 0.28050002 4078379
-0.053492364 -0.11632349 0.28050002 4011564
-0.052878913 -0.11632349 0.28050002 4076844
-0.052218877 -0.1162198 0.28025001 3946025
-0.051559936 -0.11611613 0.28 4340783
-0.05094758 -0.11611613 0.28 4143404
-0.050290283 -0.11601246 0.27975002 3947308
-0.049678475 -0.11601246 0.27975002 3947054
-0.049066667 -0.11601246 0.27975002 4208430
-0.048454858 -0.11601246 0.27975002 3551013
-0.047843043 -0.11601246 0.27975002 2301716
-0.047231235 -0.11601246 0.27975002 1710092
-0.046619426 -0.11601246 0.27975002 2960929
-0.045966502 -0.11590878 0.27950001 3420197
-0.045274101 -0.11570143 0.27900001 3617576
-0.044623908 -0.11559775 0.27875 3551013
-0.043974813 -0.11549408 0.27850002 3747879
-0.04332681 -0.11539041 0.27825001 3550500
-0.04271828 -0.11539041 0.27825001 3747881
-0.04210975 -0.11539041 0.27825001 3813672
-0.04150122 -0.11539041 0.27825001 3551013
-0.040892694 -0.11539041 0.27825001 3551013
-0.040284164 -0.11539041 0.27825001 3550502
-0.039675631 -0.11539041 0.27825001 3747879
-0.039067104 -0.11539041 0.27825001 3616293
-0.038458575 -0.11539041 0.27825001 3616293
-0.037884057 -0.11549408 0.27850002 3944744
-0.037274975 -0.11549408 0.27850002 3616293
-0.036698814 -0.11559775 0.27875 3551013
-0.036089189 -0.11559775 0.27875 3682853
-0.035511389 -0.11570143 0.27900001 3616293
-0.034901217 -0.11570143 0.27900001 3551013
-0.034291051 -0.11570143 0.27900001 3354919
-0.033680882 -0.11570143 0.27900001 3092519
-0.03307071 -0.11570143 0.27900001 3158310
-0.032460541 -0.11570143 0.27900001 3355689
-0.031821832 -0.11559775 0.27875 3354919
-0.031212209 -0.11559775 0.27875 3551785
-0.030602586 -0.11559775 0.27875 3618089
-0.029966066 -0.11549408 0.27850002 3420197
-0.029356988 -0.11549408 0.27850002 3551015
-0.028722106 -0.11539041 0.27825001 3681574
-0.028113576 -0.11539041 0.27825001 3878183
-0.027505048 -0.11539041 0.27825001 3878953
-0.026896518 -0.11539041 0.27825001 3551785
-0.02628799 -0.11539041 0.27825001 3354406
-0.025679458 -0.11539041 0.27825001 3354921
-0.02507093 -0.11539041 0.27825001 3354406
-0.024462402 -0.11539041 0.27825001 3682601
-0.023875305 -0.11549408 0.27850002 3813674
-0.02326623 -0.11549408 0.27850002 3550502
-0.022657152 -0.11549408 0.27850002 3354921
-0.022048078 -0.11549408 0.27850002 3486505
-0.021439001 -0.11549408 0.27850002 3419681
-0.020811226 -0.11539041 0.27825001 3616547
-0.020202696 -0.11539041 0.27825001 3878951
-0.019611774 -0.11549408 0.27850002 3616293
-0.019002696 -0.11549408 0.27850002 3550500
-0.018393621 -0.11549408 0.27850002 3615779
-0.017784543 -0.11549408 0.27850002 3747881
-0.017160049 -0.11539041 0.27825001 3616293
-0.016551521 -0.11539041 0.27825001 3682599
-0.015942991 -0.11539041 0.27825001 3551013
-0.015334463 -0.11539041 0.27825001 3485220
-0.014725934 -0.11539041 0.27825001 3747367
-0.014117404 -0.11539041 0.27825001 3878953
-0.013508875 -0.11539041 0.27825001 3616293
-0.012900345 -0.11539041 0.27825001 3747879
-0.012302861 -0.11549408 0.27850002 3879467
-0.011693784 -0.11549408 0.27850002 4009767
-0.011084708 -0.11549408 0.27850002 4010791
-0.010475633 -0.11549408 0.27850002 3944998
-0.0098665562 -0.11549408 0.27850002 3681574
-0.0092491694 -0.11539041 0.27825001 3944746
-0.0086328778 -0.11528674 0.27800003 4010537
-0.0080248946 -0.11528674 0.27800003 3813672
-0.0074102422 -0.11518306 0.27775002 3814439
-0.0068028062 -0.11518306 0.27775002 4142377
-0.0061953706 -0.11518306 0.27775002 4010537
-0.0055879345 -0.11518306 0.27775002 4142377
-0.0049804989 -0.11518306 0.27775002 4077098
-0.0043730629 -0.11518306 0.27775002 4142377
-0.0037656275 -0.11518306 0.27775002 4405295
-0.0031581917 -0.11518306 0.27775002 4274225
-0.0025530518 -0.11528674 0.27800003 4011566
-0.0019450692 -0.11528674 0.27800003 4274738
-0.0013370867 -0.11528674 0.27800003 4076844
-0.0007291041 -0.11528674 0.27800003 4470572
-0.00012112153 -0.11528674 0.27800003 4536111
0.00048686104 -0.11528674 0.27800003 4471092
0.001093859 -0.11518306 0.27775002 4209715
0.0017012947 -0.11518306 0.27775002 4274736
0.0023066525 -0.11507937 0.2775 4669235
0.0029135414 -0.11507937 0.2775 4407607
0.0035172591 -0.11497571 0.27725002 4538680
0.0041273194 -0.11507937 0.2775 4866873
0.0047342088 -0.11507937 0.2775 4801080
0.0053410977 -0.11507937 0.2775 4734776
0.0059533454 -0.11518306 0.27775002 4931639
0.0065607815 -0.11518306 0.27775002 4802104
0.0071682171 -0.11518306 0.27775002 4868410
0.0077686533 -0.11507937 0.2775 4737846
0.0083755422 -0.11507937 0.2775 4999994
0.0089824311 -0.11507937 0.2775 4933436
0.00958932 -0.11507937 0.2775 5195840
0.01019621 -0.11507937 0.2775 4933949
0.010803099 -0.11507937 0.2775 5196862
0.011409988 -0.11507937 0.2775 5195838
0.012016877 -0.11507937 0.2775 5261885
0.012623766 -0.11507937 0.2775 5327678
0.013230654 -0.11507937 0.2775 4999231
0.013837544 -0.11507937 0.2775 5197125
0.014444433 -0.11507937 0.2775 5393221
0.015051322 -0.11507937 0.2775 5523780
0.015658211 -0.11507937 0.2775 5261635
0.0162651 -0.11507937 0.2775 5130815
0.01685679 -0.11497571 0.27725002 5394754
0.017447386 -0.11487203 0.27700001 5262914
0.01805318 -0.11487203 0.27700001 5130815
0.018642135 -0.11476835 0.27675 5394500
0.019247383 -0.11476835 0.27675 5526086
0.019834701 -0.11466468 0.27650002 5328194
0.020439401 -0.11466468 0.27650002 5656393
0.021044105 -0.11466468 0.27650002 5656391
0.021648806 -0.11466468 0.27650002 5460034
0.02225351 -0.11466468 0.27650002 5460034
0.02285821 -0.11466468 0.27650002 5459780
0.023462912 -0.11466468 0.27650002 5459782
0.024067614 -0.11466468 0.27650002 5525573
0.024672316 -0.11466468 0.27650002 5590596
0.025299871 -0.11476835 0.27675 5655878
0.025905121 -0.11476835 0.27675 5459012
0.026510369 -0.11476835 0.27675 5132100
0.027115619 -0.11476835 0.27675 5133127
0.027720867 -0.11476835 0.27675 5067334
0.028326117 -0.11476835 0.27675 5394500
0.028931364 -0.11476835 0.27675 5459780
0.029536614 -0.11476835 0.27675 5394500
0.030141862 -0.11476835 0.27675 5394502
0.03074711 -0.11476835 0.27675 5459014
0.03135236 -0.11476835 0.27675 5590598
0.03192874 -0.11466468 0.27650002 5459782
0.032533444 -0.11466468 0.27650002 5722184
0.033138145 -0.11466468 0.27650002 5459780
0.033742849 -0.11466468 0.27650002 5591368
0.034347549 -0.11466468 0.27650002 5525577
0.034952249 -0.11466468 0.27650002 5525577
0.035589103 -0.11476835 0.27675 5459012
0.036227047 -0.11487203 0.27700001 5787464
0.036832843 -0.11487203 0.27700001 5525575
0.037438635 -0.11487203 0.27700001 5329736
0.038044434 -0.11487203 0.27700001 5263945
0.03865023 -0.11487203 0.27700001 5395277
0.039256025 -0.11487203 0.27700001 5395274
0.039825842 -0.11476835 0.27675 5657674
0.040431093 -0.11476835 0.27675 5591883
0.041036341 -0.11476835 0.27675 5461067
0.041679207 -0.11487203 0.27700001 5591883
0.042475816 -0.11539041 0.27825001 5590598
0.043161768 -0.11559775 0.27875 5721671
0.04377139 -0.11559775 0.27875 5655876
0.044261605 -0.11528674 0.27800003 5787979
0.044788882 -0.11507937 0.2775 5855055
0.045150395 -0.11445733 0.27600002 5920846
0.045712557 -0.11435366 0.27575001 5920848
0.046357609 -0.11445733 0.27600002 5790032
0.047003753 -0.114561 0.27625 5527887
0.047650997 -0.11466468 0.27650002 5527885
0.048299324 -0.11476835 0.27675 5462862
0.048904572 -0.11476835 0.27675 5397071
0.04950982 -0.11476835 0.27675 5593678
0.050115068 -0.11476835 0.27675 5659469
0.050674506 -0.11466468 0.27650002 5724494
0.051279206 -0.11466468 0.27650002 5658703
0.051836994 -0.114561 0.27625 5790035
0.05244115 -0.114561 0.27625 5790289
0.053045306 -0.114561 0.27625 5658449
0.053600915 -0.11445733 0.27600002 5462610
0.054155421 -0.11435366 0.27575001 5397071
0.054758482 -0.11435366 0.27575001 5527887
0.055361547 -0.11435366 0.27575001 5593426
0.055964608 -0.11435366 0.27575001 5724242
0.056567669 -0.11435366 0.27575001 5724242
0.05717073 -0.11435366 0.27575001 5724242
0.057721414 -0.11424997 0.2755 5724496
0.058872972 -0.11414631 0.27525002 5592399
0.059474941 -0.11414631 0.27525002 5525836
0.060076911 -0.11414631 0.27525002 5591883
0.061560679 -0.11580511 0.27925003 5855053
0.062171396 -0.11580511 0.27925003 5461067
0.062782109 -0.11580511 0.27925003 5066309
0.063336074 -0.11570143 0.27900001 3946804
0.063888945 -0.11559775 0.27875 3222568
0.06444072 -0.11549408 0.27850002 1907221
0.065108187 -0.11559775 0.27875 1579285
0.065717809 -0.11559775 0.27875 1513235
0.066386923 -0.11570143 0.27900001 1842200
0.066997088 -0.11570143 0.27900001 2104600
0.067546673 -0.11559775 0.27875 1907221
0.068095177 -0.11549408 0.27850002 1973016
0.068580911 -0.11528674 0.27800003 2104602
0.069064446 -0.11507937 0.2775 2301466
0.069483034 -0.11476835 0.27675 1774093
0.069898345 -0.11445733 0.27600002 4471606
0.070438094 -0.11435366 0.27575001 5000519
0.071105562 -0.11445733 0.27600002 5198920
0.07274843 -0.11611613 0.28 5133899
0.073295288 -0.11601246 0.27975002 5527887
0.0739071 -0.11601246 0.27975002 5724237
0.074452311 -0.11590878 0.27950001 5723465
0.074862152 -0.11559775 0.27875 5790028
0.075336404 -0.11539041 0.27825001 7040352
0.079648614 -0.12005579 0.28950003 7632232
0.085065372 -0.12720938 0.30675003 7632493
0.08860109 -0.13146004 0.317 7566441
0.090984479 -0.13394825 0.32300001 7894638
0.091690876 -0.13394825 0.32300001 7763822
0.09239728 -0.13394825 0.32300001 7763568
0.093031608 -0.13384457 0.32275 7763568
0.093737461 -0.13384457 0.32275 7698286
0.094370157 -0.1337409 0.32250002 7960431
0.095075458 -0.1337409 0.32250002 8091504
0.097117238 -0.13560705 0.32700002 7959918
0.098056771 -0.13591808 0.32775003 7959918
0.098622866 -0.13571072 0.32725 7959918
0.099186786 -0.13550338 0.32675001 7960431
0.09898416 -0.13425928 0.32375002 7960431
0.099692196 -0.13425928 0.32375002 8026224
0.1003227 -0.1341556 0.32350001 7894638
0.10095212 -0.13405193 0.32325003 7960431
0.10165906 -0.13405193 0.32325003 7895408
0.10331603 -0.13529603 0.32625002 7895408
0.10394982 -0.13519235 0.32600001 7829618
0.104422 -0.13488133 0.32525003 7829361
0.10489089 -0.1345703 0.32450002 7894386
0.10551921 -0.13446662 0.32425001 7698032
0.10614643 -0.13436295 0.324 7567216
0.10677256 -0.13425928 0.32375002 7698034
0.10714861 -0.13384457 0.32275 7895156
0.10760384 -0.13353355 0.32200003 7895154
0.10906485 -0.13446662 0.32425001 7829361
0.10994326 -0.13467397 0.32475001 7829872
0.11065349 -0.13467397 0.32475001 7829615
0.11144944 -0.13477765 0.32500002 7763568
0.11216021 -0.13477765 0.32500002 7829620
0.11287098 -0.13477765 0.32500002 7829615
0.11366913 -0.13488133 0.32525003 7829361
0.11446836 -0.134985 0.32550001 7763568
0.11535715 -0.13519235 0.32600001 7763827
0.11615912 -0.13529603 0.32625002 7763827
0.11687263 -0.13529603 0.32625002 7566195
0.11758614 -0.13529603 0.32625002 7895156
0.11820898 -0.13519235 0.32600001 7960179
0.11883075 -0.13508868 0.32575002 8025459
0.11954316 -0.13508868 0.32575002 8025459
0.12016327 -0.134985 0.32550001 8091250
0.1207823 -0.13488133 0.32525003 8222836
0.12140023 -0.13477765 0.32500002 8026742
0.122111 -0.13477765 0.32500002 7895156
0.12282178 -0.13477765 0.32500002 7961204
0.12476788 -0.13612543 0.32825002 7961204
0.12529461 -0.13591808 0.32775003 7961204
0.12572303 -0.13560705 0.32700002 7895156
0.12624486 -0.13539971 0.32650003 7895156
0.12686169 -0.13529603 0.32625002 7567988
0.12747742 -0.13519235 0.32600001 7567988
0.12799378 -0.134985 0.32550001 7829620
0.13018844 -0.13654013 0.32925001 8092535
0.1308091 -0.13643646 0.32900003 8025972
0.13132872 -0.1362291 0.3285 8025206
0.13194665 -0.13612543 0.32825002 7895156
0.1310479 -0.13446662 0.32425001 7895154
0.13145228 -0.1341556 0.32350001 7829361
0.13205764 -0.13405193 0.32325003 8026742
0.13276458 -0.13405193 0.32325003 7960179
0.13347153 -0.13405193 0.32325003 7763317
0.13417847 -0.13405193 0.32325003 7370356
0.13519837 -0.13436295 0.324 7698034
0.13632643 -0.13477765 0.32500002 7893871
0.13735344 -0.13508868 0.32575002 7894384
0.13827777 -0.13529603 0.32625002 7762800
0.13888475 -0.13519235 0.32600001 7894386
0.13874128 -0.13436295 0.324 7698029
0.13944988 -0.13436295 0.324 7829615
0.14015846 -0.13436295 0.324 8157810
0.14097574 -0.13446662 0.32425001 7829361
0.14168487 -0.13446662 0.32425001 7697775
0.14239399 -0.13446662 0.32425001 7632241
0.14299279 -0.13436295 0.324 7567218
0.14359049 -0.13425928 0.32375002 7698034
0.14418711 -0.1341556 0.32350001 7895156
0.14489459 -0.1341556 0.32350001 7960179
0.14548957 -0.13405193 0.32325003 8091252
0.14619651 -0.13405193 0.32325003 8025457
0.14678985 -0.13394825 0.32300001 7960179
0.14749624 -0.13394825 0.32300001 8291462
0.14820263 -0.13394825 0.32300001 8425108
0.14890903 -0.13394825 0.32300001 8162452
0.14961542 -0.13394825 0.32300001 8359831
-0.14326596 -0.12499209 0.303 4408379
-0.14205778 -0.12509523 0.30325001 5130047
-0.14151114 -0.12519836 0.30350003 5326397
-0.14096341 -0.12530148 0.30375001 5326651
-0.14041458 -0.12540461 0.30400002 5524796
-0.13986465 -0.12550774 0.30425 5392442
-0.13999993 -0.12622964 0.30600002 5523260
-0.14046903 -0.12726094 0.30850002 5589053
-0.13968106 -0.12715781 0.30825001 5655098
-0.13855596 -0.1267453 0.30725002 5589305
-0.13743524 -0.12633277 0.30625001 5392958
-0.13676547 -0.12633277 0.30625001 5459003
-0.13620681 -0.12643591 0.30650002 5524542
-0.1357576 -0.12664215 0.30700001 5656128
-0.13508619 -0.12664215 0.30700001 5720637
-0.13430533 -0.12653904 0.30675003 5654844
-0.13287209 -0.12581713 0.30500001 5458235
-0.13209669 -0.125714 0.30475003 5131067
-0.13121457 -0.12550774 0.30425 5262653
-0.13033465 -0.12530148 0.30375001 5197121
-0.12924345 -0.12488897 0.30275002 5262914
-0.12858135 -0.12488897 0.30275002 5393217
-0.12802486 -0.12499209 0.303 5590598
-0.12767744 -0.12530148 0.30375001 5328194
-0.12732677 -0.12561087 0.30450001 5459780
-0.12697281 -0.12592027 0.30525002 5392958
-0.12661555 -0.12622964 0.30600002 5262655
-0.12646084 -0.1267453 0.30725002 5196608
-0.12609594 -0.12705468 0.30800003 5589571
-0.12521872 -0.12684841 0.3075 5655876
-0.12444498 -0.1267453 0.30725002 5524542
-0.12367231 -0.12664215 0.30700001 5459003
-0.1230009 -0.12664215 0.30700001 5656641
-0.12252872 -0.12684841 0.3075 5393217
-0.12185623 -0.12684841 0.3075 5459264
-0.12118373 -0.12684841 0.3075 5459010
-0.12041327 -0.1267453 0.30725002 5328194
-0.11974131 -0.1267453 0.30725002 5261885
-0.11906936 -0.1267453 0.30725002 5589823
-0.11839741 -0.1267453 0.30725002 5983811
-0.11772545 -0.1267453 0.30725002 5655876
-0.11695825 -0.12664215 0.30700001 5589569
-0.11619216 -0.12653904 0.30675003 5524544
-0.11542715 -0.12643591 0.30650002 5459010
-0.11466323 -0.12633277 0.30625001 5327424
-0.11390042 -0.12622964 0.30600002 5524542
-0.1132312 -0.12622964 0.30600002 5655616
-0.11256199 -0.12622964 0.30600002 5589571
-0.11198416 -0.12633277 0.30625001 5457985
-0.11140528 -0.12643591 0.30650002 5655876
-0.11082529 -0.12653904 0.30675003 5392956
-0.11033398 -0.1267453 0.30725002 5524028
-0.10975125 -0.12684841 0.3075 5523776
-0.10907876 -0.12684841 0.3075 5130049
-0.10964016 -0.12829222 0.31100002 5193791
-0.10896 -0.12829222 0.31100002 5457215
-0.10827985 -0.12829222 0.31100002 5457467
-0.10759969 -0.12829222 0.31100002 5392444
-0.10700548 -0.12839535 0.31125 5589823
-0.10641019 -0.12849848 0.31150001 5261118
-0.1058138 -0.12860161 0.31175002 5327424
-0.10513201 -0.12860161 0.31175002 5261885
-0.10445022 -0.12860161 0.31175002 5327678
-0.10376842 -0.12860161 0.31175002 5392958
-0.10316929 -0.12870473 0.31200001 5327678
-0.10248695 -0.12870473 0.31200001 5590850
-0.10188618 -0.12880787 0.31225002 5589569
-0.10128432 -0.12891099 0.3125 5458237
-0.10068137 -0.12901412 0.31275001 5524544
-0.10007733 -0.12911725 0.31300002 5393217
-0.099392802 -0.12911725 0.31300002 5393217
-0.098708279 -0.12911725 0.31300002 5393471
-0.097945452 -0.12901412 0.31275001 5131067
-0.097183719 -0.12891099 0.3125 5065789
-0.095265083 -0.12726094 0.30850002 5262653
-0.094513744 -0.12715781 0.30825001 5458749
-0.093839608 -0.12715781 0.30825001 5458751
-0.093241036 -0.12726094 0.30850002 5327424
-0.092566349 -0.12726094 0.30850002 5262401
-0.092040591 -0.12746719 0.30900002 5261885
-0.09143874 -0.12757033 0.30925003 5524544
-0.090762407 -0.12757033 0.30925003 5392958
-0.09008608 -0.12757033 0.30925003 5262655
-0.089482032 -0.12767345 0.30950001 5131069
-0.088733435 -0.12757033 0.30925003 5327676
-0.088057108 -0.12757033 0.30925003 5392956
-0.087310135 -0.12746719 0.30900002 5261370
-0.086564265 -0.12736405 0.30875 5393469
-0.085749947 -0.12715781 0.30825001 5130297
-0.084937811 -0.12695155 0.30775002 5327163
-0.084127851 -0.1267453 0.30725002 5261883
-0.083455905 -0.1267453 0.30725002 5327676
-0.082783952 -0.1267453 0.30725002 5327678
-0.083047368 -0.12818909 0.31075001 5327165
-0.082367763 -0.12818909 0.31075001 5262655
-0.08175388 -0.12829222 0.31100002 5131067
-0.081204064 -0.12849848 0.31150001 5065022
-0.080587447 -0.12860161 0.31175002 5393217
-0.079841569 -0.12849848 0.31150001 5130299
-0.0787156 -0.12777658 0.30975002 5131067
-0.077975199 -0.12767345 0.30950001 5196860
-0.077298328 -0.12767345 0.30950001 5524544
-0.07662145 -0.12767345 0.30950001 5588799
-0.076189965 -0.12808597 0.31050003 5655362
-0.075632498 -0.12829222 0.31100002 5589823
-0.07507284 -0.12849848 0.31150001 5392444
-0.074451305 -0.12860161 0.31175002 5458497
-0.073828667 -0.12870473 0.31200001 5393219
-0.073146321 -0.12870473 0.31200001 5392704
-0.072463982 -0.12870473 0.31200001 5393217
-0.071666613 -0.12849848 0.31150001 5131330
-0.070985369 -0.12849848 0.31150001 5066305
-0.070304118 -0.12849848 0.31150001 5131582
-0.069958135 -0.12911725 0.31300002 5131067
-0.069550261 -0.12963291 0.31425002 5131321
-0.068753436 -0.12942664 0.31375003 5196860
-0.067579135 -0.12849848 0.31150001 5131328
-0.06673681 -0.12818909 0.31075001 4803392
-0.065844633 -0.12777658 0.30975002 3222818
-0.064325668 -0.12612651 0.30575001 3748392
-0.062355753 -0.1235483 0.29950002 4012334
-0.057889517 -0.11591677 0.28100002 3815470
-0.057274975 -0.11591677 0.28100002 3814957
-0.056660432 -0.11591677 0.28100002 4208945
-0.05604589 -0.11591677 0.28100002 4143404
-0.055431344 -0.11591677 0.28100002 4078381
-0.054816801 -0.11591677 0.28100002 3816749
-0.054202259 -0.11591677 0.28100002 3750702
-0.053587716 -0.11591677 0.28100002 4013617
-0.052926037 -0.11581364 0.28075001 4406061
-0.052265462 -0.11571051 0.28050002 4340268
-0.051605977 -0.11560738 0.28025001 4274736
-0.050993074 -0.11560738 0.28025001 4274736
-0.050335221 -0.11550425 0.28 4208943
-0.049722869 -0.11550425 0.28 4340270
-0.049066667 -0.11540113 0.27975002 4274990
-0.048454858 -0.11540113 0.27975002 3354406
-0.047843043 -0.11540113 0.27975002 2104852
-0.047231235 -0.11540113 0.27975002 1447951
-0.046577763 -0.11529799 0.27950001 2632225
-0.04592539 -0.11519487 0.27925003 3289124
-0.045274101 -0.11509173 0.27900001 3288611
-0.044623908 -0.1149886 0.27875 3289378
-0.043974813 -0.11488548 0.27850002 3485472
-0.04332681 -0.11478235 0.27825001 3747619
-0.04271828 -0.11478235 0.27825001 3879205
-0.04210975 -0.11478235 0.27825001 3747619
-0.04150122 -0.11478235 0.27825001 3681826
-0.040892694 -0.11478235 0.27825001 3748133
-0.040284164 -0.11478235 0.27825001 3616545
-0.039675631 -0.11478235 0.27825001 3813926
-0.039067104 -0.11478235 0.27825001 3879205
-0.03849313 -0.11488548 0.27850002 3616547
-0.037884057 -0.11488548 0.27850002 3420197
-0.037308436 -0.1149886 0.27875 3551013
-0.036731727 -0.11509173 0.27900001 3550500
-0.036121558 -0.11509173 0.27900001 3747619
-0.035511389 -0.11509173 0.27900001 3681572
-0.034901217 -0.11509173 0.27900001 3550502
-0.034291051 -0.11509173 0.27900001 3353121
-0.033680882 -0.11509173 0.27900001 3747365
-0.03307071 -0.11509173 0.27900001 3550500
-0.032460541 -0.11509173 0.27900001 3551015
-0.031850372 -0.11509173 0.27900001 3551015
-0.031240202 -0.11509173 0.27900001 3420199
-0.030602586 -0.1149886 0.27875 3616293
-0.029992964 -0.1149886 0.27875 3747879
-0.029356988 -0.11488548 0.27850002 3879978
-0.028747914 -0.11488548 0.27850002 3682599
-0.028138837 -0.11488548 0.27850002 4010537
-0.027505048 -0.11478235 0.27825001 3748133
-0.026896518 -0.11478235 0.27825001 4273191
-0.02628799 -0.11478235 0.27825001 4010537
-0.025679458 -0.11478235 0.27825001 4338732
-0.025093457 -0.11488548 0.27850002 4207918
-0.024484383 -0.11488548 0.27850002 4076330
-0.023875305 -0.11488548 0.27850002 4339502
-0.023287114 -0.1149886 0.27875 4274223
-0.02267749 -0.1149886 0.27875 3814957
-0.022067869 -0.1149886 0.27875 4078127
-0.021458244 -0.1149886 0.27875 4340781
-0.020848623 -0.1149886 0.27875 4471340
-0.020238999 -0.1149886 0.27875 4668721
-0.019629378 -0.1149886 0.27875 4274990
-0.019019753 -0.1149886 0.27875 5062707
-0.018410131 -0.1149886 0.27875 5062455
-0.017784543 -0.11488548 0.27850002 4669235
-0.017175468 -0.11488548 0.27850002 4473139
-0.016566392 -0.11488548 0.27850002 4931893
-0.015957316 -0.11488548 0.27850002 4472885
-0.015348241 -0.11488548 0.27850002 4866873
-0.014739165 -0.11488548 0.27850002 5063227
-0.014130089 -0.11488548 0.27850002 4670266
-0.013521013 -0.11488548 0.27850002 5130047
-0.012911936 -0.11488548 0.27850002 4800567
-0.012302861 -0.11488548 0.27850002 5129532
-0.011704281 -0.1149886 0.27875 5196092
-0.011094658 -0.1149886 0.27875 5065276
-0.010485035 -0.1149886 0.27875 5196862
-0.0098665562 -0.11488548 0.27850002 5195325
-0.0092574805 -0.11488548 0.27850002 5393217
-0.0086406404 -0.11478235 0.27825001 5327426
-0.0080248946 -0.11467922 0.27800003 5195327
-0.0074169124 -0.11467922 0.27800003 5195838
-0.0068028062 -0.11457609 0.27775002 5327424
-0.0061953706 -0.11457609 0.27775002 5393471
-0.0055879345 -0.11457609 0.27775002 5197121
-0.0049849818 -0.11467922 0.27800003 5328448
-0.0043769996 -0.11467922 0.27800003 5328448
-0.0037690171 -0.11467922 0.27800003 5590850
-0.0031610343 -0.11467922 0.27800003 5722436
-0.0025530518 -0.11467922 0.27800003 5656389
-0.0019450692 -0.11467922 0.27800003 5787975
-0.0013370867 -0.11467922 0.27800003 5722182
-0.0007291041 -0.11467922 0.27800003 5657159
-0.00012112153 -0.11467922 0.27800003 5788229
0.00048686104 -0.11467922 0.27800003 5787462
0.0010948436 -0.11467922 0.27800003 5787462
0.0017028261 -0.11467922 0.27800003 5525573
0.0023087305 -0.11457609 0.27775002 5591366
0.0029161663 -0.11457609 0.27775002 5460293
0.0035204305 -0.11447296 0.2775 5263684
0.0041273194 -0.11447296 0.2775 5328194
0.0047342088 -0.11447296 0.2775 5656389
0.0053459099 -0.11457609 0.27775002 5459782
0.0059533454 -0.11457609 0.27775002 5787975
0.0065607815 -0.11457609 0.27775002 5788229
0.0071682171 -0.11457609 0.27775002 5722436
0.0077756522 -0.11457609 0.27775002 5525825
0.0083830878 -0.11457609 0.27775002 5656643
0.0089905243 -0.11457609 0.27775002 5656643
0.00958932 -0.11447296 0.2775 5722182
0.01019621 -0.11447296 0.2775 5590848
0.010803099 -0.11447296 0.2775 5525825
0.011409988 -0.11447296 0.2775 5460547
0.012016877 -0.11447296 0.2775 5722436
0.012623766 -0.11447296 0.2775 5656643
0.013230654 -0.11447296 0.2775 5590596
0.013837544 -0.11447296 0.2775 5722436
0.014444433 -0.11447296 0.2775 5656130
0.015051322 -0.11447296 0.2775 5656643
0.015658211 -0.11447296 0.2775 5525573
0.0162651 -0.11447296 0.2775 5526338
0.016871989 -0.11447296 0.2775 5460545
0.017463133 -0.11436984 0.27725002 5394752
0.01805318 -0.1142667 0.27700001 5657672
0.018642135 -0.11416357 0.27675 5591881
0.019247383 -0.11416357 0.27675 5395270
0.019834701 -0.11406045 0.27650002 5657674
0.020439401 -0.11406045 0.27650002 5460295
0.021044105 -0.11406045 0.27650002 5526858
0.021648806 -0.11406045 0.27650002 5198148
0.02225351 -0.11406045 0.27650002 5263943
0.02285821 -0.11406045 0.27650002 5395274
0.023462912 -0.11406045 0.27650002 5395274
0.024067614 -0.11406045 0.27650002 5394504
0.024694623 -0.11416357 0.27675 5329481
0.025299871 -0.11416357 0.27675 5329736
0.025928523 -0.1142667 0.27700001 5133127
0.026534317 -0.1142667 0.27700001 4935748
0.027140114 -0.1142667 0.27700001 5002311
0.027720867 -0.11416357 0.27675 4871240
0.028326117 -0.11416357 0.27675 4935748
0.028931364 -0.11416357 0.27675 5198148
0.029536614 -0.11416357 0.27675 5329479
0.030141862 -0.11416357 0.27675 5461067
0.030774886 -0.1142667 0.27700001 5395020
0.03135236 -0.11416357 0.27675 5329227
0.031957608 -0.11416357 0.27675 5066312
0.032562856 -0.11416357 0.27675 5329738
0.033138145 -0.11406045 0.27650002 5263688
0.033742849 -0.11406045 0.27650002 5329229
0.034378603 -0.11416357 0.27675 5197898
0.034983851 -0.11416357 0.27675 5329738
0.035621252 -0.1142667 0.27700001 5198150
0.036259744 -0.11436984 0.27725002 5395272
0.036866084 -0.11436984 0.27725002 5263943
0.037472427 -0.11436984 0.27725002 5263943
0.038078774 -0.11436984 0.27725002 5461324
0.03865023 -0.1142667 0.27700001 5527115
0.039256025 -0.1142667 0.27700001 5395529
0.039861817 -0.1142667 0.27700001 5461322
0.040869374 -0.11540113 0.27975002 5592651
0.041518249 -0.11550425 0.28 5395531
0.042130604 -0.11550425 0.28 5461067
0.042781126 -0.11560738 0.28025001 5723467
0.043471452 -0.11581364 0.28075001 5920846
0.044124704 -0.11591677 0.28100002 5986639
0.044739246 -0.11591677 0.28100002 5986639
0.045313437 -0.11581364 0.28075001 5920846
0.04531398 -0.1142667 0.27700001 5527887
0.045836888 -0.11406045 0.27650002 5396301
0.046441592 -0.11406045 0.27650002 5659473
0.047088824 -0.11416357 0.27675 5659473
0.047694076 -0.11416357 0.27675 5593680
0.048342958 -0.1142667 0.27700001 5724496
0.048948754 -0.1142667 0.27700001 5658703
0.049554549 -0.1142667 0.27700001 5790289
0.050160341 -0.1142667 0.27700001 5724239
0.051086865 -0.1149886 0.27875 5724494
0.052067403 -0.11581364 0.28075001 5790032
0.052681398 -0.11581364 0.28075001 5723985
0.053295393 -0.11581364 0.28075001 5724242
0.053909395 -0.11581364 0.28075001 5789778
0.054474842 -0.11571051 0.28050002 5462610
0.054499108 -0.11447296 0.2775 5659473
0.054758482 -0.11375106 0.27575001 5593426
0.055361547 -0.11375106 0.27575001 5527635
0.055964608 -0.11375106 0.27575001 5527633
0.056567669 -0.11375106 0.27575001 5527633
0.05717073 -0.11375106 0.27575001 5593426
0.057721414 -0.11364793 0.2755 5658703
0.058323927 -0.11364793 0.2755 5527115
0.058872972 -0.11354481 0.27525002 5396301
0.061004527 -0.11529799 0.27950001 5657676
0.061615787 -0.11529799 0.27950001 5461324
0.062227052 -0.11529799 0.27950001 4540740
0.06300693 -0.11560738 0.28025001 2105372
0.063960359 -0.11622616 0.28175002 2629661
0.064805739 -0.11663867 0.28275001 2431769
0.065481953 -0.1167418 0.28300002 2563355
0.066100873 -0.1167418 0.28300002 2300698
0.066660851 -0.11663867 0.28275001 1972503
0.067219727 -0.11653553 0.2825 2038294
0.067717485 -0.11632928 0.28200001 1775635
0.06821306 -0.11612302 0.28150001 1840917
0.068767563 -0.11601989 0.28125 1906708
0.069259316 -0.11581364 0.28075001 1973014
0.069811091 -0.11571051 0.28050002 2236188
0.070424549 -0.11571051 0.28050002 2563355
0.071037993 -0.11571051 0.28050002 3747881
0.071651444 -0.11571051 0.28050002 4999746
0.072264895 -0.11571051 0.28050002 5329736
0.072813384 -0.11560738 0.28025001 5527113
0.073360786 -0.11550425 0.28 5790030
0.0739071 -0.11540113 0.27975002 5855055
0.074518904 -0.11540113 0.27975002 5657161
0.075130723 -0.11540113 0.27975002 6381395
0.083981827 -0.12592027 0.30525002 7566439
0.087907813 -0.1307673 0.317 7632491
0.090347961 -0.13334554 0.32325003 7500907
0.091054901 -0.13334554 0.32325003 7698029
0.091690876 -0.1332424 0.32300001 7960431
0.09239728 -0.1332424 0.32300001 7894384
0.093103677 -0.1332424 0.32300001 7763568
0.093737461 -0.13313927 0.32275 7894638
0.095321178 -0.13437682 0.32575002 8025711
0.09699171 -0.1357175 0.32900003 8222320
0.097859725 -0.13592376 0.32950002 8025711
0.098580338 -0.13592376 0.32950002 7960431
0.099225603 -0.13582063 0.32925001 7763825
0.099869795 -0.1357175 0.32900003 7829361
0.099824958 -0.13468622 0.32650003 7829615
0.10030805 -0.13437682 0.32575002 7895408
0.10055529 -0.13375805 0.32425001 7894384
0.10157673 -0.13417056 0.32525003 7960431
0.10268115 -0.13468622 0.32650003 7895406
0.10339521 -0.13468622 0.32650003 7829870
0.10402954 -0.13458309 0.32625002 7829615
0.10466278 -0.13447994 0.32600001 8091250
0.10521413 -0.13427369 0.32550001 8025970
0.10568192 -0.1339643 0.32475001 7567218
0.10631024 -0.13386118 0.32450002 7501425
0.10693746 -0.13375805 0.32425001 7763570
0.10756359 -0.13365491 0.324 8025459
0.10894053 -0.13447994 0.32600001 8025972
0.11024212 -0.13520186 0.32775003 7829363
0.1109589 -0.13520186 0.32775003 7764079
0.11159051 -0.13509873 0.32750002 7829615
0.11170664 -0.13437682 0.32575002 7829361
0.11224649 -0.13417056 0.32525003 8025970
0.11304463 -0.13427369 0.32550001 8157810
0.11384387 -0.13437682 0.32575002 7895408
0.11473211 -0.13458309 0.32625002 7829618
0.11553408 -0.13468622 0.32650003 7829618
0.11633714 -0.13478933 0.32675001 7829620
0.11705174 -0.13478933 0.32675001 7567218
0.11794654 -0.13499559 0.32725 7829363
0.11911549 -0.13551123 0.3285 8025972
0.11992512 -0.13561437 0.32875001 8091252
0.12082758 -0.13582063 0.32925001 8091252
0.12016327 -0.13427369 0.32550001 8025457
0.1207823 -0.13417056 0.32525003 8223349
0.12149362 -0.13417056 0.32525003 7961204
0.122111 -0.13406743 0.32500002 8092790
0.12423895 -0.13561437 0.32875001 8026740
0.12486289 -0.13551123 0.3285 8158326
0.12539017 -0.13530497 0.32800001 7896181
0.12581915 -0.13499559 0.32725 7961204
0.12634151 -0.13478933 0.32675001 8025970
0.12695891 -0.13468622 0.32650003 7961458
0.12757519 -0.13458309 0.32625002 7961458
0.12995988 -0.13633627 0.33050001 7829620
0.13078155 -0.1364394 0.33075002 8092535
0.13140549 -0.13633627 0.33050001 8091252
0.13182846 -0.13602687 0.32975 7894133
0.13214764 -0.13561437 0.32875001 7632758
0.13276558 -0.13551123 0.3285 7502195
0.13338241 -0.13540812 0.32825002 7829618
0.13389602 -0.13520186 0.32775003 7829361
0.13461281 -0.13520186 0.32775003 7829361
0.1353296 -0.13520186 0.32775003 7895154
0.13635769 -0.13551123 0.3285 7895154
0.13728477 -0.1357175 0.32900003 7698032
0.13810915 -0.13582063 0.32925001 8026224
0.13882922 -0.13582063 0.32925001 7959664
0.13954929 -0.13582063 0.32925001 7697775
0.13931079 -0.13489246 0.32700002 7632239
0.13981183 -0.13468622 0.32650003 7763825
0.14052589 -0.13468622 0.32650003 7698032
0.14123994 -0.13468622 0.32650003 7698286
0.14184529 -0.13458309 0.32625002 7764079
0.14244954 -0.13447994 0.32600001 7698032
0.14272337 -0.13406743 0.32500002 7501425
0.14321347 -0.13386118 0.32450002 7763827
0.14381225 -0.13375805 0.32425001 7763570
0.14440995 -0.13365491 0.324 7829361
0.14500657 -0.13355179 0.32375002 8025970
0.14560209 -0.13344866 0.32350001 8025459
0.14823174 -0.13520186 0.32775003 7958896
0.14906213 -0.13530497 0.32800001 8223872
0.14977945 -0.13530497 0.32800001 8620688
0.14820263 -0.1332424 0.32300001 8359061
-0.14205778 -0.12443253 0.30325001 5195325
-0.14151114 -0.12453512 0.30350003 5392444
-0.14096341 -0.12463769 0.30375001 5261372
-0.14041458 -0.12474028 0.30400002 5131582
-0.14101392 -0.12586869 0.30675003 5327424
-0.14148685 -0.12689452 0.30925003 5655616
-0.14069669 -0.12679192 0.30900002 5590075
-0.14002091 -0.12679192 0.30900002 5327678
-0.13923238 -0.12668934 0.30875 5261631
-0.1379962 -0.12617643 0.3075 5261883
-0.13721207 -0.12607385 0.30725002 5459516
-0.13676231 -0.12627901 0.30775002 5589821
-0.13741587 -0.12751 0.31075001 5655614
-0.13673627 -0.12751 0.31075001 5785917
-0.13605666 -0.12751 0.31075001 5654844
-0.13515924 -0.12730484 0.31025001 5262401
-0.13426399 -0.12709968 0.30975002 5459010
-0.13326313 -0.12679192 0.30900002 5328448
-0.1323728 -0.12658677 0.30850002 5132098
-0.13159138 -0.12648419 0.30825001 5197375
-0.13081108 -0.12638161 0.30800003 5328448
-0.13013749 -0.12638161 0.30800003 5656130
-0.12946388 -0.12638161 0.30800003 5459010
-0.12868576 -0.12627901 0.30775002 5393471
-0.12801272 -0.12627901 0.30775002 5589823
-0.12744312 -0.12638161 0.30800003 5787202
-0.12707821 -0.12668934 0.30875 5458497
-0.12722178 -0.12751 0.31075001 5458499
-0.12664399 -0.12761259 0.31100002 5852741
-0.12586257 -0.12751 0.31075001 5392956
-0.12518297 -0.12751 0.31075001 5392956
-0.12440319 -0.12740743 0.31050003 5721669
-0.12362451 -0.12730484 0.31025001 5459012
-0.12254973 -0.12689452 0.30925003 5328194
-0.1214793 -0.12648419 0.30825001 5459010
-0.12060922 -0.12627901 0.30775002 5721669
-0.11993617 -0.12627901 0.30775002 5590596
-0.11916624 -0.12617643 0.3075 5655876
-0.11868642 -0.12638161 0.30800003 5524292
-0.1182044 -0.12658677 0.30850002 5590596
-0.11752971 -0.12658677 0.30850002 5590596
-0.11685503 -0.12658677 0.30850002 5459012
-0.11608619 -0.12648419 0.30825001 5197123
-0.11522485 -0.12627901 0.30775002 5393219
-0.11399347 -0.12566352 0.30625001 5589823
-0.1133237 -0.12566352 0.30625001 5392956
-0.1127459 -0.1257661 0.30650002 5656130
-0.11207558 -0.1257661 0.30650002 5393217
-0.11158701 -0.12597127 0.30700001 5262403
-0.11100593 -0.12607385 0.30725002 5327424
-0.11042375 -0.12617643 0.3075 5589571
-0.10984048 -0.12627901 0.30775002 5655364
-0.11040898 -0.12771517 0.31125 5065024
-0.10972828 -0.12771517 0.31125 5327424
-0.1105366 -0.12945908 0.31550002 5326651
-0.1098466 -0.12945908 0.31550002 5327163
-0.1091566 -0.12945908 0.31550002 5327930
-0.1084666 -0.12945908 0.31550002 5131321
-0.10777661 -0.12945908 0.31550002 5065274
-0.10700176 -0.12935649 0.31525001 5261631
-0.10622801 -0.12925391 0.31500003 5326911
-0.10503654 -0.12863842 0.31350002 5392704
-0.10385163 -0.12802291 0.31200001 5524544
-0.10316929 -0.12802291 0.31200001 5131069
-0.10248695 -0.12802291 0.31200001 5197121
-0.10188618 -0.1281255 0.31225002 5655876
-0.10136535 -0.12833066 0.31275001 5523776
-0.10076185 -0.12843326 0.31300002 5393219
-0.10015726 -0.12853582 0.31325001 5261631
-0.099472187 -0.12853582 0.31325001 5720385
-0.098865956 -0.12863842 0.31350002 5392190
-0.098102041 -0.12853582 0.31325001 5065789
-0.097183719 -0.12822808 0.3125 5131582
-0.096500285 -0.12822808 0.3125 5196862
-0.095740199 -0.1281255 0.31225002 5589823
-0.095133416 -0.12822808 0.3125 5589569
-0.094449982 -0.12822808 0.3125 5524292
-0.093841568 -0.12833066 0.31275001 5327424
-0.093232058 -0.12843326 0.31300002 5392704
-0.09143874 -0.12689452 0.30925003 5327678
-0.090762407 -0.12689452 0.30925003 5327678
-0.090158902 -0.1269971 0.30950001 5196092
-0.089482032 -0.1269971 0.30950001 5196860
-0.088805161 -0.1269971 0.30950001 5196860
-0.088128284 -0.1269971 0.30950001 5327678
-0.087380782 -0.12689452 0.30925003 5327678
-0.08663436 -0.12679192 0.30900002 5065276
-0.085889034 -0.12668934 0.30875 5131067
-0.08535181 -0.12689452 0.30925003 5261883
-0.084880821 -0.12720226 0.31 5261370
-0.084338672 -0.12740743 0.31050003 5458237
-0.083726972 -0.12751 0.31075001 5195579
-0.083114184 -0.12761259 0.31100002 5327163
-0.082500286 -0.12771517 0.31125 5196342
-0.082148179 -0.12822808 0.3125 5262137
-0.081529923 -0.12833066 0.31275001 5327678
-0.081169069 -0.12884358 0.31400001 5261631
-0.080482349 -0.12884358 0.31400001 5130299
-0.079668574 -0.12863842 0.31350002 5261883
-0.078164153 -0.12730484 0.31025001 5131067
-0.077485643 -0.12730484 0.31025001 5261885
-0.076807126 -0.12730484 0.31025001 5392190
-0.076312654 -0.12761259 0.31100002 5655876
-0.075754091 -0.12781775 0.31150001 5393471
-0.075434349 -0.12843326 0.31300002 5392958
-0.074749827 -0.12843326 0.31300002 5393217
-0.074065298 -0.12843326 0.31300002 5326911
-0.073380768 -0.12843326 0.31300002 5523776
-0.072696246 -0.12843326 0.31300002 5524030
-0.072069228 -0.12853582 0.31325001 5590850
-0.071441129 -0.12863842 0.31350002 5196608
-0.070981197 -0.12904873 0.3145 5131582
