# .PCD v0.7 - Point Cloud Data file format
VERSION 0.7
FIELDS x y z rgb
SIZE 4 4 4 4
TYPE F F F U
COUNT 1 1 1 1
WIDTH 1069
HEIGHT 1
VIEWPOINT 0 0 0 1 0 0 0
POINTS 1069
DATA ascii
-0.01520416 -0.05490195 0.38200003 10142404
-0.014368731 -0.05490195 0.38200003 10339783
-0.013533302 -0.05490195 0.38200003 10339783
-0.012689562 -0.054866016 0.38175002 10208197
-0.011854679 -0.054866016 0.38175002 10142663
-0.011019797 -0.054866016 0.38175002 10339783
-0.010191584 -0.05490195 0.38200003 10208197
-0.0093622776 -0.054937877 0.38225001 10536392
-0.0085374545 -0.055009738 0.38275 10470345
-0.0077104447 -0.055081602 0.38325003 10471369
-0.0068812473 -0.055153463 0.38375002 10471369
-0.0060419906 -0.055153463 0.38375002 10537160
-0.0052061239 -0.05518939 0.384 10537160
-0.0043663206 -0.05518939 0.384 10603207
-0.0035265172 -0.05518939 0.384 10275271
-0.0026867141 -0.05518939 0.384 6981510
-0.0018469108 -0.05518939 0.384 6844012
-0.0010071077 -0.05518939 0.384 5264982
-0.00016567072 -0.054650433 0.38025001 3750203
0.00066242873 -0.05436299 0.37825003 2039587
-0.028516669 -0.036764253 0.25975001 3163197
-0.027975501 -0.036799636 0.26000002 8823712
-0.027406884 -0.036799636 0.26000002 9220016
-0.027018908 -0.037047327 0.26175001 9285811
-0.02657276 -0.037224248 0.26300001 9285811
-0.026096433 -0.037365783 0.264 9352118
-0.025567401 -0.037436556 0.26450002 9286325
-0.02501256 -0.037471935 0.26475 9482675
-0.024433555 -0.037471935 0.26475 9679286
-0.023877077 -0.037507322 0.26500002 9613239
-0.023297526 -0.037507322 0.26500002 9614261
-0.022717973 -0.037507322 0.26500002 9417395
-0.022138422 -0.037507322 0.26500002 9483188
-0.02157921 -0.037542708 0.26525003 9417397
-0.020999113 -0.037542708 0.26525003 9417397
-0.020438256 -0.037578091 0.26550001 9680569
-0.019876311 -0.037613474 0.26575002 9549497
-0.019295119 -0.037613474 0.26575002 9549243
-0.018696321 -0.037578091 0.26550001 9549247
-0.018115675 -0.037578091 0.26550001 9615038
-0.017518522 -0.037542708 0.26525003 9550267
-0.016938422 -0.037542708 0.26525003 9419194
-0.016342904 -0.037507322 0.26500002 9418427
-0.015763354 -0.037507322 0.26500002 9484220
-0.015169476 -0.037471935 0.26475 8627881
-0.014590472 -0.037471935 0.26475 8823716
-0.014011468 -0.037471935 0.26475 8692130
-0.018230306 -0.053147167 0.37550002 9086884
-0.017548179 -0.053571779 0.37850001 9151907
-0.016720405 -0.053571779 0.37850001 10602437
-0.015892629 -0.053571779 0.37850001 10339783
-0.01521411 -0.05410254 0.38225001 10208197
-0.014378134 -0.05410254 0.38225001 10208197
-0.013533302 -0.054067161 0.38200003 10142402
-0.012697873 -0.054067161 0.38200003 10207427
-0.011862443 -0.054067161 0.38200003 10470085
-0.011027014 -0.054067161 0.38200003 10339781
-0.010198254 -0.05410254 0.38225001 10274501
-0.009368401 -0.054137927 0.38250002 10340294
-0.0085430313 -0.054208696 0.38300002 10406089
-0.0077154739 -0.054279462 0.38350001 10405576
-0.0068812473 -0.054314848 0.38375002 10340294
-0.0060459268 -0.054350231 0.384 10537414
-0.0052095135 -0.054385617 0.38425002 10602437
-0.0043691634 -0.054385617 0.38425002 10405574
-0.0035288134 -0.054385617 0.38425002 10866638
-0.0026884633 -0.054385617 0.38425002 4089448
-0.0018469108 -0.054350231 0.384 1386038
-0.0010071077 -0.054350231 0.384 1910070
-0.00016719563 -0.054314848 0.38375002 1647663
-0.027948601 -0.036196619 0.25975001 9149330
-0.027406884 -0.036231458 0.26000002 9220270
-0.027096327 -0.03657984 0.26250002 9285296
-0.02657276 -0.036649514 0.26300001 9285296
-0.026071722 -0.036754027 0.26375002 9088946
-0.025543233 -0.036823701 0.26425001 9154739
-0.024988944 -0.036858544 0.26450002 9416884
-0.024433555 -0.036893379 0.26475 9745079
-0.02385455 -0.036893379 0.26475 9678773
-0.023275547 -0.036893379 0.26475 9548470
-0.022717973 -0.036928218 0.26500002 9548981
-0.022138422 -0.036928218 0.26500002 9417909
-0.02157921 -0.036963057 0.26525003 9417909
-0.021018902 -0.036997892 0.26550001 9287093
-0.020438256 -0.036997892 0.26550001 9417657
-0.019876311 -0.037032731 0.26575002 9549243
-0.019295119 -0.037032731 0.26575002 9549243
-0.018696321 -0.036997892 0.26550001 9417657
-0.018115675 -0.036997892 0.26550001 9549497
-0.017518522 -0.036963057 0.26525003 9549497
-0.016938422 -0.036963057 0.26525003 9418681
-0.016358323 -0.036963057 0.26525003 9353401
-0.015763354 -0.036928218 0.26500002 9419194
-0.015183802 -0.036928218 0.26500002 8628393
-0.014604251 -0.036928218 0.26500002 8758436
-0.014024699 -0.036928218 0.26500002 8823716
-0.018242443 -0.052361421 0.37575001 9218724
-0.017548179 -0.052744642 0.37850001 8954530
-0.016720405 -0.052744642 0.37850001 10863812
-0.015892629 -0.052744642 0.37850001 10339783
-0.01521411 -0.053267211 0.38225001 10405574
-0.014378134 -0.053267211 0.38225001 10208197
-0.013542158 -0.053267211 0.38225001 10471369
-0.012706182 -0.053267211 0.38225001 10339011
-0.011870205 -0.053267211 0.38225001 10339011
-0.01103423 -0.053267211 0.38225001 10339783
-0.010204924 -0.05330205 0.38250002 10274501
-0.0093745235 -0.053336885 0.38275 10208195
-0.008548608 -0.053406563 0.38325003 10470597
-0.007720504 -0.05347624 0.38375002 10405574
-0.0068857297 -0.053511076 0.384 10471369
-0.0060498631 -0.053545915 0.38425002 10471369
-0.0052095135 -0.053545915 0.38425002 10405574
-0.0043691634 -0.053545915 0.38425002 10340294
-0.0035288134 -0.053545915 0.38425002 11064017
-0.0026884633 -0.053545915 0.38425002 4549227
-0.0018481134 -0.053545915 0.38425002 1976374
-0.0010071077 -0.053511076 0.384 1581616
-0.00016719563 -0.05347624 0.38375002 1649460
-0.028516669 -0.035628986 0.25975001 3358795
-0.027948601 -0.035628986 0.25975001 8689046
-0.027406884 -0.035663277 0.26000002 9351343
-0.027122132 -0.036040481 0.26275 9351089
-0.026598021 -0.036109067 0.26325002 9153710
-0.026047008 -0.036143359 0.26350001 9285809
-0.025519067 -0.036211941 0.264 9351602
-0.024988944 -0.036280528 0.26450002 9482677
-0.024433555 -0.036314815 0.26475 9548470
-0.02385455 -0.036314815 0.26475 9483190
-0.023297526 -0.03634911 0.26500002 9352116
-0.022717973 -0.03634911 0.26500002 9286325
-0.022138422 -0.03634911 0.26500002 9352116
-0.02157921 -0.036383402 0.26525003 9417395
-0.021018902 -0.036417693 0.26550001 9352116
-0.020438256 -0.036417693 0.26550001 9417657
-0.019876311 -0.036451984 0.26575002 9286843
-0.019295119 -0.036451984 0.26575002 9549243
-0.018696321 -0.036417693 0.26550001 9548983
-0.018115675 -0.036417693 0.26550001 9745847
-0.017535031 -0.036417693 0.26550001 9548983
-0.016938422 -0.036383402 0.26525003 9548983
-0.016358323 -0.036383402 0.26525003 9286841
-0.015778225 -0.036383402 0.26525003 9484220
-0.015198126 -0.036383402 0.26525003 8694188
-0.014618029 -0.036383402 0.26525003 8627366
-0.01403793 -0.036383402 0.26525003 8692643
-0.01825458 -0.051574584 0.37600002 9350056
-0.01753659 -0.051883209 0.37825003 8625051
-0.016720405 -0.051917501 0.37850001 10468800
-0.015903126 -0.051951792 0.37875003 10077124
-0.015224061 -0.052466165 0.38250002 10011331
-0.014387538 -0.052466165 0.38250002 10077124
-0.013551015 -0.052466165 0.38250002 10142404
-0.012706182 -0.052431874 0.38225001 10208197
-0.011870205 -0.052431874 0.38225001 10208197
-0.011041447 -0.052466165 0.38250002 10142404
-0.010204924 -0.052466165 0.38250002 10471369
-0.009380647 -0.052534748 0.38300002 10339783
-0.0085541839 -0.05260333 0.38350001 10536392
-0.007720504 -0.052637625 0.38375002 10339783
-0.0068857297 -0.052671913 0.384 10340296
-0.0060498631 -0.052706208 0.38425002 10340296
-0.005212903 -0.052740499 0.38450003 10406341
-0.0043720063 -0.052740499 0.38450003 10406341
-0.0035311093 -0.052740499 0.38450003 11196373
-0.0026884633 -0.052706208 0.38425002 5141364
-0.0018481134 -0.052706208 0.38425002 2104876
-0.0010071077 -0.052671913 0.384 1515564
-0.00016719563 -0.052637625 0.38375002 778
-0.028544117 -0.035095099 0.26000002 3950668
-0.027406884 -0.035095099 0.26000002 9088169
-0.026993101 -0.035297569 0.2615 9481905
-0.026598021 -0.03553379 0.26325002 9416112
-0.026047008 -0.035567529 0.26350001 9285296
-0.025519067 -0.035635021 0.264 9220016
-0.024965324 -0.035668768 0.26425001 9351089
-0.024433555 -0.035736259 0.26475 9482675
-0.02385455 -0.035736259 0.26475 9483188
-0.023297526 -0.035770003 0.26500002 9417395
-0.022739407 -0.03580375 0.26525003 9351604
-0.02215931 -0.03580375 0.26525003 9483190
-0.021599546 -0.035837494 0.26550001 9483188
-0.021018902 -0.035837494 0.26550001 9286071
-0.020457502 -0.035871241 0.26575002 9482936
-0.019876311 -0.035871241 0.26575002 9680569
-0.019295119 -0.035871241 0.26575002 9745849
-0.018713927 -0.035871241 0.26575002 9548470
-0.018115675 -0.035837494 0.26550001 9548983
-0.017535031 -0.035837494 0.26550001 9680569
-0.016954385 -0.035837494 0.26550001 9745849
-0.016373741 -0.035837494 0.26550001 9680569
-0.015793094 -0.035837494 0.26550001 9615036
-0.015212449 -0.035837494 0.26550001 8759729
-0.014631805 -0.035837494 0.26550001 8692391
-0.01405116 -0.035837494 0.26550001 8888739
-0.018163633 -0.048323251 0.35800001 9021093
-0.018108932 -0.050347969 0.37300003 9480872
-0.017455453 -0.050820399 0.37650001 8428184
-0.016731448 -0.051124111 0.37875003 9747126
-0.015913622 -0.051157854 0.37900001 10274501
-0.015224061 -0.051630288 0.38250002 10274503
-0.014387538 -0.051630288 0.38250002 10208197
-0.013551015 -0.051630288 0.38250002 10339783
-0.012714492 -0.051630288 0.38250002 10142404
-0.01187797 -0.051630288 0.38250002 10077124
-0.011048662 -0.051664032 0.38275 10207943
-0.010211593 -0.051664032 0.38275 10273220
-0.0093867704 -0.051731527 0.38325003 10602185
-0.0085597606 -0.051799014 0.38375002 10602185
-0.0077255331 -0.051832758 0.384 10405576
-0.0068902131 -0.051866505 0.38425002 10339781
-0.0060537993 -0.051900253 0.38450003 10471367
-0.005212903 -0.051900253 0.38450003 10536644
-0.0043720063 -0.051900253 0.38450003 10339781
-0.0035311093 -0.051900253 0.38450003 10998224
-0.0026902126 -0.051900253 0.38450003 5798780
-0.0018481134 -0.051866505 0.38425002 856610
-0.0010077634 -0.051866505 0.38425002 395546
-0.00016730455 -0.051832758 0.384 3158584
-0.027406884 -0.034526918 0.26000002 9416364
-0.026838267 -0.034526918 0.26000002 9088430
-0.026598021 -0.034958504 0.26325002 9220016
-0.026047008 -0.0349917 0.26350001 9285809
-0.025494903 -0.0350249 0.26375002 9481905
-0.024965324 -0.0350913 0.26425001 9481905
-0.024433555 -0.035157695 0.26475 9613745
-0.023877077 -0.035190895 0.26500002 9482675
-0.023319507 -0.035224095 0.26525003 9548470
-0.022739407 -0.035224095 0.26525003 9351604
-0.022180194 -0.035257291 0.26550001 9351604
-0.021599546 -0.035257291 0.26550001 9221302
-0.021038696 -0.035290495 0.26575002 9155509
-0.020457502 -0.035290495 0.26575002 9352118
-0.019876311 -0.035290495 0.26575002 9417911
-0.019295119 -0.035290495 0.26575002 9548983
-0.018713927 -0.035290495 0.26575002 9483190
-0.018132735 -0.035290495 0.26575002 9483190
-0.017551543 -0.035290495 0.26575002 9548983
-0.016970351 -0.035290495 0.26575002 9549497
-0.016389159 -0.035290495 0.26575002 9548983
-0.015807966 -0.035290495 0.26575002 9549243
-0.015226775 -0.035290495 0.26575002 8956592
-0.014645584 -0.035290495 0.26575002 8561573
-0.014064392 -0.035290495 0.26575002 8823714
-0.01815095 -0.047507711 0.35775003 9086884
-0.017939009 -0.04906806 0.36950001 9349288
-0.017432272 -0.049931232 0.37600002 8430241
-0.016753536 -0.050362818 0.37925002 9154991
-0.01592412 -0.050362818 0.37925002 10142402
-0.015224061 -0.050794408 0.38250002 10076611
-0.014396941 -0.050827604 0.38275 10207427
-0.013559871 -0.050827604 0.38275 10273220
-0.012722801 -0.050827604 0.38275 10273220
-0.011885732 -0.050827604 0.38275 10076870
-0.01105588 -0.050860804 0.38300002 10076870
-0.010218264 -0.050860804 0.38300002 10339783
-0.0093928939 -0.050927199 0.38350001 10470599
-0.0085597606 -0.050960399 0.38375002 10536392
-0.0077305632 -0.051026799 0.38425002 10340296
-0.006894696 -0.051059999 0.38450003 10405576
-0.0060537993 -0.051059999 0.38450003 10405576
-0.0052162921 -0.051093195 0.38475001 10536390
-0.0043748487 -0.051093195 0.38475001 10470597
-0.003533405 -0.051093195 0.38475001 10932172
-0.0026902126 -0.051059999 0.38450003 6654343
-0.0018493158 -0.051059999 0.38450003 1185566
-0.0010077634 -0.051026799 0.38425002 524
-0.00016719563 -0.050960399 0.38375002 5264734
-0.027975501 -0.033958741 0.26000002 7174523
-0.027406884 -0.033958741 0.26000002 9875118
-0.026838267 -0.033958741 0.26000002 9088430
-0.026598021 -0.034383222 0.26325002 9088944
-0.026047008 -0.034415875 0.26350001 9285809
-0.025494903 -0.034448527 0.26375002 9220018
-0.024965324 -0.034513831 0.26425001 9220016
-0.024433555 -0.034579135 0.26475 9482675
-0.023877077 -0.034611791 0.26500002 9285811
-0.023319507 -0.034644447 0.26525003 9417397
-0.022760838 -0.034677096 0.26550001 9417397
-0.022180194 -0.034677096 0.26550001 9483190
-0.021619886 -0.034709752 0.26575002 9482936
-0.021038696 -0.034709752 0.26575002 9286325
-0.020457502 -0.034709752 0.26575002 9483188
-0.019895008 -0.0347424 0.266 9352118
-0.019313268 -0.0347424 0.266 9221048
-0.018731531 -0.0347424 0.266 9549243
-0.018149791 -0.0347424 0.266 9548729
-0.017568054 -0.0347424 0.266 9417911
-0.016986314 -0.0347424 0.266 9746362
-0.016404575 -0.0347424 0.266 9548729
-0.015822837 -0.0347424 0.266 9680317
-0.015241098 -0.0347424 0.266 8956846
-0.01465936 -0.0347424 0.266 8495780
-0.014090853 -0.034775056 0.26625001 8757669
-0.01726306 -0.044440232 0.34025002 9284265
-0.017647713 -0.047476929 0.36350003 9611944
-0.017281596 -0.048685074 0.37275001 8823966
-0.016764581 -0.049566697 0.37950003 9220016
-0.015945114 -0.049599349 0.37975001 10076609
-0.015224061 -0.049958531 0.38250002 10208197
-0.014396941 -0.049991179 0.38275 10076611
-0.013559871 -0.049991179 0.38275 10339783
-0.012731113 -0.050023835 0.38300002 10339011
-0.011893496 -0.050023835 0.38300002 10470597
-0.011063097 -0.050056487 0.38325003 10208197
-0.010224934 -0.050056487 0.38325003 10274503
-0.0093990164 -0.050121792 0.38375002 10339781
-0.0085653365 -0.050154444 0.384 10339783
-0.0077305632 -0.050187096 0.38425002 10405574
-0.006894696 -0.050219752 0.38450003 10405576
-0.0060577351 -0.0502524 0.38475001 10405576
-0.0052162921 -0.0502524 0.38475001 10470597
-0.0043748487 -0.0502524 0.38475001 10733509
-0.003533405 -0.0502524 0.38475001 11325646
-0.0026919616 -0.0502524 0.38475001 7376783
-0.0018493158 -0.050219752 0.38450003 989731
-0.0010084191 -0.050219752 0.38450003 68118
-0.00016665102 -0.049958531 0.38250002 3751754
-0.027948601 -0.033358451 0.25975001 6451316
-0.02738053 -0.033358451 0.25975001 9482157
-0.02681246 -0.033358451 0.25975001 9285296
-0.026623279 -0.033840045 0.26350001 9087919
-0.026047008 -0.033840045 0.26350001 9088430
-0.025519067 -0.033904254 0.264 8957612
-0.024965324 -0.033936363 0.26425001 9088944
-0.024433555 -0.034000576 0.26475 9351604
-0.023877077 -0.034032684 0.26500002 9352118
-0.023319507 -0.034064792 0.26525003 9220532
-0.022760838 -0.034096893 0.26550001 9286323
-0.02220108 -0.034129001 0.26575002 9220532
-0.021619886 -0.034129001 0.26575002 9220280
-0.021038696 -0.034129001 0.26575002 9220280
-0.020476745 -0.034161106 0.266 9351864
-0.019895008 -0.034161106 0.266 9351864
-0.019313268 -0.034161106 0.266 9351864
-0.018731531 -0.034161106 0.266 9416630
-0.018149791 -0.034161106 0.266 9548216
-0.017584566 -0.034193214 0.26625001 9548729
-0.017002279 -0.034193214 0.26625001 9287095
-0.016419994 -0.034193214 0.26625001 9746362
-0.015837708 -0.034193214 0.26625001 9811642
-0.015269748 -0.034225322 0.26650003 9021872
-0.014686917 -0.034225322 0.26650003 8692389
-0.014104084 -0.034225322 0.26650003 8954278
-0.015969284 -0.040421836 0.31475002 9481644
-0.017356416 -0.045912016 0.35750002 9546405
-0.017130917 -0.047453117 0.36950001 9217700
-0.016786668 -0.048801582 0.38000003 8956585
-0.015966108 -0.048833687 0.38025001 10470597
-0.01521411 -0.049090538 0.38225001 10207173
-0.014406345 -0.049186859 0.38300002 10272966
-0.013568728 -0.049186859 0.38300002 10207173
-0.012739423 -0.049218964 0.38325003 10207427
-0.011901259 -0.049218964 0.38325003 10142404
-0.011070313 -0.049251068 0.38350001 10076611
-0.010231603 -0.049251068 0.38350001 10077124
-0.0093990164 -0.049283177 0.38375002 10142917
-0.0085653365 -0.049315281 0.384 10405574
-0.0077355928 -0.049379498 0.38450003 10339781
-0.006894696 -0.049379498 0.38450003 10208195
-0.0060577351 -0.049411602 0.38475001 10405574
-0.0052196817 -0.049443707 0.38500002 10536390
-0.0043776915 -0.049443707 0.38500002 10733255
-0.0035357012 -0.049443707 0.38500002 11062734
-0.0026937108 -0.049443707 0.38500002 7904156
-0.0018505182 -0.049411602 0.38475001 463389
-0.0010090747 -0.049411602 0.38475001 780
-0.00016643318 -0.049058434 0.38200003 1645345
-0.027921703 -0.03275926 0.25950003 5728876
-0.027354179 -0.03275926 0.25950003 9547439
-0.026786657 -0.03275926 0.25950003 9087917
-0.026623279 -0.033264216 0.26350001 9087917
-0.026047008 -0.033264216 0.26350001 8891567
-0.025494903 -0.03329578 0.26375002 8761264
-0.024965324 -0.033358898 0.26425001 9088944
-0.024433555 -0.033422016 0.26475 9220018
-0.023877077 -0.03345358 0.26500002 9285811
-0.023319507 -0.033485141 0.26525003 9285809
-0.022760838 -0.033516698 0.26550001 9154737
-0.022180194 -0.033516698 0.26550001 9023923
-0.021619886 -0.033548258 0.26575002 9089462
-0.021038696 -0.033548258 0.26575002 9089464
-0.020476745 -0.033579815 0.266 9089462
-0.019895008 -0.033579815 0.266 9351604
-0.019331422 -0.03361138 0.26625001 9548983
-0.018749136 -0.03361138 0.26625001 9351864
-0.018166849 -0.03361138 0.26625001 9351864
-0.017584566 -0.03361138 0.26625001 9352118
-0.017018246 -0.03364294 0.26650003 9417909
-0.016435413 -0.03364294 0.26650003 9746362
-0.01585258 -0.03364294 0.26650003 9746108
-0.015269748 -0.03364294 0.26650003 8956846
-0.014700693 -0.033674497 0.26675001 8561573
-0.014117314 -0.033674497 0.26675001 8954532
-0.014903819 -0.037082978 0.29375002 9480874
-0.016336879 -0.042479731 0.33650002 9480358
-0.016980238 -0.046235368 0.36625001 9480872
-0.016786668 -0.04797117 0.38000003 8824997
-0.015987104 -0.048065849 0.38075003 10339781
-0.015194209 -0.048192088 0.38175002 10142402
-0.014415749 -0.048381448 0.38325003 10208197
-0.013577586 -0.048381448 0.38325003 10142150
-0.012747732 -0.048413008 0.38350001 10338759
-0.011909023 -0.048413008 0.38350001 10207943
-0.011070313 -0.048413008 0.38350001 10207943
-0.010238273 -0.048444569 0.38375002 10208197
-0.0094051398 -0.048476126 0.384 10338759
-0.0085709132 -0.048507687 0.38425002 10339013
-0.0077355928 -0.048539247 0.38450003 10208197
-0.0068991785 -0.048570808 0.38475001 10405576
-0.0060616713 -0.048602369 0.38500002 10470599
-0.0052196817 -0.048602369 0.38500002 10470599
-0.0043805339 -0.048633929 0.38525003 10602183
-0.0035379971 -0.048633929 0.38525003 10866638
-0.0026937108 -0.048602369 0.38500002 8103073
-0.0018517206 -0.048602369 0.38500002 3950405
-0.0010090747 -0.048570808 0.38475001 3947582
-0.0001675224 -0.048539247 0.38450003 3552824
-0.027894802 -0.032161158 0.25925002 5136226
-0.027354179 -0.032192171 0.25950003 9809837
-0.026786657 -0.032192171 0.25950003 9284780
-0.026623279 -0.032688387 0.26350001 9153710
-0.026047008 -0.032688387 0.26350001 9088432
-0.025494903 -0.032719404 0.26375002 8958130
-0.024965324 -0.03278143 0.26425001 8826544
-0.024410484 -0.032812443 0.26450002 9154739
-0.023877077 -0.032874469 0.26500002 9220018
-0.023319507 -0.032905485 0.26525003 9220532
-0.022739407 -0.032905485 0.26525003 9154485
-0.022180194 -0.032936495 0.26550001 9089716
-0.021619886 -0.032967512 0.26575002 9154739
-0.021038696 -0.032967512 0.26575002 9351604
-0.020476745 -0.032998525 0.266 9286071
-0.019895008 -0.032998525 0.266 9417143
-0.019331422 -0.033029538 0.26625001 9417143
-0.018749136 -0.033029538 0.26625001 9220278
-0.018166849 -0.033029538 0.26625001 9417657
-0.017601078 -0.033060554 0.26650003 9417397
-0.017018246 -0.033060554 0.26650003 9614263
-0.016435413 -0.033060554 0.26650003 9811642
-0.01585258 -0.033060554 0.26650003 9746362
-0.015284072 -0.033091564 0.26675001 9088432
-0.014700693 -0.033091564 0.26675001 8561827
-0.014117314 -0.033091564 0.26675001 8954530
-0.014104721 -0.03448718 0.27800003 9415081
-0.015280928 -0.039046187 0.31475002 9414819
-0.016817972 -0.045000806 0.36275002 8230032
-0.016786668 -0.047140751 0.38000003 8560542
-0.0159976 -0.047264803 0.38100001 10667203
-0.015184258 -0.047326829 0.38150001 10142402
-0.014425152 -0.047574937 0.38350001 10208197
-0.0135953 -0.047605954 0.38375002 10077124
-0.012756043 -0.047605954 0.38375002 10207943
-0.011916786 -0.047605954 0.38375002 10207943
-0.01107753 -0.047605954 0.38375002 10142150
-0.010238273 -0.047605954 0.38375002 10207173
-0.0094051398 -0.047636963 0.384 10338759
-0.0085709132 -0.04766798 0.38425002 10470085
-0.0077355928 -0.047698997 0.38450003 10536392
-0.0068991785 -0.047730006 0.38475001 10208195
-0.0060616713 -0.047761023 0.38500002 10536392
-0.0052230712 -0.047792036 0.38525003 10536392
-0.0043805339 -0.047792036 0.38525003 10471367
-0.0035379971 -0.047792036 0.38525003 10340294
-0.0026954601 -0.047792036 0.38525003 11193547
-0.0018529231 -0.047792036 0.38525003 4871509
-0.0010097304 -0.047761023 0.38500002 5066833
-0.00016774023 -0.047761023 0.38500002 4803912
-0.027894802 -0.031594615 0.25925002 5133911
-0.027327824 -0.031594615 0.25925002 10005419
-0.026786657 -0.031625085 0.25950003 9218987
-0.026598021 -0.032082092 0.26325002 9218733
-0.026047008 -0.032112557 0.26350001 9285298
-0.025494903 -0.032143027 0.26375002 8891313
-0.024965324 -0.032203961 0.26425001 8826292
-0.024410484 -0.03223443 0.26450002 9219764
-0.02385455 -0.032264896 0.26475 9351091
-0.023297526 -0.032295365 0.26500002 9351091
-0.022739407 -0.03232583 0.26525003 9285811
-0.02215931 -0.03232583 0.26525003 9417397
-0.021599546 -0.032356296 0.26550001 9351604
-0.021038696 -0.032386765 0.26575002 9351604
-0.020476745 -0.03241723 0.266 9417143
-0.019895008 -0.03241723 0.266 9417145
-0.019331422 -0.032447699 0.26625001 9482425
-0.018749136 -0.032447699 0.26625001 9482423
-0.018166849 -0.032447699 0.26625001 9482423
-0.017584566 -0.032447699 0.26625001 9482423
-0.017018246 -0.032478169 0.26650003 9548470
-0.016435413 -0.032478169 0.26650003 9548983
-0.01585258 -0.032478169 0.26650003 9417911
-0.015284072 -0.032508634 0.26675001 9220530
-0.014700693 -0.032508634 0.26675001 8626596
-0.014117314 -0.032508634 0.26675001 8823714
-0.013812986 -0.033178918 0.27225003 9152931
-0.014492 -0.036377981 0.2985 9284263
-0.016667293 -0.04381201 0.35950002 8493463
-0.016753536 -0.046218932 0.37925002 8428188
-0.016008098 -0.04646267 0.38125002 10470083
-0.015174309 -0.04646267 0.38125002 10272706
-0.014443959 -0.046797808 0.384 10273218
-0.0135953 -0.046767343 0.38375002 10207425
-0.012756043 -0.046767343 0.38375002 10141634
-0.011916786 -0.046767343 0.38375002 10207425
-0.01107753 -0.046767343 0.38375002 10141634
-0.010244943 -0.046797808 0.384 10207427
-0.0094112633 -0.046828277 0.38425002 10338499
-0.00857649 -0.046858743 0.38450003 10404292
-0.0077406219 -0.046889208 0.38475001 10470083
-0.0069036619 -0.046919677 0.38500002 10273218
-0.006065608 -0.046950147 0.38525003 10470851
-0.0052264603 -0.046980612 0.38550001 10339011
-0.0043833768 -0.046980612 0.38550001 10602437
-0.0035402928 -0.046980612 0.38550001 10536390
-0.0026972091 -0.046980612 0.38550001 10864582
-0.0018541254 -0.046980612 0.38550001 6582902
-0.0010110418 -0.046980612 0.38550001 5132626
-0.00016784917 -0.046950147 0.38525003 4935247
-0.027354179 -0.031057997 0.25950003 9415079
-0.02681246 -0.031087914 0.25975001 9087917
-0.026294908 -0.031147756 0.26025 9022639
-0.026047008 -0.031536728 0.26350001 8956846
-0.025494903 -0.031566653 0.26375002 9219764
-0.024941703 -0.031596571 0.264 9219766
-0.02438741 -0.031626493 0.26425001 9351091
-0.023832027 -0.031656414 0.26450002 9285296
-0.023275547 -0.031686336 0.26475 9285809
-0.022717973 -0.031716257 0.26500002 9088944
-0.02215931 -0.031746179 0.26525003 9088946
-0.021599546 -0.031776097 0.26550001 8957360
-0.021038696 -0.031806022 0.26575002 9023669
-0.020476745 -0.03183594 0.266 9286325
-0.019895008 -0.03183594 0.266 9285811
-0.019331422 -0.031865861 0.26625001 9351604
-0.018749136 -0.031865861 0.26625001 9417143
-0.018166849 -0.031865861 0.26625001 9417143
-0.017584566 -0.031865861 0.26625001 9286071
-0.017002279 -0.031865861 0.26625001 9483190
-0.016419994 -0.031865861 0.26625001 9352116
-0.01585258 -0.031895783 0.26650003 9549495
-0.015269748 -0.031895783 0.26650003 9286323
-0.014700693 -0.031925704 0.26675001 8758182
-0.014117314 -0.031925704 0.26675001 8757921
-0.01354662 -0.031955626 0.26700002 9217700
-0.01430994 -0.035276853 0.29475001 9218470
-0.016539795 -0.042697262 0.35675001 8888221
-0.016554747 -0.044851575 0.37475002 8492952
-0.016008098 -0.04562952 0.38125002 10667716
-0.015184258 -0.045659438 0.38150001 10273472
-0.014443959 -0.045958649 0.384 10208195
-0.013604156 -0.045958649 0.384 10142404
-0.012764352 -0.045958649 0.384 10273220
-0.011916786 -0.045928732 0.38375002 10273218
-0.01107753 -0.045928732 0.38375002 10273472
-0.010244943 -0.045958649 0.384 10469572
-0.0094112633 -0.045988571 0.38425002 10337732
-0.00857649 -0.046018492 0.38450003 10403525
-0.007745652 -0.046078335 0.38500002 10404292
-0.0069081448 -0.046108257 0.38525003 10273218
-0.0060695438 -0.046138175 0.38550001 10470597
-0.0052298498 -0.0461681 0.38575003 10470597
-0.0043862192 -0.0461681 0.38575003 10470597
-0.0035425888 -0.0461681 0.38575003 10535363
-0.0026989584 -0.0461681 0.38575003 10930375
-0.0018553279 -0.0461681 0.38575003 6912639
-0.0010116975 -0.0461681 0.38575003 5263444
-0.00016806701 -0.0461681 0.38575003 5066831
-0.02738053 -0.030520281 0.25975001 9480099
-0.026838267 -0.030549657 0.26000002 8956331
-0.026320169 -0.030608406 0.26050001 9022639
-0.026047008 -0.030960901 0.26350001 8891567
-0.025494903 -0.030990276 0.26375002 8891565
-0.024941703 -0.03101965 0.264 8957358
-0.02438741 -0.031049026 0.26425001 9154737
-0.023832027 -0.031078402 0.26450002 9285296
-0.023253569 -0.031078402 0.26450002 9285809
-0.022696542 -0.031107774 0.26475 9088944
-0.02215931 -0.031166526 0.26525003 9220018
-0.021599546 -0.031195899 0.26550001 9351604
-0.021038696 -0.031225275 0.26575002 9154739
-0.020476745 -0.031254649 0.266 9024182
-0.019895008 -0.031254649 0.266 9089716
-0.019313268 -0.031254649 0.266 9220532
-0.018731531 -0.031254649 0.266 9351604
-0.018149791 -0.031254649 0.266 9416630
-0.017551543 -0.031225275 0.26575002 9220532
-0.016970351 -0.031225275 0.26575002 9286325
-0.016404575 -0.031254649 0.266 9417909
-0.015837708 -0.031284023 0.26625001 9680567
-0.015269748 -0.031313401 0.26650003 9416882
-0.014700693 -0.031342771 0.26675001 8692389
-0.014117314 -0.031342771 0.26675001 8757921
-0.013533936 -0.031342771 0.26675001 9217700
-0.014297804 -0.034603361 0.29450002 9283747
-0.016389119 -0.041535784 0.35350001 9085600
-0.016554747 -0.04403263 0.37475002 8361877
-0.016018594 -0.044825744 0.38150001 10470337
-0.015184258 -0.044825744 0.38150001 10207425
-0.014453363 -0.045148868 0.38425002 10076611
-0.013604156 -0.04511949 0.384 10142404
-0.012764352 -0.04511949 0.384 10076611
-0.011924549 -0.04511949 0.384 10207427
-0.011084746 -0.04511949 0.384 10207427
-0.010244943 -0.04511949 0.384 10273220
-0.0094112633 -0.045148868 0.38425002 10141634
-0.0085820658 -0.045207616 0.38475001 10273218
-0.0077506821 -0.045266367 0.38525003 10339011
-0.0069126273 -0.045295741 0.38550001 10207425
-0.00607348 -0.045325115 0.38575003 10339011
-0.0052332389 -0.045354489 0.38600001 10470597
-0.0043890621 -0.045354489 0.38600001 10470599
-0.0035448845 -0.045354489 0.38600001 10273218
-0.0027007074 -0.045354489 0.38600001 10997193
-0.0018565302 -0.045354489 0.38600001 6848125
-0.0010123531 -0.045354489 0.38600001 5593177
-0.00016817592 -0.045354489 0.38600001 5395279
-0.027433235 -0.030010303 0.26025 9413023
-0.026889879 -0.030039134 0.26050001 9153194
-0.026446464 -0.030183274 0.26175001 9022637
-0.026022296 -0.030356247 0.26325002 9022639
-0.025470736 -0.030385073 0.26350001 8891565
-0.024918085 -0.030413901 0.26375002 8957612
-0.024364337 -0.030442728 0.264 9088430
-0.0238095 -0.030471558 0.26425001 9088432
-0.023253569 -0.030500388 0.26450002 9088432
-0.022696542 -0.030529214 0.26475 9285811
-0.022138422 -0.030558044 0.26500002 9088178
-0.021599546 -0.0306157 0.26550001 9154485
-0.021038696 -0.030644529 0.26575002 9286325
-0.020457502 -0.030644529 0.26575002 9220018
-0.019876311 -0.030644529 0.26575002 9220532
-0.019295119 -0.030644529 0.26575002 9023923
-0.018713927 -0.030644529 0.26575002 9155255
-0.018132735 -0.030644529 0.26575002 9286325
-0.017535031 -0.0306157 0.26550001 9417395
-0.016954385 -0.0306157 0.26550001 9352116
-0.016389159 -0.030644529 0.26575002 9286323
-0.015822837 -0.030673355 0.266 9483188
-0.015255423 -0.030702185 0.26625001 9220530
-0.014686917 -0.030731015 0.26650003 8496547
-0.014117314 -0.030759841 0.26675001 8757923
-0.013533936 -0.030759841 0.26675001 9348774
-0.014297804 -0.033959787 0.29450002 9546405
-0.016273212 -0.040474992 0.35100001 8889505
-0.016554747 -0.043213688 0.37475002 7902614
-0.016029092 -0.04402088 0.38175002 10667462
-0.015194209 -0.04402088 0.38175002 10207425
-0.014453363 -0.044309162 0.38425002 10207425
-0.013613013 -0.044309162 0.38425002 10010816
-0.012764352 -0.044280332 0.384 10207427
-0.011924549 -0.044280332 0.384 10207173
-0.011084746 -0.044280332 0.384 10338759
-0.010244943 -0.044280332 0.384 10207427
-0.0094173867 -0.044337992 0.38450003 10142404
-0.0085876426 -0.044395648 0.38500002 10273220
-0.0077557112 -0.044453304 0.38550001 10404292
-0.0069171106 -0.044482134 0.38575003 10273220
-0.0060774158 -0.044510961 0.38600001 10339011
-0.0052332389 -0.044510961 0.38600001 10404292
-0.0043919045 -0.044539791 0.38625002 10470085
-0.0035471807 -0.044539791 0.38625002 10667462
-0.0027024567 -0.044539791 0.38625002 10931400
-0.0018577327 -0.044539791 0.38625002 7571332
-0.0010130088 -0.044539791 0.38625002 5068114
-0.00016828485 -0.044539791 0.38625002 5198670
0.00066855823 -0.04402088 0.38175002 5460045
-0.027459588 -0.029469863 0.26050001 8756637
-0.026941491 -0.029526426 0.26100001 8628133
-0.026496982 -0.029667836 0.26225001 8759979
-0.026022296 -0.029780965 0.26325002 9088432
-0.025470736 -0.029809246 0.26350001 9220018
-0.024918085 -0.02983753 0.26375002 8956846
-0.024364337 -0.029865809 0.264 9351089
-0.0238095 -0.029894093 0.26425001 9153712
-0.023253569 -0.029922375 0.26450002 8957360
-0.022696542 -0.029950656 0.26475 9088692
-0.022138422 -0.029978938 0.26500002 9088692
-0.021599546 -0.030035503 0.26550001 9088946
-0.021018902 -0.030035503 0.26550001 9088946
-0.020457502 -0.030063786 0.26575002 9285809
-0.019876311 -0.030063786 0.26575002 9548468
-0.019295119 -0.030063786 0.26575002 9154737
-0.018696321 -0.030035503 0.26550001 9154739
-0.018115675 -0.030035503 0.26550001 9285809
-0.017518522 -0.030007223 0.26525003 9483442
-0.016954385 -0.030035503 0.26550001 9351602
-0.016373741 -0.030035503 0.26550001 9483190
-0.015807966 -0.030063786 0.26575002 9548981
-0.015255423 -0.030120349 0.26625001 9482929
-0.014686917 -0.030148633 0.26650003 8627620
-0.014117314 -0.030176913 0.26675001 8692641
-0.013533936 -0.030176913 0.26675001 9087399
-0.014297804 -0.033316217 0.29450002 9546405
-0.015855949 -0.0386898 0.34200001 9218470
-0.016554747 -0.042394746 0.37475002 7901842
-0.016029092 -0.043186642 0.38175002 10601669
-0.015194209 -0.043186642 0.38175002 10076609
-0.014462767 -0.043497745 0.38450003 10010816
-0.013613013 -0.043469463 0.38425002 10141634
-0.012772663 -0.043469463 0.38425002 10207173
-0.011924549 -0.043441176 0.384 10338245
-0.011084746 -0.043441176 0.384 10272966
-0.010244943 -0.043441176 0.384 10207173
-0.0094173867 -0.043497745 0.38450003 10142404
-0.0085932193 -0.043582592 0.38525003 10142404
-0.0077607408 -0.043639153 0.38575003 10273220
-0.0069215931 -0.043667436 0.38600001 10338499
-0.006081352 -0.043695718 0.38625002 10404292
-0.0052366285 -0.043695718 0.38625002 10470083
-0.0043947473 -0.043724 0.38650003 10470083
-0.0035494766 -0.043724 0.38650003 10470083
-0.0027042059 -0.043724 0.38650003 10668230
-0.0018589351 -0.043724 0.38650003 7376266
-0.0010136645 -0.043724 0.38650003 4934477
-0.00016828485 -0.043695718 0.38625002 5591378
0.00067643909 -0.043695718 0.38625002 5263436
-0.026993101 -0.029011531 0.2615 8890792
-0.026522243 -0.029122476 0.26250002 8825772
-0.025997583 -0.029177947 0.26300001 8956846
-0.025446571 -0.029205684 0.26325002 8956592
-0.024894465 -0.029233417 0.26350001 9022639
-0.024341267 -0.029261155 0.26375002 8957360
-0.0238095 -0.029316625 0.26425001 8891567
-0.023253569 -0.029344361 0.26450002 9023921
-0.022696542 -0.029372096 0.26475 9088944
-0.022138422 -0.029399833 0.26500002 9220016
-0.02157921 -0.029427569 0.26525003 9154737
-0.021018902 -0.029455304 0.26550001 9088944
-0.020438256 -0.029455304 0.26550001 9285811
-0.019857612 -0.029455304 0.26550001 9285811
-0.019276965 -0.029455304 0.26550001 9285811
-0.018678719 -0.029427569 0.26525003 9417395
-0.018098619 -0.029427569 0.26525003 9285811
-0.017518522 -0.029427569 0.26525003 9351091
-0.016938422 -0.029427569 0.26525003 9482677
-0.016373741 -0.029455304 0.26550001 9482423
-0.015807966 -0.029483041 0.26575002 9417397
-0.015255423 -0.02953851 0.26625001 9417649
-0.014686917 -0.029566249 0.26650003 8758436
-0.014117314 -0.029593982 0.26675001 8757923
-0.013533936 -0.029593982 0.26675001 8824229
-0.014285666 -0.032644909 0.29425001 9349286
-0.015218467 -0.036416963 0.32825002 9808812
-0.016554747 -0.041575801 0.37475002 7967635
-0.016039589 -0.042380136 0.38200003 10338751
-0.01520416 -0.042380136 0.38200003 10076609
-0.014462767 -0.042657495 0.38450003 10076609
-0.01362187 -0.042657495 0.38450003 10076611
-0.012772663 -0.042629756 0.38425002 9945538
-0.011924549 -0.042602021 0.384 10207425
-0.011084746 -0.042602021 0.384 10272704
-0.010244943 -0.042602021 0.384 10338497
-0.0094235092 -0.042685226 0.38475001 10272704
-0.0085987952 -0.042768434 0.38550001 10272706
-0.0077657704 -0.042823907 0.38600001 10207427
-0.006926076 -0.042851642 0.38625002 10141634
-0.006081352 -0.042851642 0.38625002 10273220
-0.005240018 -0.04287938 0.38650003 10338499
-0.0043947473 -0.04287938 0.38650003 10470085
-0.0035494766 -0.04287938 0.38650003 10470083
-0.0027042059 -0.04287938 0.38650003 10865093
-0.0018589351 -0.04287938 0.38650003 7838100
-0.0010136645 -0.04287938 0.38650003 4672843
-0.00016839377 -0.04287938 0.38650003 4737866
0.00067643909 -0.042851642 0.38625002 4210752
-0.026993101 -0.028440073 0.2615 8956585
-0.026496982 -0.028521642 0.26225001 8956844
-0.025972869 -0.02857602 0.26275 8759981
-0.025446571 -0.028630402 0.26325002 8891051
-0.024894465 -0.028657589 0.26350001 8891567
-0.024341267 -0.02868478 0.26375002 8891567
-0.0238095 -0.028739158 0.26425001 9022639
-0.023253569 -0.028766349 0.26450002 9285298
-0.022696542 -0.028793536 0.26475 9022639
-0.022138422 -0.028820727 0.26500002 9088946
-0.02157921 -0.028847916 0.26525003 9154737
-0.021018902 -0.028875105 0.26550001 9285809
-0.020438256 -0.028875105 0.26550001 9351091
-0.019857612 -0.028875105 0.26550001 9285298
-0.019258816 -0.028847916 0.26525003 9285811
-0.018678719 -0.028847916 0.26525003 9220532
-0.018098619 -0.028847916 0.26525003 9154739
-0.017518522 -0.028847916 0.26525003 9285811
-0.016938422 -0.028847916 0.26525003 9417397
-0.016373741 -0.028875105 0.26550001 9220532
-0.015822837 -0.028929483 0.266 9286325
-0.015255423 -0.028956672 0.26625001 9351856
-0.014686917 -0.028983863 0.26650003 8824997
-0.014117314 -0.02901105 0.26675001 8692128
-0.01354662 -0.029038241 0.26700002 8889505
-0.014127879 -0.03164842 0.29100001 9284778
-0.014557802 -0.03414984 0.31400001 9942706
-0.016731448 -0.041191887 0.37875003 8361879
-0.016050085 -0.041572537 0.38225001 9943739
-0.01521411 -0.041572537 0.38225001 10141632
-0.01447217 -0.041844431 0.38475001 10273218
-0.013630726 -0.041844431 0.38475001 10141632
-0.012780974 -0.041817244 0.38450003 10076609
-0.011932313 -0.041790053 0.38425002 10207425
-0.011091963 -0.041790053 0.38425002 10272704
-0.010251613 -0.041790053 0.38425002 10404544
-0.0094296327 -0.041871622 0.38500002 10470337
-0.0086043719 -0.041953191 0.38575003 10338497
-0.0077657704 -0.041980378 0.38600001 10469572
-0.006926076 -0.042007569 0.38625002 10404292
-0.0060852887 -0.042034756 0.38650003 10273220
-0.005240018 -0.042034756 0.38650003 10404292
-0.0043947473 -0.042034756 0.38650003 10404292
-0.0035517723 -0.042061947 0.38675001 10273220
-0.0027059549 -0.042061947 0.38675001 10602183
-0.0018601374 -0.042061947 0.38675001 8363163
-0.0010143201 -0.042061947 0.38675001 4079936
-0.00016839377 -0.042034756 0.38650003 4013626
0.00067687692 -0.042034756 0.38650003 4144955
-0.026993101 -0.027868615 0.2615 9088169
-0.026496982 -0.027948545 0.26225001 9218733
-0.025972869 -0.02800183 0.26275 9152940
-0.025446571 -0.028055118 0.26325002 9087917
-0.024894465 -0.02808176 0.26350001 8825774
-0.024341267 -0.028108405 0.26375002 8891313
-0.0238095 -0.02816169 0.26425001 8957106
-0.023253569 -0.028188335 0.26450002 9285809
-0.022696542 -0.028214976 0.26475 9088944
-0.022138422 -0.028241619 0.26500002 9088944
-0.02157921 -0.028268265 0.26525003 8957360
-0.020999113 -0.028268265 0.26525003 9088946
-0.020419013 -0.028268265 0.26525003 9220018
-0.019838916 -0.028268265 0.26525003 9285298
-0.019258816 -0.028268265 0.26525003 9351091
-0.018661113 -0.028241619 0.26500002 9351602
-0.018081561 -0.028241619 0.26500002 9351604
-0.017518522 -0.028268265 0.26525003 9351091
-0.016938422 -0.028268265 0.26525003 9482423
-0.016373741 -0.028294906 0.26550001 9417397
-0.015822837 -0.028348191 0.266 9351602
-0.015255423 -0.028374834 0.26625001 9483442
-0.014686917 -0.028401479 0.26650003 8693413
-0.014117314 -0.028428121 0.26675001 8626850
-0.013533936 -0.028428121 0.26675001 8758434
-0.013982232 -0.030692779 0.28800002 9153192
-0.014036225 -0.032264717 0.30275002 9745329
-0.016742492 -0.040390842 0.37900001 8427672
-0.016050085 -0.040737204 0.38225001 10140085
-0.01521411 -0.040737204 0.38225001 10273218
-0.014481574 -0.041030277 0.38500002 10207427
-0.013630726 -0.041003633 0.38475001 10339011
-0.012789283 -0.041003633 0.38475001 10272706
-0.011940077 -0.040976994 0.38450003 10272706
-0.01109918 -0.040976994 0.38450003 10272706
-0.010258283 -0.040976994 0.38450003 10338499
-0.0094418786 -0.041083563 0.38550001 10338497
-0.0086099477 -0.04113685 0.38600001 10338499
-0.0077708 -0.041163493 0.38625002 10403779
-0.0069305594 -0.041190136 0.38650003 10338245
-0.0060852887 -0.041190136 0.38650003 10404292
-0.0052434071 -0.04121678 0.38675001 10470083
-0.0043975897 -0.04121678 0.38675001 10404290
-0.0035517723 -0.04121678 0.38675001 10404292
-0.0027059549 -0.04121678 0.38675001 10667978
-0.0018601374 -0.04121678 0.38675001 8823716
-0.0010143201 -0.04121678 0.38675001 3619387
-0.00016850269 -0.04121678 0.38675001 4671554
0.00067687692 -0.041190136 0.38650003 4671554
-0.026993101 -0.027297158 0.2615 9218983
-0.026471725 -0.027349353 0.26200002 8693413
-0.025972869 -0.027427642 0.26275 9152940
-0.025446571 -0.027479837 0.26325002 9087919
-0.024894465 -0.027505932 0.26350001 9088178
-0.024364337 -0.027558126 0.264 9088178
-0.0238095 -0.027584223 0.26425001 8957360
-0.023253569 -0.027610321 0.26450002 9088944
-0.022717973 -0.027662514 0.26500002 8957358
-0.022138422 -0.027662514 0.26500002 9022639
-0.02157921 -0.027688611 0.26525003 9153712
-0.020999113 -0.027688611 0.26525003 9088432
-0.020419013 -0.027688611 0.26525003 9220018
-0.019820217 -0.027662514 0.26500002 9416884
-0.019240664 -0.027662514 0.26500002 9351089
-0.018661113 -0.027662514 0.26500002 9285809
-0.018081561 -0.027662514 0.26500002 9285809
-0.01750201 -0.027662514 0.26500002 9351091
-0.016938422 -0.027688611 0.26525003 9613493
-0.016373741 -0.027714705 0.26550001 9416884
-0.015822837 -0.027766898 0.266 9286325
-0.015255423 -0.027792996 0.26625001 9089462
-0.014686917 -0.027819095 0.26650003 8628395
-0.014117314 -0.027845189 0.26675001 8626083
-0.013533936 -0.027845189 0.26675001 8757923
-0.013872995 -0.029828539 0.28575 9218470
-0.013642144 -0.030715827 0.29425001 9679536
-0.016753536 -0.039588708 0.37925002 8755354
-0.016060583 -0.039927967 0.38250002 10269615
-0.015224061 -0.039927967 0.38250002 10075839
-0.014481574 -0.040188935 0.38500002 10010818
-0.013639584 -0.040188935 0.38500002 9945023
-0.012797593 -0.040188935 0.38500002 10141884
-0.01194784 -0.040162835 0.38475001 10338751
-0.011106396 -0.040162835 0.38475001 10272704
-0.010271623 -0.040188935 0.38500002 10338499
-0.0094480021 -0.040267225 0.38575003 10272706
-0.0086155245 -0.040319417 0.38625002 10338245
-0.0077758301 -0.040345516 0.38650003 10338245
-0.0069305594 -0.040345516 0.38650003 10469318
-0.0060892245 -0.040371612 0.38675001 10600388
-0.0052434071 -0.040371612 0.38675001 10600388
-0.0043975897 -0.040371612 0.38675001 10863558
-0.0035517723 -0.040371612 0.38675001 10732744
-0.0027059549 -0.040371612 0.38675001 10667462
-0.0018601374 -0.040371612 0.38675001 9480876
-0.0010143201 -0.040371612 0.38675001 2565931
-0.00016850269 -0.040371612 0.38675001 2895662
0.00067731476 -0.040371612 0.38675001 2829869
-0.027018908 -0.026751252 0.26175001 9416362
-0.026471725 -0.026776804 0.26200002 8956585
-0.025972869 -0.026853452 0.26275 8956585
-0.025446571 -0.026904555 0.26325002 8891051
-0.024894465 -0.026930103 0.26350001 8956846
-0.024364337 -0.026981203 0.264 9022126
-0.0238095 -0.027006755 0.26425001 9218735
-0.023275547 -0.027057854 0.26475 9022637
-0.022717973 -0.027083406 0.26500002 9088430
-0.02215931 -0.027108958 0.26525003 8891819
-0.02157921 -0.027108958 0.26525003 8957358
-0.020999113 -0.027108958 0.26525003 8826542
-0.020399766 -0.027083406 0.26500002 9220016
-0.019820217 -0.027083406 0.26500002 9416882
-0.019240664 -0.027083406 0.26500002 9416882
-0.018661113 -0.027083406 0.26500002 9285298
-0.018081561 -0.027083406 0.26500002 9220018
-0.01750201 -0.027083406 0.26500002 9285811
-0.016938422 -0.027108958 0.26525003 9219764
-0.016373741 -0.027134506 0.26550001 9154485
-0.015807966 -0.027160058 0.26575002 9089462
-0.015241098 -0.027185608 0.266 9024436
-0.014673138 -0.027211158 0.26625001 8563372
-0.014104084 -0.027236709 0.26650003 8692389
-0.013521252 -0.027236709 0.26650003 8757923
-0.013763759 -0.028974134 0.28350002 9021604
-0.013445104 -0.029638445 0.29000002 9548720
-0.016753536 -0.038759932 0.37925002 8821919
-0.016060583 -0.039092086 0.38250002 10137005
-0.015224061 -0.039092086 0.38250002 10141632
-0.014490978 -0.039373141 0.38525003 10010048
-0.013648441 -0.039373141 0.38525003 10338497
-0.012797593 -0.039347589 0.38500002 10272958
-0.011955603 -0.039347589 0.38500002 10272704
-0.011113613 -0.039347589 0.38500002 10338499
-0.010278293 -0.039373141 0.38525003 10207427
-0.0094480021 -0.039424241 0.38575003 10207427
-0.0086155245 -0.039475344 0.38625002 10338499
-0.0077758301 -0.039500896 0.38650003 10272706
-0.0069350419 -0.039526444 0.38675001 10337732
-0.0060892245 -0.039526444 0.38675001 10601671
-0.0052434071 -0.039526444 0.38675001 10601671
-0.0044004326 -0.039551996 0.38700002 10469572
-0.0035540685 -0.039551996 0.38700002 10470085
-0.0027077042 -0.039551996 0.38700002 10602185
-0.0018613399 -0.039551996 0.38700002 9612980
-0.0010149758 -0.039551996 0.38700002 722716
-0.00016861162 -0.039551996 0.38700002 1446423
0.00066768262 -0.038964335 0.38125002 1118485
-0.027018908 -0.026179247 0.26175001 9218983
-0.026496982 -0.026229255 0.26225001 8825512
-0.025972869 -0.026279261 0.26275 9022891
-0.025446571 -0.026329273 0.26325002 8891051
-0.024918085 -0.02637928 0.26375002 8891305
-0.024364337 -0.026404282 0.264 9022124
-0.023832027 -0.026454292 0.26450002 9152942
-0.023275547 -0.026479295 0.26475 9284526
-0.022717973 -0.026504301 0.26500002 9153964
-0.02215931 -0.026529305 0.26525003 9088682
-0.02157921 -0.026529305 0.26525003 9220270
-0.020979319 -0.026504301 0.26500002 9088430
-0.020399766 -0.026504301 0.26500002 9220016
-0.019820217 -0.026504301 0.26500002 9285550
-0.019222511 -0.026479295 0.26475 9285550
-0.018643508 -0.026479295 0.26475 9351602
-0.018081561 -0.026504301 0.26500002 9154737
-0.01750201 -0.026504301 0.26500002 9023923
-0.016938422 -0.026529305 0.26525003 9154485
-0.016373741 -0.026554307 0.26550001 8957876
-0.015807966 -0.026579313 0.26575002 9024436
-0.015241098 -0.026604315 0.266 9024436
-0.01465936 -0.026604315 0.266 8694956
-0.014090853 -0.026629321 0.26625001 8758182
-0.013508568 -0.026629321 0.26625001 8692130
-0.013751621 -0.028329596 0.28325 9283493
-0.013259655 -0.028604642 0.28600001 9679021
-0.016753536 -0.037931155 0.37925002 8626337
-0.016071079 -0.03828121 0.38275 9481644
-0.01523401 -0.03828121 0.38275 10077122
-0.014490978 -0.038531251 0.38525003 10141632
-0.013648441 -0.038531251 0.38525003 10272706
-0.012805904 -0.038531251 0.38525003 10141634
-0.011963367 -0.038531251 0.38525003 10338499
-0.011128046 -0.038556255 0.38550001 10338499
-0.010284962 -0.038556255 0.38550001 10338499
-0.0094541246 -0.038606264 0.38600001 10141634
-0.0086155245 -0.038631268 0.38625002 10273218
-0.0077758301 -0.038656272 0.38650003 10404292
-0.0069350419 -0.038681276 0.38675001 10469572
-0.0060892245 -0.038681276 0.38675001 10272706
-0.0052467971 -0.03870628 0.38700002 10141632
-0.0044004326 -0.03870628 0.38700002 10272704
-0.0035540685 -0.03870628 0.38700002 10404290
-0.0027094532 -0.038731281 0.38725001 10470597
-0.0018625422 -0.038731281 0.38725001 10206650
-0.0010156314 -0.038731281 0.38725001 920597
-0.00016872054 -0.038731281 0.38725001 525321
0.00066768262 -0.038131189 0.38125002 1184276
-0.027018908 -0.025607243 0.26175001 9612458
-0.026496982 -0.025656158 0.26225001 8890792
-0.025972869 -0.025705073 0.26275 8891305
-0.025446571 -0.02575399 0.26325002 9022378
-0.024918085 -0.025802905 0.26375002 9022124
-0.024364337 -0.025827361 0.264 9152940
-0.023832027 -0.025876278 0.26450002 9087917
-0.023275547 -0.025900735 0.26475 8957612
-0.022717973 -0.025925193 0.26500002 9088684
-0.022138422 -0.025925193 0.26500002 9087917
-0.02155887 -0.025925193 0.26500002 9284526
-0.020979319 -0.025925193 0.26500002 9088430
-0.020399766 -0.025925193 0.26500002 8958128
-0.019801516 -0.025900735 0.26475 9220016
-0.019222511 -0.025900735 0.26475 9220016
-0.018643508 -0.025900735 0.26475 9088430
-0.018081561 -0.025925193 0.26500002 8957360
-0.01750201 -0.025925193 0.26500002 9154485
-0.016938422 -0.025949653 0.26525003 9088692
-0.016373741 -0.025974108 0.26550001 9220018
-0.015793094 -0.025974108 0.26550001 9088944
-0.015226775 -0.025998568 0.26575002 9417395
-0.01465936 -0.026023023 0.266 9087917
-0.014077622 -0.026023023 0.266 8626850
-0.013495883 -0.026023023 0.266 8626848
-0.013508875 -0.027221452 0.27825001 9152679
-0.013120567 -0.027686151 0.28300002 9482157
-0.016742492 -0.037077919 0.37900001 8824227
-0.016071079 -0.037444782 0.38275 9152679
-0.015273812 -0.037542615 0.38375002 10141632
-0.014490978 -0.037689362 0.38525003 10010046
-0.013648441 -0.037689362 0.38525003 10141634
-0.012814214 -0.037713818 0.38550001 10141380
-0.01197113 -0.037713818 0.38550001 10075841
-0.011128046 -0.037713818 0.38550001 10272704
-0.010291632 -0.037738279 0.38575003 10272706
-0.0094541246 -0.037762735 0.38600001 10273220
-0.0086211013 -0.037811652 0.38650003 10207425
-0.0077808592 -0.037836108 0.38675001 10272704
-0.0069350419 -0.037836108 0.38675001 10403777
-0.0060931607 -0.037860565 0.38700002 10403777
-0.0052467971 -0.037860565 0.38700002 10338497
-0.004403275 -0.037885021 0.38725001 10404290
-0.0035563642 -0.037885021 0.38725001 10404544
-0.0027112025 -0.037909482 0.38750002 10339265
-0.0018637447 -0.037909482 0.38750002 10207165
-0.0010162871 -0.037909482 0.38750002 1844007
-0.00016882946 -0.037909482 0.38750002 1447450
0.00066768262 -0.037298039 0.38125002 1513241
-0.027044717 -0.025059151 0.26200002 9415079
-0.026522243 -0.025106974 0.26250002 9087401
-0.025972869 -0.025130883 0.26275 8890792
-0.025446571 -0.025178708 0.26325002 9088171
-0.024918085 -0.02522653 0.26375002 8956331
-0.02438741 -0.025274353 0.26425001 9088171
-0.023832027 -0.025298266 0.26450002 9022378
-0.023275547 -0.025322175 0.26475 9153964
-0.022717973 -0.025346087 0.26500002 9088169
-0.022138422 -0.025346087 0.26500002 9022378
