# .PCD v0.7 - Point Cloud Data file format
VERSION 0.7
FIELDS x y z rgb
SIZE 4 4 4 4
TYPE F F F U
COUNT 1 1 1 1
WIDTH 1085
HEIGHT 1
VIEWPOINT 0 0 0 1 0 0 0
POINTS 1085
DATA ascii
-0.066982813 -0.011242043 0.58675003 5661787
-0.065671615 -0.011237253 0.58650005 5727580
-0.064388938 -0.011237253 0.58650005 5596255
-0.063079372 -0.011232463 0.58625001 5530715
-0.061770897 -0.011227674 0.58600003 5530462
-0.060489323 -0.011227674 0.58600003 5530464
-0.059182491 -0.011222884 0.58575004 5596255
-0.057901464 -0.011222884 0.58575004 5530715
-0.056620434 -0.011222884 0.58575004 5399899
-0.055315785 -0.011218093 0.5855 5465692
-0.054058377 -0.011222884 0.58575004 5596508
-0.052777354 -0.011222884 0.58575004 5727580
-0.051496327 -0.011222884 0.58575004 5727580
-0.050193861 -0.011218093 0.5855 5531485
-0.048913382 -0.011218093 0.5855 5465692
-0.047632899 -0.011218093 0.5855 5662301
-0.046332628 -0.011213304 0.58525002 5793371
-0.045052692 -0.011213304 0.58525002 5859166
-0.043772761 -0.011213304 0.58525002 5530715
-0.042474672 -0.011208514 0.58500004 5662301
-0.041195288 -0.011208514 0.58500004 5662301
-0.039898839 -0.011203724 0.58475006 5333853
-0.038570467 -0.011189355 0.58400005 5925990
-0.020454891 -0.0074052834 0.38650003 6845295
-0.019609621 -0.0074052834 0.38650003 6845295
-0.018776486 -0.0074100727 0.38675001 6911341
-0.01793067 -0.0074100727 0.38675001 7042157
-0.017095895 -0.007414863 0.38700002 6976364
-0.016249532 -0.007414863 0.38700002 6845548
-0.015413117 -0.0074196528 0.38725001 6845295
-0.014566206 -0.0074196528 0.38725001 6252641
-0.01660547 -0.011021705 0.57525003 4408379
-0.015587521 -0.011194144 0.58425003 4212027
-0.014309773 -0.011194144 0.58425003 4015418
-0.013037602 -0.011198933 0.58450001 4212027
-0.011759308 -0.011198933 0.58450001 3948853
-0.010481013 -0.011198933 0.58450001 4212027
-0.0092066564 -0.011203724 0.58475006 5132875
-0.0079278154 -0.011203724 0.58475006 5132875
-0.0066518169 -0.011208514 0.58500004 5395277
-0.0053724288 -0.011208514 0.58500004 5395279
-0.0040947902 -0.011213304 0.58525002 5198670
-0.002816058 -0.011218093 0.5855 5264463
-0.0015362328 -0.011222884 0.58575004 5264463
-0.0002553137 -0.011227674 0.58600003 5264463
0.001026261 -0.011227674 0.58600003 5198670
0.0023088201 -0.011232463 0.58625001 5198668
0.0035909414 -0.011232463 0.58625001 5264461
0.0048709852 -0.011227674 0.58600003 5199438
0.0061525595 -0.011227674 0.58600003 5133645
0.0074309632 -0.011222884 0.58575004 5133645
0.0087082721 -0.011218093 0.5855 5330254
0.0099887531 -0.011218093 0.5855 5396047
0.011264423 -0.011213304 0.58525002 5264461
0.012544358 -0.011213304 0.58525002 5265231
0.013824292 -0.011213304 0.58525002 5199438
0.015104227 -0.011213304 0.58525002 5396047
0.01638416 -0.011213304 0.58525002 5527635
0.017664095 -0.011213304 0.58525002 5396047
0.01895212 -0.011218093 0.5855 5462610
0.020232603 -0.011218093 0.5855 5132875
0.021513084 -0.011218093 0.5855 4868933
0.022803299 -0.011222884 0.58575004 3421487
0.024197398 -0.011275573 0.58850002 2039583
0.025484441 -0.011275573 0.58850002 1512982
0.026771482 -0.011275573 0.58850002 1841947
0.028058525 -0.011275573 0.58850002 2370088
0.029333102 -0.011270784 0.58825004 3752254
0.03046344 -0.011213304 0.58525002 5594711
0.031743374 -0.011213304 0.58525002 5659991
0.033009205 -0.011208514 0.58500004 5594709
0.034273937 -0.011203724 0.58475006 5659991
0.035552781 -0.011203724 0.58475006 5790807
0.036815871 -0.011198933 0.58450001 5921623
0.038077872 -0.011194144 0.58425003 5725014
0.039338782 -0.011189355 0.58400005 5725014
0.04061598 -0.011189355 0.58400005 5725012
0.041875247 -0.011184564 0.58375001 5659221
0.0431519 -0.011184564 0.58375001 5659221
0.044428553 -0.011184564 0.58375001 5527635
0.045705207 -0.011184564 0.58375001 5527635
0.046961743 -0.011179774 0.58350003 5330254
0.048237849 -0.011179774 0.58350003 5396049
0.049513958 -0.011179774 0.58350003 5265233
0.050790064 -0.011179774 0.58350003 5395796
0.052066173 -0.011179774 0.58350003 5396819
0.053342279 -0.011179774 0.58350003 5462612
0.054618388 -0.011179774 0.58350003 5396047
0.055894494 -0.011179774 0.58350003 5527633
0.057170603 -0.011179774 0.58350003 5396047
0.058446709 -0.011179774 0.58350003 5396049
0.059722818 -0.011179774 0.58350003 5593426
0.06099892 -0.011179774 0.58350003 5659219
0.06230171 -0.011184564 0.58375001 5659219
0.063605599 -0.011189355 0.58400005 5659221
0.064910568 -0.011194144 0.58425003 5659221
0.066188321 -0.011194144 0.58425003 5659221
0.067466065 -0.011194144 0.58425003 5725014
0.06874381 -0.011194144 0.58425003 5856600
0.070021555 -0.011194144 0.58425003 5856600
0.071268804 -0.011189355 0.58400005 5790554
0.072483882 -0.011179774 0.58350003 5199700
0.073696785 -0.011170194 0.583 5527635
0.074939653 -0.011165404 0.58275002 5395279
0.076181427 -0.011160614 0.58250004 5396049
0.077455349 -0.011160614 0.58250004 5460819
0.078763053 -0.011165404 0.58275002 5921623
0.080071859 -0.011170194 0.583 6119772
0.081381761 -0.011174984 0.58325005 6844265
0.082692742 -0.011179774 0.58350003 7304563
0.084004819 -0.011184564 0.58375001 8093309
0.085281484 -0.011184564 0.58375001 8882308
0.086558133 -0.011184564 0.58375001 9475213
0.08783479 -0.011184564 0.58375001 9738385
0.08911144 -0.011184564 0.58375001 10133913
0.090349391 -0.011179774 0.58350003 10331292
0.091625497 -0.011179774 0.58350003 10331292
0.092861801 -0.011174984 0.58325005 9738387
0.094137363 -0.011174984 0.58325005 10528155
0.095412925 -0.011174984 0.58325005 10726304
0.096647032 -0.011170194 0.583 10792097
0.097922049 -0.011170194 0.583 10660257
0.09919706 -0.011170194 0.583 10659487
0.10047208 -0.011170194 0.583 10528155
0.10170346 -0.011165404 0.58275002 10461338
0.10297792 -0.011165404 0.58275002 10593178
0.10714526 -0.0066197291 0.34550002 9738385
0.10790087 -0.0066197291 0.34550002 9475213
0.10865647 -0.0066197291 0.34550002 9474443
0.10941207 -0.0066197291 0.34550002 9408650
0.11008796 -0.0066149388 0.34525001 9474186
0.11036144 -0.0065861996 0.34375003 9671819
0.11103242 -0.0065814094 0.34350002 9671819
0.11178365 -0.0065814094 0.34350002 9540231
0.11253487 -0.0065814094 0.34350002 9671047
0.11328611 -0.0065814094 0.34350002 9605256
0.11403733 -0.0065814094 0.34350002 9606024
0.11478856 -0.0065814094 0.34350002 9606026
0.11553979 -0.0065814094 0.34350002 9408393
0.11629102 -0.0065814094 0.34350002 9670795
0.11704226 -0.0065814094 0.34350002 9605002
0.11787922 -0.0065861996 0.34375003 9539463
0.118631 -0.0065861996 0.34375003 9736588
0.11938278 -0.0065861996 0.34375003 9539209
0.12013455 -0.0065861996 0.34375003 9539463
0.12088633 -0.0065861996 0.34375003 9605256
0.12154964 -0.0065814094 0.34350002 9474440
0.12230086 -0.0065814094 0.34350002 9408647
0.12305211 -0.0065814094 0.34350002 9211014
0.12389344 -0.0065861996 0.34375003 9211014
0.12464522 -0.0065861996 0.34375003 9211016
0.125397 -0.0065861996 0.34375003 9211014
0.12624051 -0.006590989 0.34400001 9539463
0.12699282 -0.006590989 0.34400001 9539209
0.12765232 -0.0065861996 0.34375003 9341832
0.12831071 -0.0065814094 0.34350002 9539209
0.128968 -0.0065766191 0.34325001 9276807
0.12962422 -0.0065718298 0.34300002 9211014
0.13037436 -0.0065718298 0.34300002 9276291
0.1311245 -0.0065718298 0.34300002 9342084
0.13187462 -0.0065718298 0.34300002 9144705
0.13262476 -0.0065718298 0.34300002 9078658
0.1333749 -0.0065718298 0.34300002 8882306
0.13422279 -0.0065766191 0.34325001 8489342
0.13497347 -0.0065766191 0.34325001 8423808
0.23927264 -0.011404902 0.59525001 5526865
0.24067551 -0.011409692 0.59550005 8027249
0.24197786 -0.011409692 0.59550005 8093810
0.2432802 -0.011409692 0.59550005 8224628
0.24458255 -0.011409692 0.59550005 8355957
0.24588493 -0.011409692 0.59550005 8290162
0.24718727 -0.011409692 0.59550005 8290162
0.24838528 -0.011404902 0.59525001 8290162
0.24968708 -0.011404902 0.59525001 8486773
0.25088349 -0.011400112 0.59500003 8683639
0.25207877 -0.011395323 0.59475005 8684152
0.25337949 -0.011395323 0.59475005 8420980
0.25457314 -0.011390531 0.59450001 8290164
0.25587329 -0.011390531 0.59450001 8486773
0.25706533 -0.011385743 0.59425002 8420980
0.25836495 -0.011385743 0.59425002 8224371
0.25966457 -0.011385743 0.59425002 8486773
0.26107395 -0.011390531 0.59450001 8486771
0.26248446 -0.011395323 0.59475005 8290421
0.26389605 -0.011400112 0.59500003 8224630
0.26530874 -0.011404902 0.59525001 8290166
0.26672253 -0.011409692 0.59550005 8290164
0.26802489 -0.011409692 0.59550005 8158835
0.26921415 -0.011404902 0.59525001 8224369
0.27051595 -0.011404902 0.59525001 8158576
0.27181774 -0.011404902 0.59525001 8355439
0.27300486 -0.011400112 0.59500003 8355439
0.27430612 -0.011400112 0.59500003 8289646
0.27549157 -0.011395323 0.59475005 8224369
0.27679229 -0.011395323 0.59475005 8289394
0.27809301 -0.011395323 0.59475005 8355185
0.2793937 -0.011395323 0.59475005 8355185
0.28069443 -0.011395323 0.59475005 8158576
0.28211367 -0.011400112 0.59500003 8224371
0.28341493 -0.011400112 0.59500003 8355187
0.28471616 -0.011400112 0.59500003 8355185
0.28601742 -0.011400112 0.59500003 8420978
0.28623217 -0.011357002 0.59275001 8355187
0.28728601 -0.011347423 0.59225005 8420465
0.28845942 -0.011342633 0.59200001 8420465
0.28963175 -0.011337843 0.59175003 8289392
0.29080302 -0.011333053 0.59150004 8224371
0.29209661 -0.011333053 0.59150004 8354674
0.29326618 -0.011328262 0.59125 8223599
0.29455924 -0.011328262 0.59125 8026990
-0.30521223 -0.010290818 0.60625005 7304816
-0.30401167 -0.010295061 0.60650003 7239021
-0.30268526 -0.010295061 0.60650003 7370607
-0.30148306 -0.010299305 0.60675001 7239021
-0.3002798 -0.010303549 0.60700005 7304814
-0.29895228 -0.010303549 0.60700005 7501423
-0.29774737 -0.010307793 0.60725003 7501425
-0.29641932 -0.010307793 0.60725003 7370356
-0.2949698 -0.010303549 0.60700005 7239283
-0.29352134 -0.010299305 0.60675001 7239283
-0.29195362 -0.010290818 0.60625005 7370609
-0.29050788 -0.010286574 0.60600001 7304563
-0.28906327 -0.01028233 0.60575002 7238770
-0.2877385 -0.01028233 0.60575002 7436402
-0.28653193 -0.010286574 0.60600001 7370607
-0.28532431 -0.010290818 0.60625005 7501423
-0.28411555 -0.010295061 0.60650003 7305327
-0.2829057 -0.010299305 0.60675001 7108718
-0.28169477 -0.010303549 0.60700005 7239536
-0.28036729 -0.010303549 0.60700005 7305329
-0.27915469 -0.010307793 0.60725003 7174511
-0.27794102 -0.010312036 0.60750002 7042927
-0.2766124 -0.010312036 0.60750002 7042927
-0.27539712 -0.010316281 0.60775006 7042927
-0.274068 -0.010316281 0.60775006 7108720
-0.27262664 -0.010312036 0.60750002 7370869
-0.27129805 -0.010312036 0.60750002 7370609
-0.26985836 -0.010307793 0.60725003 7370609
-0.26830921 -0.010299305 0.60675001 7305329
-0.26687226 -0.010295061 0.60650003 7174513
-0.26554582 -0.010295061 0.60650003 7371120
-0.26411051 -0.010290818 0.60625005 7502193
-0.26289302 -0.010295061 0.60650003 7436913
-0.2616744 -0.010299305 0.60675001 7371120
-0.26045474 -0.010303549 0.60700005 7305327
-0.25934067 -0.010312036 0.60750002 7370609
-0.2581183 -0.010316281 0.60775006 7370609
-0.25689477 -0.010320524 0.60800004 7371122
-0.25556508 -0.010320524 0.60800004 7371120
-0.25413084 -0.010316281 0.60775006 7436915
-0.25269771 -0.010312036 0.60750002 7371122
-0.25126567 -0.010307793 0.60725003 7370869
-0.24973182 -0.010299305 0.60675001 7436915
-0.24820019 -0.010290818 0.60625005 7436915
-0.24677251 -0.010286574 0.60600001 7371120
-0.24534595 -0.01028233 0.60575002 7436913
-0.24402118 -0.01028233 0.60575002 7371120
-0.2426964 -0.01028233 0.60575002 7174511
-0.24137163 -0.01028233 0.60575002 7306097
-0.24014594 -0.010286574 0.60600001 7634294
-0.23882061 -0.010286574 0.60600001 7502708
-0.23759329 -0.010290818 0.60625005 7502193
-0.23626743 -0.010290818 0.60625005 7436402
-0.23494159 -0.010290818 0.60625005 7371122
-0.23361573 -0.010290818 0.60625005 7370609
-0.23228985 -0.010290818 0.60625005 7370607
-0.23096399 -0.010290818 0.60625005 7502193
-0.22954342 -0.010286574 0.60600001 7370607
-0.22821811 -0.010286574 0.60600001 7502193
-0.22689278 -0.010286574 0.60600001 7436400
-0.22566055 -0.010290818 0.60625005 7109233
-0.22433469 -0.010290818 0.60625005 7240819
-0.22310078 -0.010295061 0.60650003 7436913
-0.22186577 -0.010299305 0.60675001 7436400
-0.22062971 -0.010303549 0.60700005 7436913
-0.21930221 -0.010303549 0.60700005 7502706
-0.21797471 -0.010303549 0.60700005 7437167
-0.21664721 -0.010303549 0.60700005 7305327
-0.21531971 -0.010303549 0.60700005 7305327
-0.21390405 -0.010299305 0.60675001 7437167
-0.21248952 -0.010295061 0.60650003 7174765
-0.21107608 -0.010290818 0.60625005 7305327
-0.20975021 -0.010290818 0.60625005 7502195
-0.20842434 -0.010290818 0.60625005 7370609
-0.20709848 -0.010290818 0.60625005 7305329
-0.20577262 -0.010290818 0.60625005 7174513
-0.20444676 -0.010290818 0.60625005 7175024
-0.2031209 -0.010290818 0.60625005 7240306
-0.20179506 -0.010290818 0.60625005 7371120
-0.2004692 -0.010290818 0.60625005 7436913
-0.19914332 -0.010290818 0.60625005 7371122
-0.19773586 -0.010286574 0.60600001 7304816
-0.1964916 -0.010290818 0.60625005 7305329
-0.19516574 -0.010290818 0.60625005 7305329
-0.19383988 -0.010290818 0.60625005 7240306
-0.19251402 -0.010290818 0.60625005 7174513
-0.19118816 -0.010290818 0.60625005 7305329
-0.1898623 -0.010290818 0.60625005 7239536
-0.18861416 -0.010295061 0.60650003 7306097
-0.18728776 -0.010295061 0.60650003 7108972
-0.186038 -0.010299305 0.60675001 7108718
-0.18471105 -0.010299305 0.60675001 7174511
-0.18345967 -0.010303549 0.60700005 7108718
-0.18213217 -0.010303549 0.60700005 7108718
-0.18080467 -0.010303549 0.60700005 7108720
-0.17940325 -0.010299305 0.60675001 7042927
-0.17800289 -0.010295061 0.60650003 7108467
-0.17660367 -0.010290818 0.60625005 6911088
-0.17527781 -0.010290818 0.60625005 6845548
-0.1738802 -0.010286574 0.60600001 6780268
-0.1725549 -0.010286574 0.60600001 6648682
-0.17122959 -0.010286574 0.60600001 6714473
-0.16990428 -0.010286574 0.60600001 6779753
-0.16857897 -0.010286574 0.60600001 6779755
-0.16732267 -0.010290818 0.60625005 6910058
-0.16599679 -0.010290818 0.60625005 6975849
-0.16467093 -0.010290818 0.60625005 6910571
-0.16334507 -0.010290818 0.60625005 6845548
-0.16201921 -0.010290818 0.60625005 6845548
-0.16069335 -0.010290818 0.60625005 6976362
-0.15930176 -0.010286574 0.60600001 7042157
-0.15791129 -0.01028233 0.60575002 6846061
-0.15652189 -0.010278087 0.60550004 6912368
-0.15513356 -0.010273843 0.60525 6912368
-0.15380989 -0.010273843 0.60525 6978161
-0.15242325 -0.0102696 0.60500002 6583403
-0.15110011 -0.0102696 0.60500002 6123369
-0.14971511 -0.010265356 0.60475004 5399648
-0.1469816 -0.010167752 0.59900004 5464157
-0.14433403 -0.010074392 0.59350002 5595741
-0.14201179 -0.010002251 0.58925003 5595741
-0.14066342 -0.0099980077 0.58900005 5398362
-0.13931611 -0.0099937627 0.58875 5463642
-0.13796991 -0.0099895196 0.58850002 5332569
-0.13668287 -0.0099895196 0.58850002 5464408
-0.13539582 -0.0099895196 0.58850002 5267541
-0.13410878 -0.0099895196 0.58850002 5333336
-0.13282174 -0.0099895196 0.58850002 5596255
-0.1315347 -0.0099895196 0.58850002 5464669
-0.13030298 -0.0099937627 0.58875 5333853
-0.1290154 -0.0099937627 0.58875 5201750
-0.12778206 -0.0099980077 0.58900005 3621691
-0.1265476 -0.010002251 0.58925003 4739149
-0.12536521 -0.010010738 0.58975005 5726814
-0.12418062 -0.010019225 0.59025002 5399646
-0.12262952 -0.0099980077 0.58900005 5465439
-0.12098085 -0.0099683022 0.58725005 5530715
-0.11964558 -0.0099640572 0.58700001 5662301
-0.11836182 -0.0099640572 0.58700001 5464669
-0.11712793 -0.0099683022 0.58725005 5530462
-0.11584362 -0.0099683022 0.58725005 5595741
-0.11455932 -0.0099683022 0.58725005 5726816
-0.11327501 -0.0099683022 0.58725005 5661536
-0.11203837 -0.0099725453 0.58750004 5661021
-0.11075351 -0.0099725453 0.58750004 5595741
-0.10946865 -0.0099725453 0.58750004 5464669
-0.10813777 -0.0099683022 0.58725005 5464669
-0.10685346 -0.0099683022 0.58725005 5464922
-0.10556915 -0.0099683022 0.58725005 5333336
-0.10428485 -0.0099683022 0.58725005 5661534
-0.10300054 -0.0099683022 0.58725005 5464669
-0.10171623 -0.0099683022 0.58725005 5399646
-0.10043192 -0.0099683022 0.58725005 5530462
-0.09914761 -0.0099683022 0.58725005 5530464
-0.097863302 -0.0099683022 0.58725005 5596257
-0.096537873 -0.0099640572 0.58700001 5727329
-0.095254108 -0.0099640572 0.58700001 5661534
-0.093930326 -0.0099598141 0.58675003 5792607
-0.092607647 -0.009955571 0.58650005 5727327
-0.091286041 -0.009951327 0.58625001 5662048
-0.089927167 -0.0099428399 0.58575004 5662048
-0.088646136 -0.0099428399 0.58575004 5465439
-0.087327816 -0.0099385958 0.5855 5662048
-0.086047336 -0.0099385958 0.5855 5530462
-0.084766857 -0.0099385958 0.5855 5727841
-0.083557665 -0.009947083 0.58600003 5858913
-0.082416497 -0.0099640572 0.58700001 5662301
-0.081201844 -0.0099725453 0.58750004 5661787
-0.079916991 -0.0099725453 0.58750004 5661787
-0.078665592 -0.0099767884 0.58775002 5727580
-0.077380188 -0.0099767884 0.58775002 5530462
-0.076062426 -0.0099725453 0.58750004 5530462
-0.074777573 -0.0099725453 0.58750004 5596508
-0.073461436 -0.0099683022 0.58725005 5727580
-0.072177134 -0.0099683022 0.58725005 5727327
-0.070892826 -0.0099683022 0.58725005 5662048
-0.069608517 -0.0099683022 0.58725005 5727580
-0.068295121 -0.0099640572 0.58700001 5793373
-0.067011356 -0.0099640572 0.58700001 5859166
-0.0656996 -0.0099598141 0.58675003 5464669
-0.064388938 -0.009955571 0.58650005 5399646
-0.063079372 -0.009951327 0.58625001 5399899
-0.061797246 -0.009951327 0.58625001 5727580
-0.060489323 -0.009947083 0.58600003 5596255
-0.059182491 -0.0099428399 0.58575004 5465692
-0.057901464 -0.0099428399 0.58575004 5465439
-0.056596264 -0.0099385958 0.5855 5465439
-0.055315785 -0.0099385958 0.5855 5399646
-0.054035302 -0.0099385958 0.5855 5596255
-0.052754823 -0.0099385958 0.5855 5596255
-0.051474344 -0.0099385958 0.5855 5596255
-0.050193861 -0.0099385958 0.5855 5465439
-0.048913382 -0.0099385958 0.5855 5465692
-0.047632899 -0.0099385958 0.5855 5531483
-0.046332628 -0.0099343527 0.58525002 5596508
-0.045052692 -0.0099343527 0.58525002 5793373
-0.043772761 -0.0099343527 0.58525002 5728094
-0.042492822 -0.0099343527 0.58525002 5662301
-0.04121289 -0.0099343527 0.58525002 5728094
-0.039932955 -0.0099343527 0.58525002 5464669
-0.038603488 -0.0099216215 0.58450001 6517357
-0.016598254 -0.009760364 0.57500005 4342589
-0.015494143 -0.0098579675 0.58075005 4146750
-0.014309773 -0.0099173784 0.58425003 4146234
-0.013037602 -0.0099216215 0.58450001 4146232
-0.011759308 -0.0099216215 0.58450001 4212027
-0.010481013 -0.0099216215 0.58450001 4540992
-0.0092066564 -0.0099258656 0.58475006 5067336
-0.0079278154 -0.0099258656 0.58475006 5264715
-0.0066518169 -0.0099301087 0.58500004 5198922
-0.0053724288 -0.0099301087 0.58500004 5461324
-0.0040947902 -0.0099343527 0.58525002 5330254
-0.002816058 -0.0099385958 0.5855 5199440
-0.0015362328 -0.0099428399 0.58575004 5330256
-0.0002553137 -0.009947083 0.58600003 5264463
0.001026261 -0.009947083 0.58600003 5396047
0.0023088201 -0.009951327 0.58625001 5461324
0.0035909414 -0.009951327 0.58625001 5395531
0.0048709852 -0.009947083 0.58600003 5264715
0.0061525595 -0.009947083 0.58600003 5199692
0.0074309632 -0.0099428399 0.58575004 5265485
0.0087119909 -0.0099428399 0.58575004 5330506
0.0099887531 -0.0099385958 0.5855 5396299
0.011269235 -0.0099385958 0.5855 5396301
0.012549716 -0.0099385958 0.5855 5331791
0.013830197 -0.0099385958 0.5855 5331791
0.015110678 -0.0099385958 0.5855 5528403
0.016391158 -0.0099385958 0.5855 5528403
0.017671639 -0.0099385958 0.5855 5462610
0.01895212 -0.0099385958 0.5855 5659991
0.020241242 -0.0099428399 0.58575004 5133645
0.021522271 -0.0099428399 0.58575004 4277820
0.022813031 -0.009947083 0.58600003 3488304
0.024197398 -0.0099895196 0.58850002 987665
0.025484441 -0.0099895196 0.58850002 263174
0.026771482 -0.0099895196 0.58850002 2500136
0.028058525 -0.0099895196 0.58850002 1975332
0.029333102 -0.0099852765 0.58825004 4212292
0.030476453 -0.0099385958 0.5855 5725012
0.031743374 -0.0099343527 0.58525002 5725782
0.033023309 -0.0099343527 0.58525002 5725784
0.034288593 -0.0099301087 0.58500004 5725784
0.035552781 -0.0099258656 0.58475006 5659991
0.036815871 -0.0099216215 0.58450001 5921623
0.038077872 -0.0099173784 0.58425003 5988186
0.039355621 -0.0099173784 0.58425003 5790807
0.040633366 -0.0099173784 0.58425003 5790807
0.041893184 -0.0099131344 0.58400005 5856600
0.043170381 -0.0099131344 0.58400005 5593428
0.044447586 -0.0099131344 0.58400005 5659991
0.045705207 -0.0099088904 0.58375001 5528403
0.046981864 -0.0099088904 0.58375001 5462610
0.048258517 -0.0099088904 0.58375001 5396819
0.049513958 -0.0099046472 0.58350003 5265233
0.050790064 -0.0099046472 0.58350003 5265231
0.052066173 -0.0099046472 0.58350003 5527633
0.053342279 -0.0099046472 0.58350003 5724244
0.054618388 -0.0099046472 0.58350003 5658451
0.055894494 -0.0099046472 0.58350003 5527633
0.057170603 -0.0099046472 0.58350003 5396817
0.058446709 -0.0099046472 0.58350003 5462612
0.059722818 -0.0099046472 0.58350003 5593426
0.061025057 -0.0099088904 0.58375001 5725012
0.06230171 -0.0099088904 0.58375001 5658449
0.063605599 -0.0099131344 0.58400005 5789780
0.064910568 -0.0099173784 0.58425003 5723987
0.06621664 -0.0099216215 0.58450001 5526612
0.067494929 -0.0099216215 0.58450001 5658451
0.068773225 -0.0099216215 0.58450001 5724242
0.070021555 -0.0099173784 0.58425003 5855830
0.071268804 -0.0099131344 0.58400005 5790037
0.072483882 -0.0099046472 0.58350003 5659221
0.07372839 -0.0099004032 0.58325005 5594198
0.074971803 -0.0098961592 0.583 5659221
0.07621412 -0.0098919161 0.58275002 5725014
0.077488586 -0.0098919161 0.58275002 5790807
0.078796841 -0.0098961592 0.583 5594198
0.080106199 -0.0099004032 0.58325005 5659991
0.081416637 -0.0099046472 0.58350003 5462612
0.08272817 -0.0099088904 0.58375001 5199700
0.084004819 -0.0099088904 0.58375001 5330256
0.085318014 -0.0099131344 0.58400005 5461072
0.086595215 -0.0099131344 0.58400005 5592401
0.08783479 -0.0099088904 0.58375001 5855830
0.08911144 -0.0099088904 0.58375001 5462612
0.090349391 -0.0099046472 0.58350003 6053979
0.091625497 -0.0099046472 0.58350003 6251358
0.092901602 -0.0099046472 0.58350003 7237483
0.094137363 -0.0099004032 0.58325005 5988184
0.095412925 -0.0099004032 0.58325005 6448735
0.096688487 -0.0099004032 0.58325005 6909288
0.097922049 -0.0098961592 0.583 7567218
0.09919706 -0.0098961592 0.583 8356732
0.10047208 -0.0098961592 0.583 9014662
0.10174709 -0.0098961592 0.583 9475213
0.1030221 -0.0098961592 0.583 9935764
0.10429712 -0.0098961592 0.583 10462108
0.10552686 -0.0098919161 0.58275002 10527133
0.10680133 -0.0098919161 0.58275002 10659487
0.1080758 -0.0098919161 0.58275002 10857120
0.10935026 -0.0098919161 0.58275002 10987936
0.11062472 -0.0098919161 0.58275002 11185056
0.1118992 -0.0098919161 0.58275002 10922141
0.11317366 -0.0098919161 0.58275002 10527385
0.11444813 -0.0098919161 0.58275002 10658717
0.11184052 -0.0058731926 0.34600002 9672846
0.11259721 -0.0058731926 0.34600002 9606283
0.1131082 -0.0058604614 0.34525001 9671819
0.11336856 -0.005835 0.34375003 9738385
0.11403733 -0.0058307564 0.34350002 9738639
0.11478856 -0.0058307564 0.34350002 9606029
0.11553979 -0.0058307564 0.34350002 9671822
0.11629102 -0.0058307564 0.34350002 9605772
0.11712745 -0.005835 0.34375003 9802381
0.11787922 -0.005835 0.34375003 9604743
0.11871727 -0.0058392435 0.34400001 9539463
0.11938278 -0.005835 0.34375003 9474443
0.12013455 -0.005835 0.34375003 9408652
0.12088633 -0.005835 0.34375003 9276807
0.1216381 -0.005835 0.34375003 9211268
0.12238988 -0.005835 0.34375003 9407877
0.12314166 -0.005835 0.34375003 9341317
0.12389344 -0.005835 0.34375003 9210246
0.12473586 -0.0058392435 0.34400001 9013894
0.12557939 -0.0058434871 0.34425002 9211014
0.12633225 -0.0058434871 0.34425002 9407623
0.12708512 -0.0058434871 0.34425002 9604489
0.12783799 -0.0058434871 0.34425002 9341830
0.12849747 -0.0058392435 0.34400001 9145221
0.12906194 -0.0058307564 0.34350002 9145221
0.12971869 -0.0058265124 0.34325001 9079428
0.13046937 -0.0058265124 0.34325001 9145221
0.1311245 -0.0058222692 0.34300002 9079428
0.13187462 -0.0058222692 0.34300002 9013887
0.13272142 -0.0058265124 0.34325001 8882558
0.1334721 -0.0058265124 0.34325001 8750972
0.13422279 -0.0058265124 0.34325001 8620158
0.13507177 -0.0058307564 0.34350002 8225916
0.23937316 -0.010108341 0.59550005 5985874
0.24067551 -0.010108341 0.59550005 8093042
0.24197786 -0.010108341 0.59550005 8422007
0.2432802 -0.010108341 0.59550005 8487543
0.24458255 -0.010108341 0.59550005 8618361
0.24588493 -0.010108341 0.59550005 8486775
0.24718727 -0.010108341 0.59550005 8355957
0.24848962 -0.010108341 0.59550005 8487543
0.24968708 -0.010104097 0.59525001 8355957
0.25088349 -0.010099854 0.59500003 8420980
0.25218472 -0.010099854 0.59500003 8618359
0.25337949 -0.010095611 0.59475005 8290164
0.25457314 -0.010091366 0.59450001 8355957
0.25587329 -0.010091366 0.59450001 8290164
0.25706533 -0.010087123 0.59425002 8486258
0.25836495 -0.010087123 0.59425002 8486258
0.25966457 -0.010087123 0.59425002 8420980
0.26107395 -0.010091366 0.59450001 8420978
0.2623741 -0.010091366 0.59450001 8355189
0.26378518 -0.010095611 0.59475005 8355189
0.26519731 -0.010099854 0.59500003 8420982
0.26661053 -0.010104097 0.59525001 8224630
0.26791236 -0.010104097 0.59525001 8224626
0.26921415 -0.010104097 0.59525001 8224626
0.27051595 -0.010104097 0.59525001 8355957
0.2717036 -0.010099854 0.59500003 8486260
0.27300486 -0.010099854 0.59500003 8355185
0.27419087 -0.010095611 0.59475005 8224369
0.27549157 -0.010095611 0.59475005 8224369
0.27667591 -0.010091366 0.59450001 8158835
0.2779761 -0.010091366 0.59450001 8158578
0.27927625 -0.010091366 0.59450001 8486771
0.28057641 -0.010091366 0.59450001 8355187
0.28199515 -0.010095611 0.59475005 8224371
0.28329584 -0.010095611 0.59475005 8224371
0.28459656 -0.010095611 0.59475005 8223599
0.28577706 -0.010091366 0.59450001 8289394
0.28623217 -0.010061662 0.59275001 8355187
0.28728601 -0.010053175 0.59225005 8224623
0.28845942 -0.010048931 0.59200001 8158830
0.28963175 -0.010044686 0.59175003 8093037
0.29092589 -0.010044686 0.59175003 8026992
0.29209661 -0.010040443 0.59150004 8158580
0.29326618 -0.010036199 0.59125 8026224
0.29455924 -0.010036199 0.59125 8092787
-0.30521223 -0.0089659756 0.60625005 7369839
-0.30388635 -0.0089659756 0.60625005 7239023
-0.30268526 -0.008969673 0.60650003 7239534
-0.30148306 -0.0089733703 0.60675001 7239536
-0.3002798 -0.0089770677 0.60700005 7304814
-0.29895228 -0.0089770677 0.60700005 7435632
-0.29774737 -0.008980765 0.60725003 7369839
-0.29641932 -0.008980765 0.60725003 7369839
-0.2949698 -0.0089770677 0.60700005 7436402
-0.29352134 -0.0089733703 0.60675001 7304816
-0.29207399 -0.008969673 0.60650003 7435632
-0.29050788 -0.0089622783 0.60600001 7369839
-0.28918257 -0.0089622783 0.60600001 7501425
-0.2877385 -0.0089585809 0.60575002 7435632
-0.28653193 -0.0089622783 0.60600001 7435632
-0.28532431 -0.0089659756 0.60625005 7304816
-0.28411555 -0.008969673 0.60650003 7371122
-0.28278914 -0.008969673 0.60650003 7108718
-0.28157875 -0.0089733703 0.60675001 7239536
-0.28036729 -0.0089770677 0.60700005 7370609
-0.27915469 -0.008980765 0.60725003 7239021
-0.27782667 -0.008980765 0.60725003 7501423
-0.2766124 -0.0089844624 0.60750002 7501423
-0.27528381 -0.0089844624 0.60750002 7174513
-0.27395523 -0.0089844624 0.60750002 7043187
-0.27262664 -0.0089844624 0.60750002 7174260
-0.27118641 -0.008980765 0.60725003 7305329
-0.26974726 -0.0089770677 0.60700005 7371122
-0.26830921 -0.0089733703 0.60675001 7436400
-0.26687226 -0.008969673 0.60650003 7436915
-0.26543638 -0.0089659756 0.60625005 7305329
-0.26411051 -0.0089659756 0.60625005 7371120
-0.26289302 -0.008969673 0.60650003 7371120
-0.2616744 -0.0089733703 0.60675001 7240304
-0.26045474 -0.0089770677 0.60700005 7109231
-0.25934067 -0.0089844624 0.60750002 7371120
-0.2581183 -0.0089881597 0.60775006 7436402
-0.25689477 -0.0089918571 0.60800004 7305327
-0.25556508 -0.0089918571 0.60800004 7436913
-0.25413084 -0.0089881597 0.60775006 7436915
-0.25269771 -0.0089844624 0.60750002 7370869
-0.25126567 -0.008980765 0.60725003 7305846
-0.24973182 -0.0089733703 0.60675001 7436915
-0.24830253 -0.008969673 0.60650003 7502193
-0.24687433 -0.0089659756 0.60625005 7436400
-0.2454472 -0.0089622783 0.60600001 7371120
-0.24402118 -0.0089585809 0.60575002 7371120
-0.2426964 -0.0089585809 0.60575002 7436913
-0.24137163 -0.0089585809 0.60575002 7502193
-0.24014594 -0.0089622783 0.60600001 6646884
-0.23882061 -0.0089622783 0.60600001 7239536
-0.23759329 -0.0089659756 0.60625005 7371122
-0.23626743 -0.0089659756 0.60625005 7371122
-0.23503846 -0.008969673 0.60650003 7305329
-0.23371205 -0.008969673 0.60650003 7436913
-0.23238562 -0.008969673 0.60650003 7305581
-0.23096399 -0.0089659756 0.60625005 7436654
-0.22963813 -0.0089659756 0.60625005 7436400
-0.22831227 -0.0089659756 0.60625005 7240304
-0.22698641 -0.0089659756 0.60625005 7240558
-0.22566055 -0.0089659756 0.60625005 7371374
-0.22433469 -0.0089659756 0.60625005 7306097
-0.22310078 -0.008969673 0.60650003 7436913
-0.22186577 -0.0089733703 0.60675001 7436400
-0.22053882 -0.0089733703 0.60675001 7436913
-0.21930221 -0.0089770677 0.60700005 7239534
-0.21797471 -0.0089770677 0.60700005 7371122
-0.21664721 -0.0089770677 0.60700005 7502706
-0.21531971 -0.0089770677 0.60700005 7240558
-0.21390405 -0.0089733703 0.60675001 7372144
-0.2125771 -0.0089733703 0.60675001 7109233
-0.21116312 -0.008969673 0.60650003 7240306
-0.20975021 -0.0089659756 0.60625005 7436913
-0.20842434 -0.0089659756 0.60625005 7436400
-0.20709848 -0.0089659756 0.60625005 7436913
-0.20577262 -0.0089659756 0.60625005 7370607
-0.20444676 -0.0089659756 0.60625005 7502706
-0.2031209 -0.0089659756 0.60625005 7306097
-0.20179506 -0.0089659756 0.60625005 7371374
-0.20038651 -0.0089622783 0.60600001 7371374
-0.19906119 -0.0089622783 0.60600001 7436400
-0.19773586 -0.0089622783 0.60600001 7371122
-0.19641055 -0.0089622783 0.60600001 7305329
-0.19516574 -0.0089659756 0.60625005 7173743
-0.19383988 -0.0089659756 0.60625005 7371120
-0.19251402 -0.0089659756 0.60625005 7305329
-0.19118816 -0.0089659756 0.60625005 7174513
-0.18994059 -0.008969673 0.60650003 7174511
-0.18861416 -0.008969673 0.60650003 7240558
-0.18736495 -0.0089733703 0.60675001 7174511
-0.186038 -0.0089733703 0.60675001 7042925
-0.18478717 -0.0089770677 0.60700005 7108718
-0.18345967 -0.0089770677 0.60700005 7042925
-0.18213217 -0.0089770677 0.60700005 7108718
-0.18080467 -0.0089770677 0.60700005 7042925
-0.17947717 -0.0089770677 0.60700005 7042925
-0.17807627 -0.0089733703 0.60675001 7239536
-0.1766765 -0.008969673 0.60650003 7239023
-0.17527781 -0.0089659756 0.60625005 7041644
-0.1738802 -0.0089622783 0.60600001 6779755
-0.1725549 -0.0089622783 0.60600001 6517608
-0.17122959 -0.0089622783 0.60600001 6714473
-0.16990428 -0.0089622783 0.60600001 6713960
-0.16857897 -0.0089622783 0.60600001 6778985
-0.16732267 -0.0089659756 0.60625005 6910571
-0.16599679 -0.0089659756 0.60625005 6648169
-0.16473882 -0.008969673 0.60650003 6648682
-0.16341242 -0.008969673 0.60650003 6714475
-0.16208601 -0.008969673 0.60650003 6845548
-0.16069335 -0.0089659756 0.60625005 6845548
-0.15936749 -0.0089659756 0.60625005 6846059
-0.15797645 -0.0089622783 0.60600001 6978159
-0.15658651 -0.0089585809 0.60575002 6846573
-0.15519765 -0.0089548845 0.60550004 7043438
-0.15380989 -0.0089511862 0.60525 7043438
-0.15242325 -0.0089474889 0.60500002 6518380
-0.15103768 -0.0089437924 0.60475004 6058089
-0.14971511 -0.0089437924 0.60475004 5333083
-0.1468589 -0.0088513587 0.59850001 5267292
-0.14421244 -0.0087700188 0.59300005 5333085
-0.14201179 -0.0087145586 0.58925003 5333083
-0.14066342 -0.0087108612 0.58900005 5201497
-0.13931611 -0.0087071639 0.58875 5267290
-0.13796991 -0.0087034665 0.58850002 5464669
-0.13668287 -0.0087034665 0.58850002 5267290
-0.13533832 -0.0086997701 0.58825004 5267290
-0.13405183 -0.0086997701 0.58825004 5661787
-0.13282174 -0.0087034665 0.58850002 5793373
-0.1315347 -0.0087034665 0.58850002 5596255
-0.13024767 -0.0087034665 0.58850002 5465441
-0.1290154 -0.0087071639 0.58875 5727327
-0.12772781 -0.0087071639 0.58875 5793120
-0.12644021 -0.0087071639 0.58875 5596255
-0.1250995 -0.0087034665 0.58850002 5399646
-0.12365466 -0.0086923745 0.58775002 5531232
-0.12231722 -0.008688678 0.58750004 5662048
-0.12098085 -0.0086849807 0.58725005 5595994
-0.11969655 -0.0086849807 0.58725005 5529435
-0.11836182 -0.0086812824 0.58700001 5661787
-0.11712793 -0.0086849807 0.58725005 5530715
-0.11584362 -0.0086849807 0.58725005 5595741
-0.11455932 -0.0086849807 0.58725005 5530462
-0.11327501 -0.0086849807 0.58725005 5661534
-0.11203837 -0.008688678 0.58750004 5596255
-0.11075351 -0.008688678 0.58750004 5530464
-0.10946865 -0.008688678 0.58750004 5399646
-0.1081838 -0.008688678 0.58750004 5530462
-0.10685346 -0.0086849807 0.58725005 5530715
-0.10556915 -0.0086849807 0.58725005 5465439
-0.10428485 -0.0086849807 0.58725005 5530462
-0.10300054 -0.0086849807 0.58725005 5661536
-0.10171623 -0.0086849807 0.58725005 5661536
-0.10043192 -0.0086849807 0.58725005 5727327
-0.09914761 -0.0086849807 0.58725005 5530462
-0.097863302 -0.0086849807 0.58725005 5530462
-0.096537873 -0.0086812824 0.58700001 5727327
-0.095254108 -0.0086812824 0.58700001 5596255
-0.093930326 -0.008677586 0.58675003 5661787
-0.092607647 -0.0086738886 0.58650005 5661534
-0.091247119 -0.0086664939 0.58600003 5596255
-0.089927167 -0.0086627966 0.58575004 5530464
-0.088608295 -0.0086590983 0.5855 5596255
-0.087327816 -0.0086590983 0.5855 5596255
-0.086047336 -0.0086590983 0.5855 5662048
-0.084766857 -0.0086590983 0.5855 5596255
-0.083557665 -0.0086664939 0.58600003 5530462
-0.082451604 -0.0086849807 0.58725005 5332569
-0.081201844 -0.008688678 0.58750004 5464922
-0.079950996 -0.0086923745 0.58775002 5530715
-0.078699045 -0.0086960718 0.588 5596255
-0.077413097 -0.0086960718 0.588 5596508
-0.076094791 -0.0086923745 0.58775002 5596508
-0.074809387 -0.0086923745 0.58775002 5662301
-0.073492713 -0.008688678 0.58750004 5596255
-0.072207853 -0.008688678 0.58750004 5596255
-0.070923001 -0.008688678 0.58750004 5727327
-0.069608517 -0.0086849807 0.58725005 5662301
-0.068324208 -0.0086849807 0.58725005 5727580
-0.0670399 -0.0086849807 0.58725005 5596508
-0.065727592 -0.0086812824 0.58700001 5399646
-0.064416386 -0.008677586 0.58675003 5399646
-0.063106276 -0.0086738886 0.58650005 5597025
-0.061797246 -0.0086701903 0.58625001 5662048
-0.060489323 -0.0086664939 0.58600003 5596255
-0.059182491 -0.0086627966 0.58575004 5596508
-0.057901464 -0.0086627966 0.58575004 5596508
-0.056596264 -0.0086590983 0.5855 5530715
-0.055315785 -0.0086590983 0.5855 5662301
-0.054035302 -0.0086590983 0.5855 5728094
-0.052754823 -0.0086590983 0.5855 5531232
-0.051474344 -0.0086590983 0.5855 5531232
-0.050193861 -0.0086590983 0.5855 5597025
-0.048913382 -0.0086590983 0.5855 5728094
-0.047632899 -0.0086590983 0.5855 5728094
-0.04635242 -0.0086590983 0.5855 5728094
-0.045071937 -0.0086590983 0.5855 5662301
-0.043791458 -0.0086590983 0.5855 5728094
-0.042510971 -0.0086590983 0.5855 5924959
-0.041230492 -0.0086590983 0.5855 5859166
-0.039950009 -0.0086590983 0.5855 5464922
-0.03865302 -0.0086554019 0.58525002 6911341
-0.037341159 -0.0086480072 0.58475006 6648169
-0.035738539 -0.0085703637 0.57950002 6713709
-0.015334065 -0.0085001141 0.57475001 4277820
-0.01422405 -0.0085888505 0.58075005 4212027
-0.013037602 -0.0086443098 0.58450001 4277820
-0.011759308 -0.0086443098 0.58450001 4145980
-0.010481013 -0.0086443098 0.58450001 4803140
-0.0092066564 -0.0086480072 0.58475006 5264461
-0.0079278154 -0.0086480072 0.58475006 5199438
-0.0066518169 -0.0086517045 0.58500004 5265485
-0.0053724288 -0.0086517045 0.58500004 5461324
-0.0040947902 -0.0086554019 0.58525002 5330508
-0.002816058 -0.0086590983 0.5855 5396047
-0.0015362328 -0.0086627966 0.58575004 5396047
-0.0002553137 -0.0086664939 0.58600003 5330254
0.0010266987 -0.0086701903 0.58625001 5264461
0.0023088201 -0.0086701903 0.58625001 5396047
0.0035909414 -0.0086701903 0.58625001 5396047
0.0048730629 -0.0086701903 0.58625001 5199692
0.0061525595 -0.0086664939 0.58600003 5134412
0.0074309632 -0.0086627966 0.58575004 5265485
0.0087119909 -0.0086627966 0.58575004 5396299
0.0099887531 -0.0086590983 0.5855 5527885
0.011269235 -0.0086590983 0.5855 5396301
0.012549716 -0.0086590983 0.5855 5397584
0.013830197 -0.0086590983 0.5855 5463123
0.015110678 -0.0086590983 0.5855 5462610
0.016391158 -0.0086590983 0.5855 5594196
0.017679187 -0.0086627966 0.58575004 5659219
0.018960215 -0.0086627966 0.58575004 5790805
0.020241242 -0.0086627966 0.58575004 5725782
0.021531455 -0.0086664939 0.58600003 4409152
0.022813031 -0.0086664939 0.58600003 4409152
0.02416656 -0.0086923745 0.58775002 3751476
0.025473615 -0.0086997701 0.58825004 3027499
0.026760111 -0.0086997701 0.58825004 3488052
0.028046606 -0.0086997701 0.58825004 2040353
0.029208438 -0.0086627966 0.58575004 5264463
0.030476453 -0.0086590983 0.5855 5659989
0.031743374 -0.0086554019 0.58525002 5725782
0.033023309 -0.0086554019 0.58525002 5659991
0.034288593 -0.0086517045 0.58500004 5857370
0.035552781 -0.0086480072 0.58475006 5857370
0.036815871 -0.0086443098 0.58450001 5988184
0.038094163 -0.0086443098 0.58450001 5987414
0.039355621 -0.0086406125 0.58425003 5921621
0.040633366 -0.0086406125 0.58425003 5988184
0.041911118 -0.0086406125 0.58425003 5856600
0.043170381 -0.0086369151 0.58400005 5659991
0.044447586 -0.0086369151 0.58400005 5857370
0.045724783 -0.0086369151 0.58400005 5790807
0.046981864 -0.0086332178 0.58375001 5658968
0.048258517 -0.0086332178 0.58375001 5659221
0.04953517 -0.0086332178 0.58375001 5527887
0.050790064 -0.0086295204 0.58350003 5593680
0.052066173 -0.0086295204 0.58350003 5396047
0.053342279 -0.0086295204 0.58350003 5724242
0.054618388 -0.0086295204 0.58350003 5527633
0.055894494 -0.0086295204 0.58350003 5593426
0.057195093 -0.0086332178 0.58375001 5593426
0.058471747 -0.0086332178 0.58375001 5527635
0.059748404 -0.0086332178 0.58375001 5593426
0.061025057 -0.0086332178 0.58375001 5659473
0.062328398 -0.0086369151 0.58400005 5593428
0.063605599 -0.0086369151 0.58400005 5790037
0.064910568 -0.0086406125 0.58425003 5724244
0.06621664 -0.0086443098 0.58450001 5855828
0.067494929 -0.0086443098 0.58450001 5724242
0.068773225 -0.0086443098 0.58450001 5725266
0.070021555 -0.0086406125 0.58425003 5593426
0.071268804 -0.0086369151 0.58400005 5725012
0.072483882 -0.0086295204 0.58350003 5659221
0.07372839 -0.0086258231 0.58325005 5528405
0.074971803 -0.0086221257 0.583 5594198
0.07621412 -0.0086184284 0.58275002 5659219
0.077488586 -0.0086184284 0.58275002 5725012
0.078796841 -0.0086221257 0.583 5725012
0.080106199 -0.0086258231 0.58325005 5528403
0.081416637 -0.0086295204 0.58350003 5659991
0.08272817 -0.0086332178 0.58375001 5528403
0.084040806 -0.0086369151 0.58400005 5528403
0.085318014 -0.0086369151 0.58400005 5659221
0.086595215 -0.0086369151 0.58400005 5855830
0.08783479 -0.0086332178 0.58375001 5659221
0.08911144 -0.0086332178 0.58375001 5725014
0.090349391 -0.0086295204 0.58350003 5725014
0.091625497 -0.0086295204 0.58350003 5659991
0.092901602 -0.0086295204 0.58350003 5659219
0.094177708 -0.0086295204 0.58350003 5725012
0.095412925 -0.0086258231 0.58325005 5725014
0.096688487 -0.0086258231 0.58325005 5790807
0.097964041 -0.0086258231 0.58325005 5857370
0.099239603 -0.0086258231 0.58325005 5725531
0.10051517 -0.0086258231 0.58325005 5790037
0.10174709 -0.0086221257 0.583 5657422
0.1030221 -0.0086221257 0.583 5789778
0.10429712 -0.0086221257 0.583 5855830
0.10557213 -0.0086221257 0.583 6184793
0.10684714 -0.0086221257 0.583 6579551
0.10812216 -0.0086221257 0.583 7501423
0.10939717 -0.0086221257 0.583 8092790
0.11067218 -0.0086221257 0.583 8684927
0.1119472 -0.0086221257 0.583 9212043
0.11322221 -0.0086221257 0.583 10001557
0.11449722 -0.0086221257 0.583 10462108
0.1157226 -0.0086184284 0.58275002 10725280
0.11699706 -0.0086184284 0.58275002 10659741
0.11827153 -0.0086184284 0.58275002 10725280
0.119546 -0.0086184284 0.58275002 10659487
0.12082046 -0.0086184284 0.58275002 10592924
0.12209494 -0.0086184284 0.58275002 10789530
0.1233694 -0.0086184284 0.58275002 10592151
0.12464386 -0.0086184284 0.58275002 10592149
0.12586431 -0.008614732 0.58250004 10592919
0.13350785 -0.008614732 0.58250004 10723737
0.12088633 -0.0050838008 0.34375003 9342859
0.1216381 -0.0050838008 0.34375003 9145478
0.12238988 -0.0050838008 0.34375003 9408393
0.12314166 -0.0050838008 0.34375003 9145223
0.12398354 -0.0050874981 0.34400001 9079430
0.12482651 -0.0050911955 0.34425002 9145221
0.12567058 -0.0050948923 0.34450001 8948353
0.12651575 -0.0050985897 0.34475002 9079428
0.1272697 -0.0050985897 0.34475002 9210244
0.12793082 -0.0050948923 0.34450001 9210498
0.12859087 -0.0050911955 0.34425002 9211268
0.12915587 -0.0050838008 0.34375003 9079685
0.12981318 -0.0050801034 0.34350002 8948099
0.13046937 -0.0050764061 0.34325001 9013635
0.13122006 -0.0050764061 0.34325001 8947842
0.13197073 -0.0050764061 0.34325001 8948096
0.13272142 -0.0050764061 0.34325001 9078912
0.1334721 -0.0050764061 0.34325001 8946813
0.13422279 -0.0050764061 0.34325001 9012606
0.13713619 -0.0051577468 0.34875003 8487545
0.23627177 -0.00874044 0.59100002 8290423
0.23937316 -0.0088069914 0.59550005 6512985
0.24067551 -0.0088069914 0.59550005 8092787
0.24197786 -0.0088069914 0.59550005 8290164
0.2432802 -0.0088069914 0.59550005 8355957
0.24458255 -0.0088069914 0.59550005 8487291
0.24588493 -0.0088069914 0.59550005 8420982
0.24718727 -0.0088069914 0.59550005 8618359
0.24848962 -0.0088069914 0.59550005 8486773
0.24968708 -0.008803294 0.59525001 8486773
0.25098887 -0.008803294 0.59525001 8486771
0.25218472 -0.0087995967 0.59500003 8486771
0.25337949 -0.0087958993 0.59475005 8290164
0.25457314 -0.008792202 0.59450001 8290164
0.25587329 -0.008792202 0.59450001 8355187
0.25706533 -0.0087885046 0.59425002 8486773
0.25836495 -0.0087885046 0.59425002 8420980
0.25966457 -0.0087885046 0.59425002 8289394
0.26096418 -0.0087885046 0.59425002 8486260
0.2623741 -0.008792202 0.59450001 8420465
0.26378518 -0.0087958993 0.59475005 8355185
0.26508588 -0.0087958993 0.59475005 8420980
0.26649857 -0.0087995967 0.59500003 8290164
0.26779982 -0.0087995967 0.59500003 8224628
0.26910108 -0.0087995967 0.59500003 8158835
0.27040234 -0.0087995967 0.59500003 8420980
0.2717036 -0.0087995967 0.59500003 8420980
0.27300486 -0.0087995967 0.59500003 8420980
0.27419087 -0.0087958993 0.59475005 8224373
0.27549157 -0.0087958993 0.59475005 8290166
0.27667591 -0.008792202 0.59450001 8158578
0.2779761 -0.008792202 0.59450001 8093042
0.27915883 -0.0087885046 0.59425002 8093042
0.28057641 -0.008792202 0.59450001 8289396
0.28187659 -0.008792202 0.59450001 8224373
0.28317675 -0.008792202 0.59450001 8224373
0.28435728 -0.0087885046 0.59425002 8224371
0.28541654 -0.0087811099 0.59375 8224371
0.28635293 -0.0087700188 0.59300005 8289392
0.28740728 -0.0087626241 0.59250003 8289646
0.28858125 -0.0087589268 0.59225005 8158830
0.28975412 -0.0087552285 0.59200001 8158576
0.29092589 -0.0087515321 0.59175003 8158578
0.29209661 -0.0087478347 0.59150004 8092785
0.29326618 -0.0087441364 0.59125 8092785
0.29455924 -0.0087441364 0.59125 7764079
-0.30521223 -0.0076411334 0.60625005 7500655
-0.30388635 -0.0076411334 0.60625005 7435632
-0.30268526 -0.0076442841 0.60650003 7304816
-0.30148306 -0.0076474347 0.60675001 7239283
-0.3002798 -0.0076505863 0.60700005 7173743
-0.29895228 -0.0076505863 0.60700005 7239536
-0.29774737 -0.007653737 0.60725003 7304816
-0.29641932 -0.007653737 0.60725003 7369837
-0.29509127 -0.007653737 0.60725003 7697775
-0.29364228 -0.0076505863 0.60700005 7631982
-0.29207399 -0.0076442841 0.60650003 7501423
-0.29062775 -0.0076411334 0.60625005 7304816
-0.28918257 -0.0076379818 0.60600001 7304816
-0.28785726 -0.0076379818 0.60600001 7436402
-0.28653193 -0.0076379818 0.60600001 7370607
-0.28532431 -0.0076411334 0.60625005 7370607
-0.28399843 -0.0076411334 0.60625005 7370609
-0.28278914 -0.0076442841 0.60650003 7304814
-0.28157875 -0.0076474347 0.60675001 7436402
-0.2802518 -0.0076474347 0.60675001 7239536
-0.27903977 -0.0076505863 0.60700005 7239536
-0.27771229 -0.0076505863 0.60700005 7370609
-0.27649859 -0.007653737 0.60725003 7501425
-0.27517053 -0.007653737 0.60725003 7370609
-0.27384248 -0.007653737 0.60725003 7370609
-0.27251446 -0.007653737 0.60725003 7370609
-0.27107477 -0.0076505863 0.60700005 7107437
-0.26963615 -0.0076474347 0.60675001 7436400
-0.26819867 -0.0076442841 0.60650003 7371120
-0.26676226 -0.0076411334 0.60625005 7305327
-0.26543638 -0.0076411334 0.60625005 7305329
-0.26411051 -0.0076411334 0.60625005 7240304
-0.26289302 -0.0076442841 0.60650003 7240304
-0.2616744 -0.0076474347 0.60675001 7240304
-0.26056203 -0.007653737 0.60725003 7174511
-0.25934067 -0.0076568876 0.60750002 7371120
-0.2581183 -0.0076600392 0.60775006 7306097
-0.25689477 -0.0076631899 0.60800004 7305327
-0.25545999 -0.0076600392 0.60775006 7436913
-0.25413084 -0.0076600392 0.60775006 7567986
-0.25269771 -0.0076568876 0.60750002 7502706
-0.25126567 -0.007653737 0.60725003 7240306
-0.24983475 -0.0076505863 0.60700005 7174513
-0.24840488 -0.0076474347 0.60675001 7371120
-0.24697612 -0.0076442841 0.60650003 7371120
-0.24554847 -0.0076411334 0.60625005 7371120
-0.24412188 -0.0076379818 0.60600001 7502195
-0.24279656 -0.0076379818 0.60600001 7436402
-0.24147125 -0.0076379818 0.60600001 7370607
-0.24014594 -0.0076379818 0.60600001 6383712
-0.23891915 -0.0076411334 0.60625005 6976364
-0.23759329 -0.0076411334 0.60625005 7371122
-0.23636486 -0.0076442841 0.60650003 7436913
-0.23503846 -0.0076442841 0.60650003 7174513
-0.23371205 -0.0076442841 0.60650003 7306097
-0.23238562 -0.0076442841 0.60650003 7371374
-0.23105922 -0.0076442841 0.60650003 7501677
-0.22973281 -0.0076442841 0.60650003 7436654
-0.22831227 -0.0076411334 0.60625005 7436913
-0.22698641 -0.0076411334 0.60625005 7371120
-0.22566055 -0.0076411334 0.60625005 7436913
-0.22433469 -0.0076411334 0.60625005 7306097
-0.22300883 -0.0076411334 0.60625005 7240817
-0.22177437 -0.0076442841 0.60650003 7174511
-0.22044796 -0.0076442841 0.60650003 7306099
-0.21921186 -0.0076474347 0.60675001 7436913
-0.21797471 -0.0076505863 0.60700005 7371122
-0.21664721 -0.0076505863 0.60700005 7109233
-0.21531971 -0.0076505863 0.60700005 7175024
-0.21390405 -0.0076474347 0.60675001 7371120
-0.2125771 -0.0076474347 0.60675001 7240306
-0.21116312 -0.0076442841 0.60650003 7109233
-0.20983669 -0.0076442841 0.60650003 7371120
-0.20842434 -0.0076411334 0.60625005 7436400
-0.20709848 -0.0076411334 0.60625005 7436654
-0.20577262 -0.0076411334 0.60625005 7436400
-0.20444676 -0.0076411334 0.60625005 7306099
-0.2031209 -0.0076411334 0.60625005 7109233
-0.20171182 -0.0076379818 0.60600001 7371122
-0.20038651 -0.0076379818 0.60600001 7240304
-0.19906119 -0.0076379818 0.60600001 7240304
-0.19773586 -0.0076379818 0.60600001 7371120
-0.19641055 -0.0076379818 0.60600001 7305329
-0.19508524 -0.0076379818 0.60600001 7436915
-0.19383988 -0.0076411334 0.60625005 7370607
-0.19251402 -0.0076411334 0.60625005 7370607
-0.19118816 -0.0076411334 0.60625005 7240304
-0.18994059 -0.0076442841 0.60650003 7240558
-0.18861416 -0.0076442841 0.60650003 7174511
-0.18736495 -0.0076474347 0.60675001 7239536
-0.186038 -0.0076474347 0.60675001 7305329
-0.18478717 -0.0076505863 0.60700005 7174511
-0.18345967 -0.0076505863 0.60700005 7108718
-0.18220718 -0.007653737 0.60725003 7108718
-0.18087913 -0.007653737 0.60725003 7042925
-0.17947717 -0.0076505863 0.60700005 7042925
-0.17814966 -0.0076505863 0.60700005 7173741
-0.17674932 -0.0076474347 0.60675001 7041896
-0.17535008 -0.0076442841 0.60650003 7041642
-0.17395195 -0.0076411334 0.60625005 6844776
-0.1725549 -0.0076379818 0.60600001 6779753
-0.17122959 -0.0076379818 0.60600001 6582887
-0.16990428 -0.0076379818 0.60600001 6648682
-0.16864853 -0.0076411334 0.60625005 6517610
-0.16732267 -0.0076411334 0.60625005 6648682
-0.16606523 -0.0076442841 0.60650003 6648682
-0.16473882 -0.0076442841 0.60650003 6517608
-0.16341242 -0.0076442841 0.60650003 6846059
-0.16208601 -0.0076442841 0.60650003 6714989
-0.16075961 -0.0076442841 0.60650003 6583403
