# .PCD v0.7 - Point Cloud Data file format
VERSION 0.7
FIELDS x y z
SIZE 4 4 4
TYPE F F F
COUNT 1 1 1
WIDTH 451
HEIGHT 1
VIEWPOINT 0 0 0 1 0 0 0
POINTS 451
DATA ascii
-0.091240786 0.02141772 0.76975006
-0.089557357 0.02057665 0.76975006
-0.032502718 0.048078395 0.76906252
-0.026404932 0.047449306 0.76908332
-0.033450212 0.052808199 0.76909381
-0.027456807 0.052282941 0.76909381
-0.091118798 0.0088717034 0.77587509
-0.084135801 0.0075666811 0.77588463
-0.075196125 0.0064438093 0.77540487
-0.065659001 0.0063247872 0.77581245
-0.05543147 0.0056023845 0.77718091
-0.045410827 0.0046400772 0.77771544
-0.03538375 0.0053339358 0.778629
-0.028753618 0.0063584596 0.77954167
-0.11167981 0.019078609 0.77725005
-0.10379742 0.016537815 0.77361256
-0.094829552 0.014871881 0.77244359
-0.085486799 0.014849288 0.77208573
-0.075459607 0.014727344 0.77190971
-0.065385759 0.014742803 0.77258337
-0.055387452 0.014782543 0.77454871
-0.045753691 0.014357354 0.77725005
-0.036629342 0.012047573 0.77878851
-0.00033784044 0.015644558 0.77541667
0.0052303602 0.01528331 0.77402419
0.012042436 0.018383114 0.77183342
-0.11328237 0.024883103 0.77763635
-0.10521039 0.02490125 0.7734167
-0.095854864 0.025022738 0.77101469
-0.085352309 0.025108106 0.77235425
-0.075408228 0.024398347 0.77432573
-0.066293038 0.022330699 0.77579689
-0.055614695 0.020790502 0.77775002
-0.04979353 0.020843966 0.77975005
-0.011132841 0.028777108 0.77925009
-0.0034886431 0.026840623 0.77826256
0.0054634237 0.024807641 0.77402157
0.012029859 0.021171324 0.77100009
-0.11187615 0.031023104 0.77862501
-0.10450783 0.030857088 0.77445835
-0.094468035 0.031326942 0.77556252
-0.032602657 0.037722055 0.77647501
-0.025085364 0.036532681 0.77622128
-0.014416697 0.035454836 0.77532578
-0.0045790737 0.035161026 0.77610421
0.0036618381 0.03432744 0.77828753
-0.042620301 0.04740262 0.77334094
-0.035632383 0.044214636 0.77241975
-0.023944197 0.043777376 0.77104157
-0.01470238 0.045162152 0.77303475
-0.0057430188 0.043930009 0.77704549
0.0013646994 0.041265406 0.77925003
-0.051163103 0.057952274 0.77466673
-0.044764005 0.055575013 0.77227277
-0.035998896 0.05692374 0.77103752
-0.024452405 0.055641074 0.77383333
-0.015946103 0.05313991 0.77700001
-0.045674406 0.061779536 0.77487504
-0.035100929 0.061829161 0.77550006
-0.029311081 0.061700217 0.77925003
-0.021519782 -0.012186207 0.78516668
-0.017915502 -0.012451299 0.78393757
-0.060352519 -0.001315077 0.78400004
-0.053741116 -0.0025145551 0.78267497
-0.04537116 -0.0029196807 0.78132367
-0.034995861 -0.0042821723 0.78330779
-0.024966763 -0.005340788 0.78288227
-0.01728145 -0.0052110897 0.78333336
-0.094678164 0.0082822647 0.78425008
-0.083703116 0.0046934215 0.78587502
-0.074253157 0.0021164673 0.78584999
-0.063523911 0.0015333802 0.78083336
-0.054955982 0.00039637546 0.78039998
-0.034473751 0.00039637546 0.78039998
-0.024385329 0.0043276842 0.78171676
-0.015879022 0.0044332063 0.78652579
-0.11087915 0.016665442 0.78362501
-0.10510619 0.012754592 0.78530008
-0.099947378 0.010694914 0.78525001
-0.042643555 0.018757919 0.78156251
-0.034694329 0.016562043 0.78371745
-0.026063243 0.014021142 0.78613889
-0.018747404 0.011319953 0.78891665
-0.0018220079 0.016872408 0.78775007
0.0056645488 0.012430327 0.78687501
0.015175652 0.01784437 0.78837502
-0.11741402 0.028022677 0.78034997
-0.073866427 0.029444898 0.78190005
-0.063860185 0.027003147 0.7830568
-0.055178303 0.025803888 0.78357297
-0.045483463 0.023216266 0.7849375
-0.036042836 0.021836353 0.78759092
-0.023702279 0.02749824 0.78515005
-0.014916673 0.026949696 0.78401399
-0.0057352534 0.023289535 0.78439289
0.0098984353 0.029382762 0.78025001
0.015554341 0.025037382 0.78654778
0.020381996 0.021974206 0.78975004
-0.113528 0.032276258 0.78420001
-0.10437619 0.034481887 0.78535718
-0.094928317 0.033867761 0.78316665
-0.085528567 0.032696113 0.78296882
-0.075461142 0.032080285 0.78554541
-0.069233216 0.031376712 0.78750002
-0.035903912 0.037157062 0.78500003
-0.024258142 0.031881139 0.78113896
-0.018553397 0.03167595 0.78075004
0.0081307897 0.036713373 0.78428131
0.013440864 0.034432527 0.78775012
-0.04388991 0.044769224 0.78595835
-0.0027355128 0.047298118 0.78325003
0.0043303217 0.043745767 0.78662497
0.010863185 0.040887617 0.78837502
-0.050240535 0.053697605 0.78675002
-0.048381165 0.051829666 0.78450006
-0.02081671 0.058369223 0.78025001
-0.013899435 0.056741688 0.78325003
-0.0062100384 0.052487586 0.78577089
-0.043041203 0.063545503 0.78099996
-0.03534361 0.063530251 0.78081256
-0.024088953 0.061323117 0.78375
-0.01844655 0.060699888 0.78837502
-0.010839313 -0.020559762 0.79950005
-0.0055855578 -0.020536616 0.79860008
-0.033480797 -0.010049533 0.79733342
-0.027196096 -0.011520523 0.79571432
-0.013896196 -0.015899573 0.79770595
-0.0046936516 -0.015241566 0.79525828
0.0043320302 -0.013222035 0.79742044
0.010144232 -0.010952268 0.79962504
-0.063697338 -0.0013312219 0.793625
-0.056929544 -0.0036352705 0.79200006
-0.043880809 -0.0065545426 0.79610002
-0.037706189 -0.008277596 0.79449999
-0.0025394592 -0.0073314612 0.79243344
0.0043707886 -0.0060445517 0.79642648
0.010145818 -0.0083322935 0.79975003
-0.093375079 0.00648796 0.79500002
-0.088625878 0.0055910256 0.79150003
-0.070024453 0.00040455288 0.79650003
-0.067211494 0.00040334655 0.79412502
-0.011304389 0.0067426674 0.79129171
-0.005454326 0.0076062721 0.79715002
0.0034646888 0.0074947202 0.79207504
0.018879224 0.0091389837 0.79925007
0.025277533 0.0085522886 0.79888892
0.031114873 0.0091389837 0.79925007
-0.023289708 0.017924871 0.79184377
-0.014384252 0.014446084 0.79485017
-0.005983531 0.014616936 0.79762518
0.0082996562 0.010766418 0.79050004
0.015779823 0.013757641 0.79332358
0.024851637 0.015155466 0.79449302
0.033449009 0.015544062 0.79801142
-0.12202664 0.028194986 0.79483336
-0.052308433 0.028960137 0.79200006
-0.044135485 0.026797947 0.79460001
-0.035453293 0.024226112 0.79287505
-0.026091354 0.026418993 0.79362506
-0.014239668 0.023539945 0.79416674
-0.0081519531 0.021198159 0.79299998
0.018663682 0.02889144 0.79012501
0.024969269 0.024730202 0.79303712
0.032207523 0.022478445 0.79741669
-0.12027574 0.031665578 0.79475003
-0.11390016 0.036293872 0.79779178
-0.10463651 0.038117699 0.79475003
-0.094850093 0.03765665 0.79287499
-0.084052779 0.037194218 0.79410005
-0.074040443 0.036617599 0.79663754
-0.067175552 0.034234341 0.79785001
-0.052654628 0.030022951 0.79725003
-0.040398862 0.038685549 0.79625005
-0.035040505 0.034723125 0.79320002
-0.02982828 0.031595852 0.79300004
0.017034819 0.03340235 0.79475003
-0.11295337 0.045124304 0.79907608
-0.10492023 0.044814691 0.79691684
-0.095205456 0.044756282 0.79586095
-0.084869727 0.044814643 0.79688191
-0.075604804 0.043321848 0.79859102
-0.04476846 0.043485459 0.79656255
0.0056417803 0.047666181 0.79444444
0.010114102 0.04396084 0.79725003
-0.048951626 0.0507062 0.79375005
-0.012658659 -0.020675482 0.80400002
-0.003427065 -0.023846144 0.80342191
0.0049999589 -0.024621366 0.80513889
0.013784549 -0.023424119 0.8078295
-0.037205849 -0.010114654 0.80250001
-0.025021369 -0.013677239 0.80575001
0.0064414046 -0.01775804 0.80115628
0.014867993 -0.014741615 0.804353
0.020882675 -0.015503851 0.80915004
-0.064422354 -0.0025253627 0.80625004
-0.054172218 -0.0057617584 0.80687505
-0.045243241 -0.0075050103 0.80487502
-0.012502325 -0.0051029357 0.80201781
-0.0059858048 -0.0030974995 0.80183935
0.0060043214 -0.0022189703 0.80121881
0.014793571 -0.0047512744 0.80605179
0.029715981 -0.0013565925 0.80875003
0.035407823 -0.0021423702 0.8085556
0.041238453 -0.0013574312 0.80925
-0.10207934 0.0091704288 0.80200005
-0.096248329 0.0065608663 0.80462503
-0.083249956 0.00274048 0.8008334
-0.073230937 0.0004078543 0.80300003
-0.010852871 0.00040658453 0.80050004
-0.0041923914 0.0027452698 0.80227381
0.0056232363 0.0033911697 0.80276263
0.014504981 0.0046819397 0.80588561
0.025061334 0.0035262792 0.80453712
0.034927968 0.0046411296 0.80373281
0.04402978 0.0050755199 0.80749202
-0.11510725 0.017037502 0.80112505
-0.10727485 0.01179227 0.80150008
-0.021383651 0.019673854 0.80150002
-0.016103294 0.018990578 0.80037498
0.012800606 0.010920491 0.80181253
0.037762865 0.01441511 0.80121881
0.042397417 0.013729152 0.80596888
-0.1222129 0.024061259 0.80175006
-0.11943253 0.021405328 0.80075002
-0.044484682 0.028635442 0.80725002
-0.033968199 0.026954291 0.80637509
-0.024995245 0.024855787 0.80477512
-0.017095529 0.022392247 0.80125004
0.029587381 0.028564498 0.80525005
0.034641899 0.025483526 0.80619234
-0.12276452 0.032968774 0.80537504
-0.11773728 0.037633289 0.80350006
-0.062750921 0.035964571 0.801525
-0.054792743 0.035392582 0.80505776
-0.04550568 0.034692079 0.80745018
-0.036273908 0.032301605 0.80778337
0.017550096 0.035929762 0.80692858
0.02538828 0.032688048 0.80771428
0.032058243 0.03102945 0.8083334
-0.11819556 0.045277055 0.80100006
0.0060094544 -0.033685368 0.81505358
0.01482024 -0.035007898 0.81617862
0.022914279 -0.032545827 0.81846434
-0.011002004 -0.022641728 0.81150001
-0.0042708009 -0.027357053 0.8145501
0.0043747053 -0.029735235 0.81150007
0.016132982 -0.028097814 0.81173223
0.024269184 -0.025246596 0.814852
0.030120155 -0.025559019 0.81975001
-0.0352838 -0.011415732 0.81200004
-0.025851792 -0.014402285 0.81349999
-0.018195765 -0.017412314 0.81575006
0.024681749 -0.014002426 0.81459999
0.03526869 -0.011289216 0.81822735
0.044822671 -0.011878005 0.81814063
0.05218336 -0.010919754 0.81900007
-0.070189968 -0.0013733665 0.81875002
-0.066608772 -0.0031625868 0.81875002
-0.044078596 -0.0085015967 0.81600004
0.025096247 -0.004917596 0.81246436
0.034736786 -0.0066032698 0.81429428
0.045251947 -0.0051769041 0.81319654
0.052206554 -0.0049323933 0.81470013
-0.10390927 0.0084429206 0.81637502
-0.091705114 0.0039955145 0.81900007
-0.087392166 0.0030728912 0.81225002
-0.077163398 0.00041483811 0.81675005
0.048920821 0.0032440152 0.81044996
0.052031104 0.0044568493 0.81320453
-0.11292239 0.012912737 0.81700003
-0.1093154 0.011123937 0.81675005
0.046322361 0.015731819 0.81359619
0.051491834 0.011134151 0.81750005
0.038022976 0.026334634 0.81240004
0.042185523 0.022557033 0.8152858
0.0086960029 -0.041208882 0.82825005
0.015898539 -0.042527404 0.82617855
0.024955122 -0.042943101 0.82675004
0.031033749 -0.041808058 0.82816672
-0.0012585153 -0.031104956 0.82425004
0.0050638076 -0.03716382 0.82685006
0.014912121 -0.039083757 0.82162505
0.025742304 -0.036004312 0.82300007
0.031238576 -0.034765478 0.8256042
-0.014753215 -0.021157654 0.82275003
-0.0075765024 -0.026624149 0.82500005
0.028379206 -0.02111908 0.82125002
0.031793114 -0.024272151 0.82691675
0.046465203 -0.0226753 0.8270278
0.053714577 -0.022976892 0.8281073
-0.042085845 -0.01045496 0.82950002
-0.033751026 -0.013105711 0.82525003
-0.022038393 -0.016728025 0.82600003
-0.016537469 -0.019342044 0.82200003
0.028046459 -0.016829159 0.82200003
0.034517024 -0.016470039 0.82537007
0.04543088 -0.017069101 0.82291675
0.055486642 -0.015448026 0.82649124
0.061336685 -0.010458112 0.82975006
-0.056923095 -0.0058640591 0.82112503
-0.046998162 -0.0085458755 0.82025003
0.05746565 -0.0049973577 0.82623345
0.061253522 -0.005917205 0.82862508
-0.097197071 0.0057923449 0.82000005
-0.089118108 0.0022306601 0.82825005
-0.079843752 0.00041953631 0.82600003
0.055821329 0.0040231687 0.82531255
0.048135906 0.01836396 0.82125002
0.051949989 0.013936393 0.82475007
0.018796891 -0.050638035 0.83450007
0.023341538 -0.050587472 0.83366674
0.015830655 -0.046672456 0.83205003
0.024691537 -0.04762353 0.83138889
0.031561676 -0.044234186 0.83412504
0.047710437 -0.03147845 0.83905011
0.053318646 -0.031498339 0.83817863
-0.013111317 -0.023234626 0.83275002
-0.0058457027 -0.028788827 0.83550006
0.03694028 -0.024553817 0.83613336
0.044354539 -0.026322775 0.83678138
0.055698883 -0.026615379 0.83266068
0.062253941 -0.024243494 0.83596885
-0.033283975 -0.014194963 0.83625007
-0.025859814 -0.015955366 0.83275002
0.05953997 -0.019530289 0.83000004
0.062479798 -0.015436307 0.8317728
-0.073035546 -0.0013934951 0.83075005
-0.065889731 -0.0041264892 0.83237505
-0.057008088 -0.0068789353 0.83550006
-0.049416624 -0.0086552715 0.83075005
-0.10551272 0.0077114725 0.83375007
-0.094923243 0.0040564961 0.83150005
-0.083765388 0.00042569474 0.83812505
0.05792895 0.0055254316 0.83295012
0.016319739 -0.052381232 0.84793752
0.023293469 -0.052886099 0.84862506
0.0070084208 -0.042884771 0.84341669
0.012156235 -0.047788799 0.84210002
0.02922583 -0.04947247 0.84575003
0.033487864 -0.044055194 0.84825003
0.047827702 -0.040322527 0.84766674
0.055470336 -0.040568504 0.84633344
0.060920864 -0.040397845 0.84925002
-0.0022239934 -0.032922402 0.84791678
0.0024087736 -0.037508436 0.84687507
0.036576752 -0.034647413 0.84461677
0.04423422 -0.035219647 0.84421992
0.055391088 -0.03566125 0.84202784
0.061937276 -0.03380442 0.84465903
-0.011432459 -0.025370348 0.84325004
0.037316147 -0.028961113 0.84050006
0.040998429 -0.028965419 0.84062505
0.064359121 -0.026502002 0.84256262
-0.044587955 -0.010618811 0.84250003
-0.034550387 -0.014358324 0.84537506
-0.025257884 -0.017068557 0.84287506
-0.018764555 -0.019795006 0.84125006
0.065912068 -0.015204472 0.84183341
-0.074077621 -0.0023350676 0.84262502
-0.055833496 -0.0078773759 0.84512508
0.064484142 -0.0058965078 0.84375
0.012668268 -0.051684778 0.85175002
0.02760729 -0.052993227 0.85283345
0.047433235 -0.050145164 0.85725003
0.05018736 -0.050086673 0.85625005
0.0064596683 -0.04492395 0.85325003
0.010792815 -0.049764946 0.85075003
0.036236547 -0.044444963 0.85240912
0.0448968 -0.044183258 0.85398811
0.054097008 -0.045080591 0.85391676
0.062587306 -0.041818067 0.859375
0.065327875 -0.035200577 0.85833335
-0.0208799 -0.020059723 0.85250002
-0.016235121 -0.022878053 0.85337508
-0.0097162006 -0.027576165 0.85450006
0.068513282 -0.023901636 0.85706252
-0.033931844 -0.015401741 0.85250008
-0.024623148 -0.018207422 0.85300004
0.0091264723 -0.060345005 0.86925006
0.012906486 -0.060720239 0.86781257
0.0081322594 -0.054360546 0.8646251
0.013728289 -0.056085579 0.86438471
0.024259809 -0.056360453 0.86640006
0.035174105 -0.051895127 0.8669064
0.044394527 -0.051873934 0.86656249
0.05166452 -0.051569957 0.86537504
0.0057476996 -0.047097407 0.86143756
0.037857872 -0.048142537 0.8633126
0.041775454 -0.047968596 0.86299998
0.056049582 -0.048426665 0.86000001
0.066442966 -0.035295382 0.86062503
-0.0038991885 -0.094085082 0.87683338
0.0048145643 -0.094108172 0.8777501
-0.0032599471 -0.085746303 0.8764773
0.0050801286 -0.084899135 0.87686533
-0.001023303 -0.07603132 0.87858343
0.0052314755 -0.074609682 0.87806743
0.011152787 -0.07351917 0.87912506
0.006207996 -0.065336749 0.87525004
0.013454933 -0.064195223 0.87569451
0.0053746207 -0.055161007 0.87744999
0.01876563 -0.058865655 0.87550002
0.020768918 -0.059117794 0.87925005
0.034008738 -0.055161431 0.87359381
0.054898918 -0.051618248 0.8715834
0.0024877186 -0.042617433 0.875875
0.058721889 -0.04908831 0.87175006
0.0625166 -0.045265611 0.87150002
0.0015280081 -0.039597142 0.87250006
0.067204386 -0.037604608 0.87050009
-0.0023200477 -0.1001372 0.8851667
0.0034989845 -0.10046715 0.8880834
-0.0061570536 -0.097629637 0.88000005
0.0083687706 -0.097739138 0.88975006
0.011236833 -0.091496103 0.88575006
-0.0052105756 -0.082470588 0.88237506
0.0092410892 -0.086107515 0.88016671
0.012595883 -0.083496608 0.8821364
-0.0030460157 -0.074163221 0.88396883
0.014125332 -0.074920096 0.88441664
-0.0010338058 -0.068619996 0.88616663
0.0021903194 -0.065182857 0.88333338
0.016827744 -0.066579051 0.88258338
0.024193233 -0.064099044 0.88232893
0.031148292 -0.061925959 0.88275003
0.025607573 -0.05918923 0.8803125
0.034998644 -0.058041576 0.882375
0.045017809 -0.055534255 0.88337499
0.055731863 -0.053692844 0.88483334
-0.010168893 -0.094337702 0.89431256
-0.0082492037 -0.099654339 0.89825004
0.012299011 -0.093147561 0.89237499
-0.010165909 -0.085506819 0.89405
-0.0075477734 -0.083755948 0.8927083
0.01425139 -0.087311909 0.89250004
-0.010202295 -0.079935722 0.89725006
-0.0067218835 -0.07469359 0.89592308
0.026320463 -0.068522029 0.89333338
-0.0033488695 -0.10349187 0.90175003
0.0055415565 -0.10310268 0.90440005
0.01386963 -0.094558053 0.90585005
0.016997674 -0.084449634 0.9036001
0.018166091 -0.07530082 0.90279996
-0.010412651 -0.10159583 0.91575003
-0.0074045057 -0.10454053 0.91525006
0.0086509427 -0.10505451 0.91975003
0.012672048 -0.10102105 0.91962504
-0.012367934 -0.094233945 0.9122501
-0.012365223 -0.08523719 0.91205007
-0.0044936705 -0.10925265 0.93330002
0.0050481418 -0.10901191 0.93358344
