# .PCD v0.7 - Point Cloud Data file format
VERSION 0.7
FIELDS x y z
SIZE 4 4 4
TYPE F F F
COUNT 1 1 1
WIDTH 409
HEIGHT 1
VIEWPOINT 0 0 0 1 0 0 0
POINTS 409
DATA ascii
0.045932196 0.058614373 0.74947232
0.050503854 0.059364438 0.74975002
0.045318071 0.064430252 0.74896681
0.053353842 0.065741584 0.74923998
0.048253149 0.071284421 0.74875003
0.053750914 0.072973944 0.74929178
0.045572676 0.048111614 0.75642192
0.050722778 0.049748551 0.75300002
0.037800051 0.056982528 0.75258332
0.044346359 0.054111008 0.751616
0.053282365 0.055962041 0.751091
0.038112532 0.062395845 0.75337505
0.04186663 0.067350045 0.75662506
0.055780776 0.061691016 0.75015002
0.046158213 0.071724035 0.75916672
0.055838361 0.077424146 0.75541669
0.037527286 0.047084812 0.7670536
0.043689847 0.044375271 0.7637679
0.051362708 0.048709892 0.76250005
0.034889426 0.053900674 0.76704812
0.056095522 0.053770076 0.76335001
0.036232401 0.063425809 0.76583338
0.041519955 0.068975769 0.76550001
0.060092073 0.067477308 0.7675001
0.047322322 0.074674554 0.76267856
0.0572851 0.076137073 0.76355004
0.055280853 0.084560983 0.76630545
0.060033351 0.080817498 0.76675004
0.034853548 0.044803031 0.77787507
0.041928533 0.04093885 0.77308339
0.031773217 0.059496857 0.77275002
0.056778699 0.052359313 0.77962506
0.061012048 0.059997316 0.77925003
0.035677835 0.067011319 0.7750001
0.040275242 0.069719143 0.77375001
0.060353059 0.062717028 0.77083331
0.017015649 0.015311781 0.78914702
0.023866329 0.015848812 0.78868753
0.03129426 0.018793972 0.78908342
0.01729048 0.02300214 0.78883338
0.024732117 0.025210019 0.78690726
0.031471066 0.02531079 0.78631258
0.026699632 0.033962492 0.78517187
0.033407979 0.036169447 0.78257006
0.032385461 0.041913748 0.78075004
0.047731757 0.043288689 0.78508335
0.052646171 0.048218966 0.78158337
0.01665429 0.05652744 0.78855371
0.024575029 0.056725305 0.78585005
0.030548438 0.055268455 0.78470004
0.059383947 0.054959051 0.78025001
0.061090343 0.058369223 0.78025001
0.02474439 0.06291765 0.78518486
0.016619986 -0.010815485 0.79871434
0.024546795 -0.011596399 0.79879695
0.031134337 -0.010079994 0.79975003
0.0077868919 -0.0033720415 0.79699999
0.014441933 -0.0048166835 0.79565841
0.024895305 -0.0048169475 0.79592514
0.031917997 -0.0048264139 0.79747504
0.0068141716 0.0048491894 0.79420316
0.014365692 0.0047226045 0.79140294
0.024779957 0.0047267471 0.79220849
0.031780574 0.0047378615 0.79404169
-0.01469962 0.018236775 0.79887497
-0.0082137249 0.019618627 0.79925001
0.0073780436 0.014268353 0.79300004
0.011943178 0.014864899 0.79082888
0.027536562 0.012278971 0.7905938
0.031760346 0.013846569 0.79113895
-0.022639263 0.025494255 0.79819238
-0.015142817 0.025617959 0.79584044
-0.0050816424 0.026134081 0.79667974
0.001979749 0.027731575 0.79816669
0.014477815 0.025175063 0.79445004
0.020388449 0.029749928 0.79000002
0.034470033 0.029975878 0.79600006
-0.02196179 0.032450698 0.79700005
-0.015100484 0.035083272 0.79349166
-0.0046779788 0.035061609 0.79304165
0.0038534715 0.034914587 0.79686362
0.01796823 0.03090819 0.79762506
0.02360905 0.035540309 0.79511112
0.038584515 0.037572265 0.79112506
-0.013093114 0.042667501 0.79473341
-0.0046860115 0.04464183 0.79378468
0.004870303 0.044698853 0.79491681
0.012406318 0.046738543 0.79516673
0.028341271 0.042101942 0.79506254
0.030835873 0.047137108 0.79208332
0.042971577 0.040222522 0.7922501
0.005485143 0.052495059 0.79457152
0.013078096 0.053194456 0.79205006
0.030783966 0.050514553 0.79075003
0.044590116 -0.050662134 0.80587506
0.045311585 -0.047942579 0.80590916
0.051438048 -0.046340887 0.80729169
0.032409094 -0.031440664 0.80975002
0.016351804 -0.022061653 0.80793184
0.025691925 -0.024540447 0.8060323
0.034831811 -0.025017086 0.8071121
0.040920082 -0.022861997 0.8087917
0.0081026116 -0.012265433 0.80530006
0.014075401 -0.015408865 0.80390513
0.025422165 -0.016762901 0.80165005
0.034699049 -0.014955161 0.80419451
0.040247306 -0.018110257 0.80712503
-0.013634647 -0.0013582698 0.80975002
0.0060087657 -0.0055106594 0.80215621
0.034995094 -0.0075350469 0.80812502
-0.023852106 0.0062264344 0.80826467
-0.015228387 0.0049396474 0.80705005
-0.0075489432 0.0062126443 0.80835724
0.0049002185 0.0039028223 0.80000001
-0.024085747 0.015334171 0.80386466
-0.015578971 0.013391198 0.80209088
-0.0050381478 0.015473276 0.80494159
0.0044691409 0.015768934 0.80275005
-0.025709307 0.023993134 0.80353576
-0.0016616988 0.021847676 0.80093753
0.0031650483 0.023603257 0.80430013
0.011525733 0.025905207 0.80462503
0.034838118 0.025893396 0.80450004
-0.023478096 0.034952648 0.80556262
0.0075491024 0.035490103 0.80274999
0.015444648 0.0337479 0.80281258
0.022411903 0.037146013 0.80058336
0.037291814 0.033910021 0.80683345
0.011074473 0.041674085 0.80350006
0.044997945 -0.051141489 0.81350005
0.027493315 -0.041713964 0.81785721
0.034367975 -0.044348329 0.81579477
0.044409465 -0.042892605 0.81550008
0.053752501 -0.04252138 0.81450009
0.017966434 -0.031738605 0.81743753
0.02578493 -0.034996159 0.81442863
0.035410739 -0.035405539 0.81238061
0.045046851 -0.035166431 0.81405002
0.053153705 -0.035569023 0.81750005
0.015292641 -0.025888331 0.81321663
0.022360731 -0.029024819 0.81145012
0.03863113 -0.029689433 0.81025004
0.044837374 -0.027114851 0.81404769
0.051507577 -0.02996425 0.81775004
-0.020053277 -0.012110145 0.81875008
-0.014667509 -0.012098496 0.81795013
-0.0067243162 -0.011317649 0.81902778
0.0060606832 -0.012770529 0.81570005
0.03892912 -0.012075414 0.81650007
0.041338015 -0.016245412 0.81708336
-0.021939494 -0.0047099115 0.81406248
-0.01542759 -0.0050515654 0.8126483
-0.0048110359 -0.0049391082 0.81575012
0.0025669408 -0.005268279 0.81679553
0.035619322 -0.0044725658 0.81225008
-0.025760014 0.0034722313 0.81289285
-0.019838968 0.00041140971 0.81000006
-0.0030146332 0.0039576767 0.81168181
0.002311795 0.0048493263 0.81262511
0.035236876 0.0048612133 0.81370836
-0.028951343 0.014701733 0.81720006
-0.00079593639 0.012365231 0.81037509
0.0031923603 0.015999312 0.8106333
0.035245899 0.015528806 0.81391674
-0.02834014 0.023602182 0.81666678
0.0060124178 0.025124678 0.81110299
0.010902355 0.028235914 0.81266665
0.035108767 0.021672646 0.81075007
0.026728585 -0.050112139 0.82583338
0.046356697 -0.054224364 0.82800007
0.055215906 -0.055118702 0.82666665
0.064754918 -0.05380423 0.82703996
0.072820358 -0.05349334 0.8284862
0.026709246 -0.046469171 0.82528579
0.030175269 -0.049834017 0.82125002
0.057312705 -0.045917682 0.82223225
0.064550951 -0.044621415 0.82440996
0.072291031 -0.045823295 0.82751787
0.016754281 -0.032889083 0.82406253
0.021162694 -0.037214503 0.82000005
0.057265129 -0.034662064 0.82341665
0.063536122 -0.037994165 0.82527506
-0.013192602 -0.022626927 0.82522225
-0.0048764991 -0.023066428 0.82663894
0.0050716903 -0.02310654 0.8280834
0.01224245 -0.026570097 0.82349998
0.047462128 -0.023020379 0.82512504
0.051813621 -0.027093381 0.82835007
-0.021399578 -0.012802068 0.82466668
-0.014732288 -0.017537137 0.82148337
-0.0042183152 -0.016019199 0.82200927
0.0039601708 -0.015950322 0.82283753
0.039107911 -0.010338374 0.82025003
0.04330593 -0.016524181 0.82505006
-0.024637114 -0.0040757381 0.82231253
0.037898231 -0.0049896403 0.82515001
-0.028273772 0.0031149359 0.82350004
0.037681755 0.0022325234 0.82833338
0.085429676 -0.071187072 0.83717865
0.094381921 -0.071783148 0.83918762
0.10064288 -0.071142845 0.83975005
0.057912741 -0.061450731 0.83275002
0.065121837 -0.063194133 0.83331668
0.075635299 -0.064514339 0.83372998
0.085241184 -0.065399431 0.83486533
0.094804496 -0.065411955 0.83683008
0.10313136 -0.064824015 0.83893186
0.018605627 -0.051553141 0.83950001
0.022543313 -0.050850421 0.83800006
0.046990741 -0.056599718 0.83275002
0.056027673 -0.059568264 0.83187509
0.065021023 -0.059466224 0.83045006
0.077053532 -0.056259137 0.83072233
0.085278086 -0.055105697 0.83315015
0.094322219 -0.056844767 0.83640492
0.1012251 -0.057667997 0.83950001
-0.00036488948 -0.041669104 0.83750004
0.0052881646 -0.043084774 0.83831257
0.016296713 -0.04359515 0.83934629
0.022972288 -0.045458529 0.83704162
0.076853439 -0.04517296 0.83472502
0.083585158 -0.047917586 0.83707142
-0.011317219 -0.03058717 0.83475006
-0.0042714411 -0.034327693 0.83535349
0.005112397 -0.035145767 0.8345834
0.014123589 -0.036260072 0.83600003
0.021453034 -0.039541606 0.83125001
0.059130713 -0.031119397 0.83275002
0.064628646 -0.034597356 0.83477509
0.070855454 -0.039719988 0.83500004
-0.014548202 -0.025895856 0.83380562
-0.0049067265 -0.027731618 0.83114582
0.0050907703 -0.027729657 0.83110011
0.011150355 -0.028034547 0.83116668
0.048795301 -0.021408383 0.83250004
0.054429188 -0.025123466 0.83511549
0.060113847 -0.028874969 0.83800006
-0.021954898 -0.015667766 0.83665007
0.045496851 -0.016270023 0.83316666
-0.025850657 -0.0054914551 0.83243752
0.039978035 -0.0069036349 0.83850002
-0.029502241 0.0022427794 0.83275002
0.077926591 -0.07136523 0.84237504
0.086810708 -0.073709399 0.8481667
0.095820405 -0.075426854 0.84316677
0.10521329 -0.074476741 0.84157962
0.11496476 -0.075171985 0.84375012
0.125322 -0.075102203 0.84715003
0.049586575 -0.060579713 0.84600002
0.054452166 -0.062660836 0.84495836
0.065283023 -0.067328773 0.8456251
0.073450834 -0.069030665 0.84383339
0.10835356 -0.0648387 0.8403846
0.11512015 -0.065155461 0.84200007
0.12364503 -0.067537792 0.84633332
0.013825074 -0.051835436 0.84125
0.044920254 -0.057296097 0.8453126
0.096625961 -0.052229162 0.84386116
0.10496864 -0.055167221 0.84500003
0.1118067 -0.058151193 0.84431255
-0.0012899735 -0.042935006 0.84437501
0.0063107358 -0.047249064 0.84318751
0.014446773 -0.046898704 0.84052938
0.077679746 -0.041327227 0.84300011
0.085178122 -0.043713223 0.84508336
0.093775749 -0.047838271 0.84683341
0.10175148 -0.049662579 0.84900004
-0.012364933 -0.031842362 0.84387505
-0.0040425225 -0.039981619 0.84050006
0.067367986 -0.033279497 0.84360725
0.073718235 -0.036651559 0.8452692
-0.020812547 -0.021851979 0.84975004
-0.017480511 -0.026378732 0.84593755
0.058065094 -0.024592571 0.84825003
0.062614389 -0.028568642 0.84700006
-0.023474118 -0.015287081 0.84537506
0.047418494 -0.013288768 0.84500009
0.051812995 -0.01597573 0.84782153
-0.027423091 -0.0057192086 0.84349996
0.044816609 -0.0051007099 0.84314436
0.10833301 -0.081968293 0.85700005
0.11446197 -0.081665419 0.85383344
0.12499706 -0.081454605 0.85554999
0.13116747 -0.08030577 0.85925007
0.06715066 -0.070786454 0.85766673
0.073347956 -0.071356066 0.85700005
0.081785463 -0.07420186 0.85383338
0.10630348 -0.079978652 0.85575002
0.13544817 -0.074106529 0.85273916
0.14137802 -0.072728589 0.8585
0.02820074 -0.06369064 0.85675001
0.03519455 -0.064679794 0.85799998
0.044438731 -0.063571282 0.85828137
0.053614628 -0.06505774 0.85629171
0.062327765 -0.068768233 0.85587502
0.11863668 -0.060884047 0.85025007
0.12627327 -0.063707009 0.85495007
0.13319774 -0.06629508 0.85618758
0.0071169003 -0.051348016 0.85650009
0.01086259 -0.053829011 0.85625005
0.027080158 -0.059419379 0.85591668
0.036237769 -0.057925615 0.85645449
0.042136405 -0.058283195 0.85754174
0.10768192 -0.051493436 0.85480005
0.1152889 -0.055769488 0.8555938
0.12308963 -0.058809884 0.85795009
-0.0031850301 -0.043609545 0.85762501
0.0033682194 -0.048159197 0.85525006
0.094902389 -0.045484118 0.85425007
0.10294759 -0.048613969 0.85506254
-0.01351707 -0.033328637 0.85841674
-0.0088037848 -0.037940543 0.85662502
0.06843055 -0.031155126 0.85025007
0.075845048 -0.03332866 0.85837495
0.081827305 -0.037581295 0.85912502
0.057688441 -0.021388505 0.85242856
0.065375201 -0.024328573 0.85597003
0.072452001 -0.027503243 0.85872233
0.098953858 -0.080854848 0.86512506
0.10338632 -0.080625094 0.86266667
0.13717875 -0.081082657 0.86756253
0.037014961 -0.071778983 0.86208338
0.045172449 -0.073994063 0.86398697
0.054511953 -0.07426545 0.86542499
0.062737234 -0.074401684 0.86700004
0.092132919 -0.077850454 0.86325002
0.14362854 -0.075293735 0.86640006
0.026123822 -0.065762296 0.86555004
0.035998266 -0.069119759 0.86025006
0.045225527 -0.068328887 0.86080557
0.05435716 -0.068394288 0.86294997
0.060106784 -0.069441155 0.86425006
0.13573323 -0.06432309 0.86439294
0.14191292 -0.06970229 0.86750007
0.11638156 -0.051784307 0.86733329
0.12483944 -0.056658123 0.86463892
0.0015061168 -0.048426665 0.86000001
0.096419685 -0.042801496 0.86298215
0.10567053 -0.044957306 0.86750001
0.11324091 -0.048486445 0.86950004
0.078642152 -0.031521548 0.86025006
0.085068509 -0.034671508 0.86148757
0.094184749 -0.035461567 0.86473006
0.10213719 -0.037151959 0.86804545
-0.01828311 -0.028754942 0.86187506
0.048629664 -0.080219314 0.87887502
0.052362025 -0.080048174 0.87700009
0.064887561 -0.08011663 0.87775004
0.093892813 -0.080299176 0.87975001
0.10844632 -0.083498619 0.87300003
0.12433988 -0.085836843 0.87740004
0.13116913 -0.08337906 0.87175006
0.14479654 -0.081214257 0.87925005
0.035795841 -0.073755018 0.87058336
0.057086933 -0.07994929 0.87591672
0.067758627 -0.076215476 0.87150007
0.073112033 -0.075148061 0.87290633
0.088508718 -0.077875525 0.87412506
0.14716186 -0.074231096 0.87615001
0.13773295 -0.062328681 0.87712502
0.14238614 -0.067533024 0.87625003
0.0059840321 -0.052965041 0.87283343
0.12668179 -0.053228702 0.87271434
0.13452885 -0.05545491 0.87705559
0.10807366 -0.041384898 0.87000006
0.1156317 -0.04457327 0.87154543
0.12497156 -0.045446858 0.87505686
0.045909874 -0.080504544 0.88200003
0.09776859 -0.082245067 0.88000005
0.10821508 -0.084813744 0.88675004
0.11633803 -0.086305216 0.88218749
0.13475917 -0.085483052 0.88700008
0.028501013 -0.070746817 0.88050002
0.034322668 -0.074688204 0.88158339
0.042099707 -0.078666195 0.88300002
0.075717747 -0.07703837 0.88093752
0.086809173 -0.078933463 0.88600004
0.1489826 -0.07126908 0.88700002
0.15092246 -0.074176632 0.88700002
0.024649546 -0.066898309 0.88050002
0.14392918 -0.063913919 0.88518184
0.13822338 -0.052452095 0.88025004
0.14290495 -0.056331947 0.8837834
-0.0013459531 -0.048626527 0.88062501
0.04675572 -0.082969248 0.89825004
0.05444796 -0.083703049 0.89560002
0.065009765 -0.083425008 0.89262503
0.072740443 -0.082405373 0.89566666
0.095787212 -0.082899965 0.89750004
0.11335779 -0.087729879 0.89675003
0.14288238 -0.085833967 0.89741665
0.03471186 -0.076512292 0.89162505
0.040816844 -0.079935722 0.89725006
0.075586222 -0.079356641 0.89075005
0.085278615 -0.079312094 0.89025003
0.15045227 -0.070014641 0.89575005
0.039255131 -0.080759801 0.90650004
0.076573662 -0.082370631 0.90241671
0.082397722 -0.080299504 0.90133339
0.10704276 -0.086212561 0.90137506
0.1354198 -0.088047825 0.90000004
0.14928073 -0.084161006 0.90050006
0.15246764 -0.081332788 0.90187502
0.12853125 -0.091414832 0.91400003
0.13252908 -0.091414832 0.91400003
0.10438696 -0.087288573 0.91262507
0.11319784 -0.089148425 0.91125005
0.13933443 -0.089295171 0.91275007
0.1493562 -0.08732444 0.91300005
