0.174921 0.272851 0.0321419
0.173006 0.272977 0.0318271
0.157035 0.116792 0.00495649
0.159107 0.116833 0.00554679
0.160368 0.116545 0.00580259
0.369303 0.11648 0.00596348
0.371107 0.116788 0.00557833
0.304987 0.270966 0.0337527
0.374736 0.117259 0.00456745
0.376612 0.117776 0.00418602
0.149371 0.119306 0.00395702
0.151128 0.118928 0.00423238
0.153143 0.118835 0.00461459
0.303821 0.271089 0.0339374
0.221208 0.271052 0.0356511
0.219297 0.270941 0.0359043
0.186465 0.27109 0.0339434
0.375259 0.118876 0.00502471
0.377045 0.119125 0.00456266
0.378475 0.119254 0.00422861
0.177141 0.2711 0.0324674
0.149051 0.121102 0.00455534
0.151108 0.121035 0.00498972
0.152911 0.120921 0.00529593
0.154796 0.12126 0.00579006
0.156408 0.120755 0.00598511
0.375675 0.120818 0.00564595
0.377127 0.120919 0.00520478
0.379025 0.120948 0.00464802
0.380779 0.121127 0.00420583
0.17499 0.271326 0.0321484
0.173304 0.271361 0.0318432
0.321015 0.268864 0.0323761
0.149183 0.123351 0.00536735
0.151209 0.122836 0.00565362
0.152406 0.1227 0.00584944
0.377547 0.122785 0.00570687
0.379229 0.123089 0.00523973
0.380974 0.122808 0.00462773
0.38262 0.123205 0.00424749
0.141835 0.125587 0.00407707
0.143184 0.125237 0.00432136
0.145115 0.125077 0.00480753
0.147199 0.125098 0.00542379
0.148427 0.124681 0.00562627
0.378057 0.12457 0.0060925
0.379397 0.124795 0.0056701
0.381119 0.124996 0.00514837
0.382885 0.125163 0.00464525
0.305024 0.268847 0.0338
0.303138 0.268734 0.0340813
0.221034 0.268933 0.0354091
0.143125 0.126834 0.00490578
0.144997 0.126663 0.00536876
0.146967 0.126759 0.00597228
0.379514 0.12608 0.00599315
0.381066 0.127073 0.00569647
0.219127 0.26879 0.0356591
0.186901 0.268965 0.0338949
0.177013 0.269125 0.0325004
0.17541 0.268467 0.0322637
0.320941 0.266948 0.0324191
0.304886 0.266928 0.0338605
0.303381 0.267512 0.0340403
0.217603 0.266881 0.0359807
0.381918 0.128763 0.00584327
0.176903 0.267109 0.0325076
0.174996 0.266751 0.0321937
0.173727 0.266205 0.0319702
0.322635 0.265569 0.032145
0.135243 0.131524 0.0043172
0.136966 0.131224 0.00484133
0.138983 0.131393 0.00553078
0.32095 0.2649 0.0324431
0.305227 0.265418 0.0338355
0.297025 0.264297 0.0341006
0.295071 0.264545 0.0340935
0.293511 0.264742 0.0341287
0.133719 0.133323 0.00434783
0.135272 0.133219 0.00488799
0.136896 0.133151 0.00542292
0.1385 0.132656 0.00578235
0.21726 0.265004 0.0358205
0.387002 0.133203 0.00530608
0.38922 0.132985 0.00448057
0.3906 0.133334 0.00396155
0.186884 0.265021 0.0338215
0.177018 0.265193 0.0325581
0.135102 0.134976 0.00525998
0.136549 0.134426 0.00563256
0.387431 0.134768 0.00542733
0.389042 0.135202 0.00490711
0.390721 0.135063 0.00418437
0.175593 0.264844 0.032305
0.322321 0.263154 0.0322257
0.321092 0.262869 0.0324349
0.306907 0.263221 0.0338384
0.387294 0.136899 0.0058612
0.388694 0.137097 0.00538542
0.390558 0.137077 0.00462488
0.392061 0.137358 0.00403952
0.129267 0.139128 0.00415705
0.130978 0.139148 0.00475285
0.133011 0.139049 0.00539635
0.305134 0.262487 0.0339928
0.29849 0.263317 0.0341093
0.296974 0.262849 0.0340813
0.390614 0.139125 0.00502701
0.392285 0.139018 0.00435523
0.127679 0.141246 0.00421936
0.12896 0.140858 0.00455512
0.131039 0.140806 0.00521884
0.133055 0.140683 0.00583471
0.294985 0.263069 0.034084
0.293155 0.262902 0.0341466
0.291762 0.263325 0.0342298
0.217399 0.263032 0.0357146
0.127383 0.143232 0.00481286
0.129088 0.142951 0.00528595
0.130956 0.14242 0.00571469
0.132295 0.142373 0.00612303
0.186926 0.263219 0.0338511
0.392912 0.143017 0.00537354
0.394855 0.142962 0.00474562
0.185086 0.262786 0.0336817
0.398027 0.143827 0.00415772
0.175286 0.262788 0.0323022
0.322854 0.261075 0.0321833
0.312897 0.261129 0.0337791
0.393289 0.144795 0.00593423
0.395055 0.144936 0.00543175
0.396668 0.14506 0.00500206
0.398875 0.14507 0.0043391
0.400877 0.146022 0.00396493
0.310839 0.261159 0.0338335
0.309033 0.261017 0.0339011
0.306942 0.261076 0.0339739
0.305153 0.261356 0.034043
0.297013 0.260974 0.0341548
0.395062 0.146403 0.00601353
0.396988 0.146952 0.00558376
0.398859 0.146963 0.00493424
0.400703 0.147182 0.00432539
0.295075 0.261318 0.0341351
0.293905 0.261467 0.0341676
0.217187 0.260891 0.0356514
0.186684 0.261972 0.033893
0.184906 0.260991 0.0337629
0.18289 0.261157 0.0335319
0.398827 0.149045 0.00551284
0.400694 0.149055 0.00475865
0.402632 0.149031 0.00393209
0.174945 0.260945 0.032287
0.173373 0.260674 0.032032
0.322785 0.259165 0.0323017
0.314927 0.259011 0.0337909
0.399551 0.150917 0.00556194
0.401005 0.150973 0.00493674
0.402395 0.150912 0.00433865
0.313017 0.258893 0.0338845
0.311258 0.259105 0.0339385
0.309136 0.259576 0.0339679
0.307185 0.259827 0.0340291
0.399767 0.153026 0.00580864
0.40107 0.153009 0.005217
0.217296 0.259096 0.0356365
0.186516 0.25959 0.0340516
0.11705 0.154968 0.00495031
0.184824 0.259017 0.0339172
0.182981 0.259069 0.0336865
0.174918 0.258852 0.0323132
0.324274 0.25647 0.0322574
0.32313 0.256973 0.0323811
0.114822 0.156995 0.0046268
0.11698 0.156968 0.00536702
0.118684 0.156538 0.00589574
0.313001 0.25686 0.033891
0.217402 0.257146 0.0357284
0.184027 0.257393 0.0339618
0.183063 0.256998 0.0338796
0.175082 0.25697 0.0323532
0.173671 0.256945 0.0320727
0.324902 0.255173 0.0322434
0.116678 0.159073 0.00573629
0.313027 0.255012 0.0338423
0.311055 0.254835 0.0338898
0.308715 0.254855 0.0339556
0.109731 0.161091 0.00391694
0.110997 0.161041 0.00428415
0.113097 0.160954 0.00492123
0.11517 0.160856 0.00556304
0.307043 0.254884 0.0340221
0.305715 0.254409 0.0340867
0.217152 0.255255 0.0357428
0.311086 0.252979 0.0338495
0.109557 0.163123 0.0040943
0.111093 0.163103 0.00453314
0.112972 0.162926 0.005137
0.114576 0.163152 0.00571145
0.309192 0.253062 0.0339081
0.307131 0.253062 0.0339864
0.109782 0.165125 0.0043422
0.111115 0.165118 0.0047581
0.112858 0.16509 0.00534954
0.114384 0.164889 0.00590316
0.305258 0.252865 0.0340812
0.303859 0.252219 0.0341292
0.28835 0.252823 0.0341214
0.109354 0.166707 0.00440161
0.110947 0.166867 0.00495671
0.112901 0.166721 0.00564642
0.114114 0.166241 0.00605392
0.286887 0.252744 0.0341094
0.313076 0.250881 0.0338454
0.310835 0.250995 0.0338567
0.308774 0.250995 0.0339115
0.107341 0.169636 0.0043657
0.108851 0.169007 0.00469634
0.110973 0.168925 0.00540885
0.112857 0.168258 0.00598864
0.306991 0.25115 0.0339891
0.305287 0.25098 0.0340618
0.105239 0.171304 0.00404514
0.106932 0.171231 0.00464887
0.289026 0.250891 0.0340186
0.110577 0.170927 0.00589818
0.287164 0.251028 0.0340132
0.285047 0.250566 0.034056
0.28388 0.250711 0.0341344
0.107105 0.172942 0.00517357
0.217044 0.250269 0.0355171
0.316948 0.249057 0.0337447
0.314941 0.248892 0.0338507
0.312966 0.248989 0.0338987
0.311074 0.249098 0.0339145
0.309047 0.249378 0.0339289
0.307464 0.249382 0.0339864
0.289009 0.248819 0.0340167
0.286835 0.249183 0.0339824
0.414592 0.174925 0.00414946
0.28511 0.248975 0.0340093
0.215355 0.248885 0.0357193
0.182681 0.248396 0.0339193
0.413279 0.176951 0.00489469
0.414789 0.177028 0.00426374
0.103308 0.178719 0.00455573
0.181178 0.248897 0.0336694
0.175525 0.249174 0.0322679
0.317065 0.24699 0.0337523
0.415043 0.179136 0.00433932
0.415993 0.179886 0.00399858
0.101523 0.18188 0.00438754
0.102751 0.180984 0.00473774
0.10455 0.180945 0.00555919
0.314871 0.246536 0.0338607
0.414659 0.181062 0.00472764
0.41615 0.181151 0.00405586
0.099951 0.183647 0.00411528
0.101181 0.183155 0.00451894
0.10293 0.183087 0.00523397
0.104265 0.183049 0.00584464
0.313314 0.247579 0.0339138
0.305512 0.246418 0.0341383
0.416387 0.18283 0.00418943
0.0992251 0.185368 0.00415315
0.10093 0.184871 0.0047741
0.102974 0.184656 0.00561364
0.288818 0.247514 0.0340191
0.28704 0.247543 0.0339791
0.416938 0.185114 0.0043072
0.0992135 0.187285 0.00452087
0.100924 0.186888 0.00521456
0.102597 0.18665 0.00586212
0.285821 0.247302 0.0339872
0.111037 0.116734 -0.00936069
0.113144 0.116929 -0.00843711
0.0976695 0.189585 0.00430257
0.0991353 0.189173 0.0048831
0.100603 0.188765 0.00542262
0.107665 0.119704 -0.00970021
0.416917 0.188891 0.00467274
0.418496 0.189437 0.00400612
0.097727 0.190823 0.00457029
0.0988925 0.190887 0.00509593
0.109257 0.119148 -0.0092056
0.416947 0.191061 0.00473667
0.418376 0.191163 0.00418461
0.0955148 0.193949 0.00420533
0.0967504 0.193168 0.00460539
0.0987221 0.193071 0.00542091
0.215115 0.24692 0.0355903
0.184106 0.246346 0.0340076
0.183064 0.247041 0.0339136
0.4186 0.192423 0.00419284
0.0952685 0.195254 0.00436691
0.0969387 0.195135 0.00504646
0.0985328 0.194913 0.00565595
0.181054 0.246963 0.0335608
0.17536 0.246916 0.0321779
0.419057 0.195052 0.00420889
0.420676 0.195628 0.00384841
0.31698 0.244915 0.0337057
0.315117 0.24511 0.0338328
0.0971575 0.19683 0.00541007
0.313995 0.244586 0.0338491
0.309213 0.244362 0.0340042
0.306925 0.245049 0.0340985
0.305317 0.244856 0.03414
0.420491 0.196922 0.0041054
0.286272 0.244437 0.0340053
0.2849 0.244849 0.0339925
0.283935 0.244734 0.0340128
0.26698 0.244103 0.0348427
0.110879 0.118946 -0.00862068
0.419176 0.198757 0.0048036
0.420855 0.199013 0.00431584
0.112625 0.118191 -0.00819778
0.107241 0.121402 -0.00924656
0.108977 0.121395 -0.00849205
0.110565 0.1208 -0.00808371
0.103867 0.123609 -0.00999605
0.417374 0.200634 0.00570929
0.419132 0.200887 0.00516288
0.105169 0.123183 -0.00953263
0.0918154 0.20338 0.00404649
0.106974 0.123245 -0.00869455
0.0947787 0.20276 0.00525622
0.108213 0.122755 -0.00833008
0.419305 0.202571 0.00535499
0.103247 0.125019 -0.00978215
0.0916739 0.205074 0.00414393
0.0931078 0.205104 0.00474704
0.0950178 0.204716 0.00552379
0.184042 0.245178 0.0339204
0.0912074 0.20719 0.0041946
0.092997 0.207083 0.00489482
0.0948004 0.206978 0.00566347
0.0909707 0.209003 0.0043092
0.0930221 0.208906 0.00513167
0.0946048 0.209249 0.00587443
0.183022 0.244752 0.0337484
0.0897424 0.21106 0.00404032
0.09096 0.210957 0.00453117
0.0926177 0.211005 0.00523747
0.0943217 0.210997 0.00597923
0.422965 0.211234 0.00453804
0.0899373 0.213149 0.00431506
0.0911837 0.213047 0.00484941
0.0928691 0.212913 0.00558424
0.0941879 0.212408 0.00612004
0.421149 0.21348 0.0057691
0.422656 0.212959 0.00489944
0.424237 0.213273 0.00419288
0.0894212 0.214713 0.00426312
0.0911299 0.215135 0.00510442
0.0926648 0.215026 0.00578064
0.421289 0.214921 0.00582923
0.423055 0.215081 0.0049254
0.424452 0.21497 0.00427921
0.0890351 0.217176 0.00434835
0.0908956 0.217061 0.00525697
0.0927273 0.216678 0.00604659
0.421402 0.21674 0.00583903
0.423248 0.217203 0.00492979
0.424988 0.217208 0.00418142
0.174954 0.245216 0.0320467
0.090748 0.218924 0.00540302
0.0920552 0.218406 0.00597236
0.174004 0.244817 0.0318524
0.314984 0.242921 0.0336862
0.313107 0.243022 0.0337983
0.0878293 0.220836 0.00405289
0.311011 0.242947 0.0338682
0.30893 0.242912 0.0339388
0.422775 0.221095 0.00526776
0.424637 0.220805 0.00439021
0.0875732 0.222952 0.00399874
0.307069 0.243047 0.0340286
0.3059 0.243195 0.0340671
0.286987 0.24306 0.034047
0.4232 0.223241 0.00511089
0.424956 0.222984 0.00426427
0.284906 0.243029 0.0340015
0.283689 0.242788 0.0340014
0.278938 0.242566 0.0340706
0.276945 0.242422 0.0341311
0.423354 0.224935 0.00506152
0.424914 0.224861 0.00429784
0.268423 0.243114 0.0346524
0.267237 0.242878 0.0349208
0.0924405 0.227179 0.00601683
0.422643 0.226701 0.00546284
0.424369 0.227087 0.00453591
0.105309 0.124986 -0.00883248
0.0911465 0.228979 0.00530692
0.0924577 0.228861 0.00594573
0.423233 0.228706 0.00513461
0.4248 0.229258 0.00432197
0.0894283 0.230808 0.00459073
0.0911705 0.231069 0.00537247
0.0925665 0.230525 0.00600117
0.106645 0.124599 -0.00838477
0.424938 0.23095 0.00423159
0.0875537 0.233074 0.00393938
0.0887285 0.232959 0.00447442
0.0905219 0.232927 0.00528942
0.102871 0.126936 -0.00927995
0.424217 0.232722 0.00451542
0.0876181 0.235159 0.00416609
0.0888358 0.235031 0.00477099
0.0904978 0.234733 0.00554609
0.421518 0.234993 0.00579991
0.422915 0.234905 0.00516141
0.10476 0.126946 -0.00846256
0.0876529 0.236821 0.00437991
0.0890159 0.236923 0.00512695
0.0904419 0.236129 0.00574664
0.421608 0.237304 0.00582711
0.423187 0.237038 0.00507339
0.0997314 0.129683 -0.00963494
0.0872901 0.238943 0.00444587
0.0888498 0.238777 0.0052687
0.421234 0.238914 0.00601604
0.422888 0.238724 0.00529707
0.10105 0.129254 -0.0092803
0.0870233 0.241064 0.00456082
0.0885379 0.241044 0.00532793
0.421367 0.240181 0.00601805
0.422808 0.240931 0.00547829
0.102868 0.129302 -0.00853165
0.104165 0.128864 -0.00813971
0.0972876 0.13156 -0.0100075
0.086948 0.242994 0.00475003
0.0886548 0.242982 0.00555802
0.0991558 0.131138 -0.00939865
0.101217 0.131069 -0.0086306
0.185014 0.242996 0.0338562
0.176989 0.243004 0.0324102
0.0871032 0.24498 0.00500177
0.0885288 0.245083 0.00561377
0.175222 0.243674 0.0320594
0.309062 0.24108 0.0338553
0.0854793 0.247073 0.00443936
0.0873471 0.246871 0.00522527
0.0887794 0.246594 0.00583852
0.306707 0.241234 0.0339386
0.422929 0.247163 0.0055386
0.304803 0.240795 0.033925
0.303188 0.240538 0.0339408
0.29878 0.240104 0.034041
0.295278 0.240517 0.0341294
0.29245 0.240086 0.034154
0.287094 0.241562 0.034057
0.423254 0.249204 0.00518932
0.42509 0.249084 0.00449775
0.426548 0.249442 0.00379658
0.284826 0.241319 0.0340093
0.283053 0.240891 0.0339822
0.280993 0.24095 0.0339706
0.278979 0.241092 0.0340431
0.422893 0.250913 0.00507544
0.424994 0.250891 0.00432047
0.42592 0.25125 0.00387938
0.2773 0.24106 0.0340918
0.266906 0.241528 0.0351717
0.102601 0.130714 -0.0082079
0.097024 0.132969 -0.00969898
0.0987145 0.132881 -0.00901312
0.424705 0.252563 0.00419824
0.100395 0.132791 -0.00837832
0.0957131 0.135475 -0.00951343
0.0968808 0.134821 -0.00916106
0.0987641 0.134582 -0.00839105
0.423189 0.25492 0.00455396
0.424132 0.255896 0.00417666
0.0949798 0.137273 -0.00926185
0.0968975 0.136982 -0.00837264
0.0933197 0.139436 -0.00935863
0.094843 0.139197 -0.00862706
0.421073 0.256958 0.00531249
0.422747 0.256996 0.00467209
0.424236 0.257163 0.00409967
0.190391 0.240468 0.0340874
0.188848 0.240572 0.0339296
0.186774 0.241017 0.0338025
0.177019 0.24113 0.0323217
0.421097 0.259006 0.00531425
0.422914 0.258902 0.00458831
0.424226 0.258799 0.00407147
0.30696 0.239072 0.0338212
0.304962 0.238929 0.0338252
0.299154 0.239044 0.0339467
0.0905361 0.261119 0.00602773
0.297074 0.239125 0.0340228
0.421281 0.26071 0.00522209
0.423195 0.261056 0.0044472
0.424848 0.260405 0.00379601
0.295081 0.23896 0.0340543
0.0887544 0.26286 0.00538398
0.090027 0.262295 0.00588545
0.29319 0.239041 0.0340934
0.291961 0.239356 0.0341304
0.422516 0.262932 0.00466706
0.284481 0.239489 0.033998
0.0872995 0.264946 0.004902
0.0887953 0.264709 0.00557451
0.282992 0.238888 0.0339763
0.421315 0.265235 0.00500395
0.422805 0.265218 0.00437958
0.281102 0.239129 0.0339605
0.0870602 0.267104 0.00490064
0.088712 0.267023 0.00570381
0.276134 0.238938 0.0340817
0.421166 0.267014 0.00490296
0.422899 0.2673 0.00408967
0.274971 0.239087 0.0341016
0.086948 0.268975 0.00482077
0.0960239 0.138646 -0.00820459
0.41898 0.268599 0.00565324
0.420758 0.268897 0.00484493
0.422412 0.268819 0.0041044
0.0913777 0.141372 -0.00957418
0.0933735 0.141131 -0.00864363
0.0945949 0.140609 -0.00823237
0.417567 0.271154 0.00586982
0.419266 0.270996 0.00521085
0.421037 0.271097 0.00441373
0.247029 0.238967 0.035449
0.238641 0.238709 0.0348452
0.236902 0.239193 0.0349585
0.415788 0.273961 0.00622514
0.417133 0.273179 0.00580622
0.418753 0.273089 0.00514033
0.420626 0.273176 0.00428094
0.0908322 0.142931 -0.00912095
0.0927696 0.142719 -0.00829872
0.0684064 0.14655 -0.00841096
0.415919 0.275242 0.00600705
0.417368 0.275226 0.005422
0.419156 0.275124 0.00463122
0.420577 0.275095 0.00396709
0.213196 0.238761 0.0352615
0.192217 0.238401 0.0340876
0.41687 0.276866 0.00539811
0.419105 0.276964 0.00437562
0.420637 0.276756 0.00368761
0.191084 0.23887 0.0339806
0.189155 0.239002 0.0337886
0.179073 0.238925 0.0325983
0.177138 0.239083 0.0322252
0.299012 0.237021 0.0338851
0.420087 0.278615 0.00375101
0.0895459 0.280762 0.00445962
0.0914447 0.280825 0.00521057
0.0928957 0.281583 0.00570261
0.29722 0.237114 0.0339472
0.295664 0.237303 0.0340013
0.29275 0.236062 0.0340344
0.291242 0.236648 0.0340733
0.0910522 0.282849 0.00471668
0.0928748 0.282934 0.0054913
0.282466 0.23711 0.033977
0.280923 0.236925 0.0339769
0.279776 0.236499 0.0339791
0.0913794 0.285016 0.00459058
0.0933735 0.284918 0.00551104
0.0945683 0.28537 0.00612086
0.0667084 0.147586 -0.00864392
0.0691924 0.147145 -0.0103461
0.415396 0.285257 0.00480914
0.417131 0.285345 0.00425415
0.0918336 0.286284 0.00468357
0.0928019 0.287237 0.00506772
0.0946236 0.287112 0.00597844
0.412698 0.286983 0.00569263
0.414551 0.286934 0.0049665
0.416465 0.286914 0.00428432
0.0912351 0.28978 0.00403744
0.0930085 0.289062 0.00494846
0.070186 0.145898 -0.0103126
0.25097 0.237067 0.0365294
0.245043 0.236917 0.0352495
0.242906 0.236885 0.0347348
0.0913853 0.29101 0.00391546
0.0926861 0.290836 0.00452654
0.24101 0.236515 0.0345967
0.23902 0.237023 0.0347528
0.0888145 0.147116 -0.00815481
0.0684854 0.148448 -0.0102189
0.0934102 0.29269 0.00442117
0.0950995 0.293359 0.00497395
0.0967598 0.29362 0.00563882
0.0981169 0.293394 0.0062829
0.0678373 0.150314 -0.0101287
0.21898 0.237369 0.0346839
0.216876 0.237072 0.0347155
0.213123 0.23697 0.0351086
0.0952926 0.294973 0.00469795
0.0968871 0.29489 0.0054132
0.0982737 0.295085 0.00600606
0.192154 0.237239 0.0339843
0.190981 0.236932 0.0337952
0.189053 0.237067 0.0335961
0.178969 0.236977 0.0324562
0.0957092 0.296805 0.00451283
0.0971351 0.29696 0.00517381
0.0985258 0.29668 0.00593241
0.17742 0.2371 0.0321699
0.298972 0.235303 0.0338678
0.292213 0.234944 0.0340255
0.291434 0.235043 0.0340236
0.284686 0.234688 0.033982
0.282859 0.234942 0.0339932
0.28115 0.234927 0.0339867
0.258655 0.235161 0.0359179
0.256909 0.235173 0.0354308
0.255149 0.23491 0.0358848
0.253154 0.235362 0.0366471
0.0631931 0.155047 -0.00948843
0.406803 0.300868 0.00565283
0.408714 0.300883 0.00501145
0.0665352 0.15406 -0.00981594
0.096789 0.30307 0.00466884
0.0981415 0.303131 0.00537569
0.244763 0.234976 0.0352921
0.407169 0.302745 0.00522551
0.242977 0.235028 0.0348017
0.240979 0.23503 0.0346563
0.097094 0.30524 0.00452747
0.0989034 0.305203 0.00538911
0.23897 0.23487 0.0347226
0.406909 0.304577 0.00503012
0.0626848 0.156962 -0.00928024
0.0971916 0.306991 0.004293
0.0990931 0.307032 0.00510158
0.229181 0.234497 0.0348474
0.214855 0.235099 0.0347643
0.213124 0.235387 0.03503
0.192046 0.235288 0.0338446
0.178864 0.235028 0.0322934
0.0973364 0.308694 0.00410227
0.0989958 0.309133 0.00466967
0.177317 0.235151 0.0320122
0.301063 0.233053 0.0337725
0.299207 0.232712 0.0338575
0.292576 0.233119 0.033981
0.29116 0.232875 0.0339591
0.28915 0.232554 0.0339154
0.0974384 0.309979 0.00393124
0.286986 0.232823 0.0339219
0.28498 0.233183 0.0339553
0.283093 0.232865 0.0339918
0.281103 0.233255 0.0339997
0.275041 0.233134 0.0340558
0.404943 0.31117 0.00439329
0.254428 0.233478 0.0362451
0.253065 0.233319 0.0367679
0.0811322 0.157083 -0.00955548
0.0829261 0.157039 -0.00858631
0.242554 0.233116 0.0348689
0.240877 0.233149 0.0346928
0.40299 0.313186 0.0046699
0.404889 0.312989 0.00407279
0.23925 0.233245 0.0346873
0.0842233 0.156563 -0.00806796
0.0798349 0.159233 -0.00954643
0.401279 0.315232 0.00491365
0.40291 0.315031 0.00437968
0.0813755 0.158891 -0.00874955
0.0827046 0.158431 -0.00821717
0.228966 0.232936 0.0347517
0.22713 0.233013 0.0346762
0.401015 0.316985 0.0047399
0.402804 0.316916 0.00416512
0.225815 0.232553 0.0346099
0.181064 0.232917 0.0324713
0.106536 0.318881 0.00581761
0.179139 0.233054 0.0321878
0.177726 0.233294 0.0319594
0.400821 0.318801 0.00456194
0.402688 0.31894 0.00401263
0.299216 0.230892 0.0338593
0.105282 0.320928 0.00490822
0.107077 0.320939 0.00558724
0.298 0.230651 0.0339237
0.294018 0.23034 0.0339518
0.292746 0.230782 0.0339255
0.401237 0.320892 0.00421564
0.290809 0.230999 0.0338782
0.288945 0.231011 0.0338507
0.105227 0.322873 0.00451475
0.106926 0.323104 0.00507868
0.287085 0.231019 0.0338424
0.285018 0.231096 0.0339027
0.282949 0.23105 0.0339615
0.281073 0.230981 0.033949
0.279935 0.231315 0.0339597
0.105546 0.324853 0.00422892
0.106961 0.325068 0.00467592
0.108764 0.325037 0.00545721
0.0775652 0.162046 -0.0101277
0.0790689 0.161372 -0.00930671
0.080125 0.16023 -0.00896767
0.0603699 0.163551 -0.00992193
0.398934 0.324919 0.00408006
0.105485 0.326369 0.00390288
0.107141 0.327125 0.00435399
0.108885 0.326792 0.00518681
0.110481 0.327107 0.00589476
0.228934 0.231046 0.0346801
0.227017 0.231019 0.0346018
0.212388 0.230679 0.0347816
0.396628 0.326786 0.00422496
0.398022 0.326818 0.00389986
0.10761 0.32842 0.00434067
0.109048 0.328856 0.0049113
0.110414 0.329096 0.00553114
0.181046 0.231072 0.0323417
0.179178 0.231621 0.0321049
0.177909 0.231975 0.031913
0.394844 0.32936 0.00411086
0.107706 0.330189 0.00412466
0.10903 0.330855 0.00464862
0.110734 0.331036 0.00545795
0.29897 0.228954 0.0338594
0.297126 0.228903 0.0339248
0.295038 0.229024 0.0339363
0.293039 0.228892 0.0338619
0.109438 0.332697 0.00457704
0.110928 0.332661 0.00527637
0.291084 0.229157 0.0338021
0.286956 0.228983 0.0337658
0.28529 0.22893 0.0338201
0.11152 0.334794 0.00505348
0.283236 0.229317 0.0339002
0.0636305 0.162923 -0.00927082
0.389138 0.335338 0.00467839
0.113074 0.336616 0.00508973
0.115486 0.33799 0.00542687
0.117112 0.337869 0.00597375
0.384938 0.337184 0.00589481
0.386856 0.33698 0.00522076
0.38893 0.337173 0.00438466
0.113577 0.337963 0.00478479
0.115035 0.339114 0.00489033
0.117137 0.339346 0.00549473
0.118411 0.339135 0.0060368
0.383772 0.339029 0.00581719
0.385148 0.339059 0.00534268
0.386858 0.338932 0.00477824
0.388526 0.338816 0.00422981
0.115336 0.34106 0.00438093
0.117026 0.341257 0.00486672
0.118635 0.340772 0.00560409
0.381423 0.341417 0.00590454
0.383261 0.34109 0.00541679
0.38525 0.341158 0.0047793
0.387164 0.34085 0.00425727
0.388404 0.340309 0.00398366
0.241015 0.228254 0.0345808
0.119044 0.342679 0.00524241
0.238918 0.228995 0.0346717
0.379991 0.343462 0.00578488
0.381287 0.343005 0.00551297
0.383193 0.34315 0.00488448
0.384952 0.343069 0.00435311
0.386947 0.342304 0.00397186
0.0776239 0.163327 -0.00968377
0.119077 0.344678 0.00474235
0.12084 0.345296 0.0052249
0.377573 0.34537 0.00597593
0.378989 0.34499 0.00568443
0.38092 0.344812 0.00513703
0.38305 0.345104 0.00440291
0.11928 0.346385 0.00439417
0.121043 0.347022 0.00483812
0.123021 0.347195 0.0054828
0.0790358 0.163264 -0.00873581
0.375607 0.346935 0.00604248
0.377138 0.346998 0.00567322
0.379107 0.346753 0.00518419
0.380928 0.346789 0.00459733
0.382346 0.346524 0.00423412
0.122827 0.349079 0.00490141
0.0630659 0.165504 -0.00895133
0.375239 0.349155 0.00547655
0.376867 0.348988 0.00514496
0.378966 0.348715 0.00464512
0.380988 0.348465 0.00408556
0.222204 0.22827 0.034468
0.221087 0.22881 0.0344951
0.219099 0.228807 0.0344585
0.370933 0.35145 0.00562245
0.373005 0.350864 0.0053623
0.375142 0.351123 0.00480938
0.37714 0.350554 0.00451953
0.378764 0.350225 0.00419315
0.380461 0.350048 0.00376124
0.121866 0.353616 0.003974
0.12304 0.353128 0.00438129
0.21714 0.228532 0.0344196
0.215223 0.228368 0.0344658
0.212788 0.228992 0.0346976
0.367364 0.35372 0.00588396
0.369042 0.353167 0.00559441
0.37109 0.353389 0.00496735
0.372889 0.352453 0.00483023
0.374316 0.352606 0.00441063
0.121978 0.354906 0.00376735
0.123211 0.354799 0.0041608
0.12483 0.354718 0.00461585
0.296899 0.227076 0.0338743
0.294501 0.227908 0.033885
0.365844 0.35562 0.00584478
0.367137 0.355184 0.0056119
0.368973 0.355286 0.00505065
0.370655 0.355262 0.00452204
0.123449 0.356456 0.00385784
0.125062 0.356748 0.00427129
0.126943 0.357077 0.0046996
0.292963 0.226999 0.0337766
0.363517 0.357677 0.0059678
0.364911 0.357265 0.0057469
0.366811 0.35708 0.00527193
0.369056 0.357431 0.00447864
0.370554 0.356823 0.00409823
0.125523 0.358733 0.00386946
0.12675 0.358659 0.00421216
0.128801 0.358809 0.00467349
0.285059 0.226874 0.0337694
0.278947 0.226666 0.0338607
0.36116 0.359487 0.00598956
0.363034 0.35925 0.0056864
0.365059 0.35912 0.00529866
0.366829 0.359106 0.00479063
0.368596 0.359102 0.00416719
0.129763 0.360292 0.00444761
0.131523 0.361487 0.00460679
0.132857 0.361127 0.00514435
0.1347 0.361512 0.00574417
0.277118 0.226956 0.0342126
0.0777185 0.165043 -0.00908144
0.244603 0.226432 0.0349843
0.242978 0.226715 0.034643
0.366921 0.360879 0.00426145
0.368305 0.360469 0.00386547
0.13284 0.362769 0.00467919
0.134668 0.363191 0.00526607
0.240864 0.227094 0.0344981
0.239057 0.22682 0.0344735
0.237058 0.226957 0.0346238
0.0786825 0.165046 -0.00842977
0.23308 0.226799 0.0346361
0.231078 0.226942 0.0345675
0.224712 0.226379 0.0343349
0.134807 0.364984 0.00488416
0.136319 0.365207 0.00542942
0.222982 0.227069 0.0343923
0.221042 0.226748 0.0343475
0.219035 0.227111 0.0343311
0.217096 0.226885 0.0343106
0.13689 0.366889 0.00523269
0.138731 0.367481 0.00572729
0.215057 0.226923 0.0344093
0.213177 0.226955 0.03456
0.195007 0.226879 0.0340223
0.181154 0.226888 0.0322769
0.179143 0.226784 0.0319998
0.285068 0.225157 0.0337422
0.283231 0.224902 0.0337546
0.280899 0.224953 0.0336383
0.279162 0.225072 0.0338853
0.139028 0.369152 0.00530235
0.277709 0.225297 0.034169
0.263844 0.224077 0.0387505
0.0628526 0.166915 -0.00906064
0.0758933 0.167182 -0.00975511
0.0773711 0.166776 -0.00880774
0.242865 0.224841 0.0344655
0.240997 0.225107 0.0343529
0.239044 0.224962 0.034331
0.236897 0.224953 0.0343987
0.139239 0.371169 0.00466858
0.141165 0.371041 0.00520869
0.234975 0.224986 0.0344466
0.232881 0.225024 0.0344339
0.230966 0.224794 0.0343264
0.228775 0.22429 0.0342466
0.226742 0.224811 0.0342574
0.224907 0.225009 0.0342682
0.348823 0.371405 0.00424763
0.350935 0.370756 0.00427086
0.223055 0.224913 0.034241
0.220927 0.224903 0.0341962
0.139101 0.37239 0.00415618
0.141292 0.373006 0.0044832
0.14297 0.372779 0.0050111
0.144899 0.373101 0.0054848
0.218906 0.224923 0.0341518
0.217058 0.224997 0.0341844
0.34098 0.37328 0.0055523
0.342881 0.37321 0.00498083
0.215121 0.224842 0.0342855
0.21303 0.224935 0.034483
0.141787 0.374484 0.00406493
0.143101 0.374722 0.00434602
0.144805 0.37494 0.00481906
0.146458 0.375058 0.0053671
0.194506 0.224959 0.0339021
0.180973 0.225087 0.0322595
0.17904 0.224829 0.0319642
0.282954 0.223144 0.0337118
0.281079 0.222794 0.0337078
0.147031 0.376999 0.00501422
0.279703 0.223034 0.0338402
0.0786264 0.166268 -0.00811987
0.0616603 0.169476 -0.0084796
0.0623539 0.168104 -0.00892103
0.24303 0.222857 0.0343594
0.240978 0.222854 0.0342872
0.23898 0.223116 0.0342114
0.237159 0.222837 0.0342168
0.147112 0.379002 0.00454556
0.14892 0.37902 0.00524241
0.326766 0.37984 0.00566547
0.329109 0.37949 0.00540947
0.331005 0.378848 0.00531647
0.332773 0.378985 0.00484892
0.2348 0.222965 0.0342129
0.233006 0.222853 0.0341858
0.149003 0.380993 0.00486048
0.231064 0.222987 0.0342001
0.229017 0.223084 0.0341816
0.226988 0.222953 0.0341531
0.225066 0.223044 0.034149
0.323035 0.381278 0.00558966
0.325104 0.380477 0.00563912
0.326876 0.380893 0.0051053
0.328288 0.381508 0.00453345
0.331183 0.38025 0.0045041
0.332488 0.380212 0.00429297
0.222914 0.222911 0.0340944
0.22096 0.223044 0.0340498
0.153072 0.383175 0.00560703
0.219173 0.222935 0.034033
0.314699 0.383983 0.00584929
0.316784 0.383371 0.00566225
0.31895 0.383356 0.00536672
0.32111 0.383293 0.00508942
0.322769 0.382853 0.00499046
0.324882 0.382516 0.00474579
0.326919 0.382511 0.00435122
0.216986 0.223121 0.0341101
0.215116 0.222782 0.0341972
0.19705 0.222071 0.033923
0.154767 0.384973 0.00547504
0.156584 0.385124 0.00585895
0.195045 0.222755 0.0337939
0.181027 0.223016 0.0321832
0.179206 0.223128 0.0318631
0.311402 0.385324 0.00596374
0.313297 0.384943 0.00575864
0.315352 0.384744 0.00542596
0.316956 0.384999 0.00505039
0.319113 0.384928 0.00475151
0.321288 0.384944 0.0043906
0.322988 0.384736 0.00416659
0.324621 0.384142 0.00410752
0.325952 0.384285 0.00377411
0.283 0.221052 0.0337679
0.155088 0.386985 0.00476832
0.157064 0.386755 0.00545308
0.28103 0.2209 0.0338314
0.279188 0.220956 0.0340493
0.260183 0.219812 0.0366356
0.244801 0.221057 0.0342322
0.22692 0.388242 0.00831771
0.232691 0.388453 0.00926353
0.234775 0.388186 0.00911776
0.302955 0.387136 0.00610229
0.305097 0.387019 0.00596299
0.243008 0.220795 0.0341916
0.309203 0.387104 0.00552915
0.311124 0.386942 0.00531302
0.312852 0.386947 0.0050567
0.314991 0.386798 0.00474323
0.317118 0.386578 0.00444459
0.318686 0.386376 0.00425432
0.320107 0.38608 0.00413494
0.240975 0.220951 0.0342113
0.238883 0.221061 0.0341793
0.236951 0.220908 0.0341275
0.235078 0.220988 0.0340933
0.233031 0.221008 0.0340891
0.230905 0.220995 0.0340776
0.229024 0.221028 0.03408
0.227117 0.220978 0.0340381
0.225064 0.220853 0.0339898
0.222974 0.221114 0.0339789
0.221019 0.22089 0.0339605
0.226711 0.389966 0.0080416
0.228618 0.389642 0.00853311
0.230957 0.390286 0.00843549
0.233146 0.390399 0.00847379
0.235321 0.389886 0.00836967
0.236904 0.390558 0.00857573
0.238562 0.390748 0.0087385
0.218957 0.220934 0.0339504
0.217076 0.22096 0.0340258
0.214954 0.220934 0.034153
0.200446 0.220299 0.0340535
0.198762 0.220719 0.0339314
0.196995 0.220909 0.0337865
0.195066 0.221032 0.0336341
0.303282 0.388829 0.00545235
0.305249 0.38869 0.00529813
0.183067 0.221035 0.032333
0.308982 0.388921 0.00475439
0.310888 0.388999 0.00448469
0.313 0.388505 0.00438601
0.314718 0.388408 0.00415543
0.316415 0.388203 0.00393257
0.181152 0.22117 0.0320163
0.179645 0.221669 0.0317923
0.284446 0.218869 0.0337978
0.28304 0.218948 0.0337932
0.280942 0.218998 0.0338273
0.279497 0.218962 0.0339735
0.0608699 0.171223 -0.008285
0.250708 0.218814 0.0353263
0.246835 0.218912 0.0341764
0.226819 0.392309 0.00765048
0.229044 0.392093 0.00803346
0.230794 0.392643 0.00773881
0.233226 0.392605 0.00739379
0.235442 0.392249 0.00731217
0.237301 0.392729 0.00766097
0.238336 0.392421 0.00767282
0.240203 0.39214 0.00816594
0.243117 0.392273 0.00875125
0.245076 0.218955 0.0340579
0.294774 0.411045 -0.00263709
0.293348 0.411375 -0.00205174
0.243008 0.218946 0.0341164
0.289678 0.41241 -0.000104721
0.287371 0.412984 0.00050055
0.285635 0.41354 0.000463281
0.282825 0.413445 -0.000244358
0.281183 0.413401 0.000894025
0.278273 0.413826 0.000547045
0.276292 0.413418 0.000154452
0.27232 0.412909 0.000681786
0.262403 0.412469 0.00107304
0.260516 0.412112 0.000681478
0.258561 0.412261 0.000202837
0.285098 0.392608 0.00863498
0.241013 0.218816 0.0341101
0.239033 0.219079 0.0340914
0.23709 0.218929 0.0340396
0.235027 0.218893 0.0340034
0.232894 0.219167 0.0340146
0.231023 0.218836 0.0340154
0.228833 0.219027 0.0339929
0.227047 0.218909 0.0339625
0.224848 0.218914 0.0338943
0.220904 0.219028 0.0338523
0.21899 0.218869 0.0338673
0.216964 0.218951 0.0339218
0.215133 0.218952 0.0340631
0.163054 0.39253 0.00426746
0.164889 0.392926 0.00433037
0.166853 0.393056 0.00456607
0.204239 0.218506 0.0341665
0.203074 0.21858 0.0340975
0.172998 0.393882 0.00577079
0.201163 0.219087 0.0340001
0.227107 0.394071 0.00721847
0.229231 0.394334 0.00732471
0.231207 0.394679 0.00699311
0.232946 0.394388 0.00704191
0.235176 0.393748 0.00673048
0.236518 0.393509 0.00712783
0.238797 0.393969 0.00632852
0.240721 0.3937 0.00666896
0.242873 0.393788 0.00794793
0.244985 0.394605 0.0077204
0.246587 0.394407 0.00768401
0.248711 0.394387 0.00803893
0.256395 0.412384 1.65376e-05
0.254632 0.412327 -3.15283e-05
0.198835 0.218847 0.0337484
0.184894 0.218964 0.0323214
0.182988 0.219483 0.0321087
0.246933 0.410283 -0.00306845
0.245118 0.410778 -0.00332193
0.181593 0.219713 0.0318953
0.286945 0.217079 0.0336983
0.285127 0.216942 0.0337431
0.283687 0.216991 0.0337545
0.280735 0.217171 0.0337059
0.229469 0.410129 -0.00366216
0.279201 0.217048 0.0338201
0.277403 0.216566 0.0341255
0.0566097 0.173178 -0.00895836
0.252044 0.217079 0.0354127
0.285001 0.394248 0.00825473
0.250698 0.216769 0.0345134
0.248785 0.216934 0.0340936
0.246818 0.216841 0.0340098
0.24488 0.21684 0.0340016
0.242991 0.217099 0.0340246
0.24115 0.216829 0.034004
0.238905 0.216991 0.0339812
0.237059 0.216873 0.0339382
0.235111 0.21709 0.0339467
0.23302 0.216826 0.0339453
0.230955 0.216958 0.0339522
0.229151 0.216655 0.0339371
0.175052 0.395588 0.00559043
0.176869 0.395814 0.00594779
0.227102 0.217046 0.0339013
0.231766 0.396215 0.00638931
0.232808 0.395988 0.00642649
0.243299 0.395787 0.00712017
0.244926 0.396653 0.00703532
0.246495 0.396327 0.00714776
0.248475 0.395614 0.00735332
0.250791 0.395869 0.00749947
0.225084 0.216912 0.0338404
0.22318 0.217064 0.0338279
0.221091 0.217035 0.0337742
0.258827 0.395798 0.00830176
0.261014 0.395817 0.00836673
0.219185 0.216876 0.0337676
0.217004 0.217045 0.0338495
0.214961 0.217002 0.0339601
0.29519 0.409253 -0.00203313
0.20689 0.21679 0.0341473
0.204936 0.21691 0.0340597
0.203004 0.217028 0.0339586
0.26014 0.411206 0.000970173
0.201066 0.217148 0.0338427
0.284986 0.214864 0.0336171
0.283109 0.214942 0.033608
0.285514 0.396369 0.00748067
0.287202 0.395422 0.00699498
0.281044 0.214975 0.0335294
0.278922 0.214953 0.0335839
0.277097 0.214931 0.033811
0.275521 0.214549 0.0343207
0.175143 0.397296 0.00476539
0.177029 0.397381 0.00519372
0.274346 0.214192 0.0351725
0.0556628 0.175318 -0.00950525
0.0600618 0.174306 -0.00842638
0.260702 0.397634 0.0079759
0.0719639 0.175162 -0.0100077
0.250771 0.214952 0.0342135
0.249033 0.214971 0.0340044
0.247033 0.214871 0.0338954
0.244889 0.214943 0.0338915
0.234792 0.409197 -0.00263765
0.287745 0.39682 0.00628841
0.28862 0.396568 0.00578548
0.175037 0.398481 0.00420431
0.177356 0.399245 0.00439825
0.24292 0.215032 0.0339004
0.240959 0.21489 0.0338721
0.239024 0.214978 0.033888
0.237313 0.214619 0.0338379
0.183126 0.400917 0.00509112
0.235009 0.214868 0.0338683
0.233209 0.214991 0.0338834
0.230943 0.215062 0.0339351
0.183042 0.402869 0.00432429
0.228994 0.215014 0.0339129
0.186873 0.402795 0.00532634
0.226907 0.215097 0.0338709
0.224919 0.214671 0.0337839
0.222758 0.214907 0.0337283
0.221096 0.215135 0.0337123
0.218974 0.214935 0.0337222
0.216956 0.214953 0.033761
0.214606 0.214533 0.0338276
0.212984 0.214493 0.0339003
0.210962 0.214903 0.0339602
0.208969 0.215227 0.0340368
0.207168 0.214832 0.0340359
0.205022 0.215153 0.0339646
0.199049 0.40747 0.00582817
0.200473 0.407581 0.00602333
0.202741 0.215226 0.0338871
0.200814 0.214922 0.0337627
0.275211 0.212656 0.033916
0.273347 0.212693 0.0346421
0.196737 0.408686 0.00521892
0.199118 0.409229 0.00510609
0.20061 0.408858 0.0055021
0.0552865 0.177172 -0.00999703
0.250675 0.212823 0.0340329
0.189688 0.410715 0.00374333
0.191098 0.410854 0.00402714
0.19285 0.410812 0.00429099
0.195199 0.410626 0.00443517
0.197359 0.410481 0.00443502
0.198198 0.41024 0.00457411
0.200794 0.410407 0.00473991
0.248872 0.213066 0.0338523
0.0726241 0.1769 -0.00930914
0.244938 0.212967 0.0337773
0.243119 0.213041 0.0337911
0.240935 0.213005 0.0337523
0.23885 0.213084 0.0337502
0.236996 0.213151 0.033771
0.235204 0.21287 0.0338229
0.232809 0.212999 0.0338903
0.230964 0.213008 0.0338943
0.228666 0.213109 0.033885
0.274307 0.410547 0.00283052
0.232605 0.408818 -0.00212162
0.230961 0.409664 -0.00240668
0.229047 0.40896 -0.00310933
0.226934 0.212894 0.0338613
0.225045 0.212979 0.0338074
0.223154 0.213066 0.033755
0.220923 0.212953 0.0337183
0.218808 0.212652 0.0337043
0.217062 0.212803 0.0337189
0.2149 0.213082 0.0337837
0.212893 0.212938 0.0338367
0.210952 0.213052 0.0339022
0.208917 0.212935 0.0339599
0.20703 0.212888 0.0339933
0.20517 0.212737 0.0339732
0.203164 0.213899 0.0338889
0.200793 0.213264 0.0337594
0.273028 0.210742 0.0341659
0.271693 0.210297 0.0342529
0.264973 0.210443 0.0356304
0.254678 0.4128 0.00335795
0.256395 0.412196 0.00311343
0.258454 0.412608 0.0027912
0.0546705 0.179409 -0.0101423
0.273459 0.412247 0.00299115
0.274754 0.412289 0.00281177
0.276593 0.412355 0.00274145
0.278629 0.412281 0.00259142
0.258772 0.210018 0.0346641
0.256869 0.210307 0.0345197
0.254781 0.210383 0.0342874
0.253046 0.210913 0.0341889
0.286955 0.412831 0.00341887
0.287796 0.412633 0.00219635
0.288487 0.412379 0.000977222
0.25115 0.211039 0.0339314
0.24896 0.210941 0.0337124
0.246854 0.211092 0.0336827
0.24498 0.210818 0.0336714
0.242783 0.211021 0.0336711
0.241018 0.210839 0.0336725
0.238988 0.210986 0.0336935
0.236904 0.211083 0.0337364
0.23495 0.210933 0.0337846
0.233065 0.21117 0.0338297
0.231099 0.211023 0.0338674
0.228958 0.211015 0.0338794
0.227125 0.210915 0.0338424
0.224939 0.211106 0.0338217
0.223031 0.21078 0.0337819
0.221038 0.21114 0.0337709
0.219038 0.210924 0.0337341
0.216796 0.211212 0.0337194
0.21503 0.211187 0.0337513
0.21317 0.210972 0.0338075
0.254343 0.414129 0.00271348
0.256645 0.414014 0.00232921
0.258527 0.414393 0.00217107
0.260271 0.414257 0.00214035
0.263139 0.414833 0.00149528
0.264818 0.414091 0.00235514
0.210941 0.2112 0.0338572
0.269407 0.414836 0.00312953
0.272776 0.41456 0.00256068
0.274683 0.414305 0.00222951
0.276781 0.414335 0.00239346
0.278383 0.414403 0.00270972
0.280242 0.414256 0.00225912
0.282775 0.414588 0.00123296
0.284324 0.414088 0.001127
0.285592 0.414098 0.0021038
0.287314 0.414957 0.00278932
0.288595 0.415073 0.00271348
0.209116 0.210946 0.0339554
0.206891 0.210944 0.0340073
0.205328 0.211037 0.0339851
0.200649 0.210931 0.0337387
0.270911 0.208809 0.0339103
0.264933 0.208725 0.0347692
0.262848 0.208535 0.034484
0.260901 0.208445 0.0342712
0.258922 0.208586 0.0341455
0.257275 0.208614 0.0339058
0.255033 0.208823 0.0339145
0.252885 0.209058 0.033831
0.251024 0.20876 0.0336547
0.248994 0.208772 0.0336335
0.24694 0.208959 0.0336412
0.245017 0.20898 0.0336362
0.254495 0.415823 0.00200292
0.256692 0.415825 0.00196713
0.258802 0.415826 0.00161842
0.260435 0.415705 0.00139374
0.262562 0.415836 0.00120453
0.264968 0.415978 0.00121578
0.26656 0.415476 0.00180161
0.268719 0.415822 0.00193953
0.243021 0.209066 0.0336419
0.272981 0.415897 0.00137284
0.275169 0.415634 0.0012661
0.27683 0.415814 0.00163243
0.279055 0.416469 0.00231803
0.28075 0.416633 0.00214765
0.282203 0.416537 0.00178884
0.240919 0.209005 0.0336396
0.238899 0.208865 0.0336189
0.236996 0.209108 0.0336811
0.0585634 0.178592 -0.00860385
0.233041 0.208909 0.0337725
0.230963 0.209171 0.0338013
0.229055 0.208842 0.0337934
0.226844 0.209039 0.033797
0.260707 0.417182 0.00143186
0.225039 0.208932 0.0337644
0.222958 0.208911 0.0337605
0.233017 0.43655 0.00382474
0.219024 0.209026 0.0337305
0.21708 0.208873 0.0337385
0.214764 0.208757 0.0337945
0.213047 0.209003 0.0338511
0.211203 0.209263 0.0338942
0.209147 0.209642 0.0339507
0.206803 0.209584 0.0339924
0.205199 0.208869 0.0339854
0.202633 0.208667 0.033834
0.20091 0.208967 0.0337193
0.188972 0.20894 0.0322453
0.18746 0.20943 0.0320423
0.267036 0.206369 0.0338862
0.264973 0.206955 0.0341004
0.263028 0.206733 0.033887
0.260919 0.206789 0.0337723
0.258977 0.207011 0.0335728
0.25699 0.20686 0.0334571
0.254927 0.206672 0.0334288
0.252848 0.206787 0.0334536
0.250892 0.206985 0.0335726
0.269794 0.0764783 0.00467117
0.270915 0.076172 0.00500212
0.272354 0.0755723 0.00552338
0.248974 0.206852 0.0335711
0.247028 0.207036 0.0335898
0.24504 0.207026 0.0335691
0.243034 0.206873 0.0335519
0.241033 0.207022 0.033569
0.239161 0.207033 0.0335636
0.236817 0.207022 0.0335935
0.288555 0.0758552 0.0059606
0.23508 0.206877 0.0336197
0.23301 0.207013 0.0336818
0.230571 0.206604 0.033661
0.228911 0.206752 0.0336486
0.227374 0.206632 0.0336491
0.22489 0.206918 0.0336764
0.22294 0.207054 0.0336858
0.221137 0.206946 0.0336819
0.218821 0.207071 0.0336956
0.217031 0.20679 0.0336901
0.215001 0.207053 0.0337631
0.21311 0.20743 0.0338283
0.267664 0.0781522 0.00448088
0.269411 0.0776889 0.0053401
0.271229 0.0773787 0.00606658
0.273034 0.0770313 0.00645675
0.206981 0.206654 0.0339217
0.204971 0.206988 0.0339108
0.202973 0.206999 0.0337577
0.19117 0.206854 0.0324134
0.189335 0.207115 0.0321518
0.267188 0.204813 0.0334697
0.264976 0.205235 0.0336631
0.288967 0.077025 0.00634046
0.291039 0.077437 0.00620721
0.262934 0.205143 0.0335831
0.260932 0.205014 0.0333623
0.259009 0.204942 0.0332685
0.252914 0.205083 0.0333341
0.251033 0.204901 0.0334336
0.249056 0.204965 0.0334897
0.246939 0.205125 0.0334908
0.245063 0.205014 0.0334847
0.243243 0.205002 0.0334826
0.241021 0.204877 0.0334712
0.238976 0.205023 0.0334794
0.236688 0.204532 0.0334864
0.234972 0.204627 0.0335181
0.233003 0.204891 0.0335542
0.231084 0.205062 0.0335806
0.229023 0.204937 0.0335168
0.227023 0.204925 0.0335519
0.224907 0.204575 0.0335128
0.222888 0.204684 0.0335418
0.267548 0.0796793 0.00501492
0.269386 0.0795523 0.00605549
0.271339 0.0790688 0.00663204
0.273055 0.0791912 0.00738478
0.220906 0.204758 0.0335647
0.218961 0.204741 0.0335776
0.21722 0.204715 0.0335638
0.215021 0.204954 0.033612
0.213116 0.205027 0.0336642
0.211135 0.204483 0.0336587
0.208808 0.20461 0.0337551
0.20689 0.205106 0.0338211
0.191072 0.20492 0.0322065
0.189554 0.205388 0.0320184
0.294801 0.0791705 0.00643808
0.296804 0.0792588 0.00628544
0.299049 0.0793605 0.00611783
0.300742 0.0795368 0.00601496
0.302031 0.0797325 0.00598387
0.266919 0.202921 0.0331832
0.265014 0.202969 0.0332106
0.262784 0.202824 0.0331947
0.261006 0.202904 0.0331279
0.24709 0.203057 0.0334179
0.244914 0.202978 0.0334422
0.242878 0.202839 0.0334244
0.240991 0.202981 0.0334204
0.238861 0.202695 0.0334172
0.236819 0.202893 0.0334263
0.23496 0.203118 0.0334423
0.334799 0.399219 -0.00303801
0.233032 0.202956 0.0334702
0.226907 0.203079 0.0333979
0.148822 0.398966 -0.00199784
0.225007 0.202892 0.0333917
0.222929 0.202997 0.0334118
0.283181 0.0802855 0.00792868
0.285159 0.0809701 0.00796687
0.287013 0.0805798 0.00762664
0.288897 0.0811577 0.00759006
0.290946 0.0810928 0.00733823
0.293125 0.0809029 0.00710451
0.295145 0.0811695 0.00705003
0.297014 0.0807751 0.00678059
0.299106 0.0810967 0.00674476
0.30097 0.0812889 0.00666916
0.302876 0.0809613 0.00640287
0.305074 0.081529 0.00639139
0.306882 0.0815467 0.00615284
0.308101 0.0814051 0.00592189
0.220979 0.202982 0.0334662
0.345905 0.396029 -0.00438117
0.218964 0.202893 0.0334462
0.216928 0.203029 0.0334157
0.215108 0.202915 0.0333642
0.212971 0.203155 0.0334368
0.211055 0.202863 0.0334281
0.19289 0.20285 0.0322526
0.19151 0.203456 0.0321172
0.148016 0.397629 -0.00194152
0.146581 0.397425 -0.00219036
0.319009 0.201146 0.0320351
0.285747 0.0821667 0.00831502
0.287136 0.0822796 0.008164
0.289095 0.0826965 0.00804691
0.29112 0.0824013 0.00773157
0.264788 0.200741 0.0330553
0.29496 0.0830663 0.00766832
0.297005 0.0826679 0.00741457
0.298852 0.0829834 0.00740706
0.300963 0.0831392 0.00731527
0.30283 0.0827805 0.00704906
0.30485 0.0831179 0.0069937
0.307032 0.082973 0.00667926
0.308989 0.082879 0.00636624
0.310892 0.0836078 0.00638241
0.312548 0.0832425 0.00595616
0.314695 0.0838573 0.00589574
0.26296 0.200918 0.0330722
0.26111 0.201076 0.0330864
0.345064 0.39466 -0.00357963
0.244988 0.201013 0.0334012
0.243172 0.20083 0.0334012
0.241027 0.201008 0.0333845
0.146197 0.395844 -0.00190744
0.14487 0.39554 -0.00209754
0.142964 0.394913 -0.00229936
0.239123 0.200907 0.0333643
0.295951 0.084238 0.00804768
0.297173 0.0840629 0.00790041
0.298923 0.0845983 0.0079527
0.23689 0.201004 0.0333456
0.213051 0.200933 0.0330639
0.210984 0.200964 0.0331319
0.194961 0.201271 0.0323245
0.193567 0.200857 0.0320791
0.213032 0.199064 0.0327885
0.313174 0.0849484 0.00660192
0.314862 0.0851507 0.00643904
0.31677 0.085263 0.00622908
0.211033 0.199397 0.0328616
0.208968 0.199174 0.0329018
0.19696 0.199096 0.0322173
0.195101 0.198976 0.0319907
0.345009 0.392834 -0.00268025
0.34311 0.392849 -0.0023343
0.341582 0.392745 -0.00196339
0.142572 0.393311 -0.00188928
0.19388 0.199294 0.0318966
0.313132 0.197126 0.0320702
0.213195 0.196996 0.0325358
0.210845 0.197118 0.0325273
0.208881 0.19724 0.0325965
0.199296 0.197097 0.0321058
0.197098 0.197723 0.0319872
0.310657 0.195328 0.0321216
0.316825 0.0869245 0.00692804
0.212978 0.194949 0.0323941
0.210935 0.195218 0.0323774
0.322569 0.0872096 0.00604497
0.323983 0.0876524 0.00597049
0.2091 0.19475 0.0323591
0.309033 0.192895 0.032083
0.307086 0.193143 0.032122
0.213037 0.192979 0.0323413
0.211063 0.19317 0.0322867
0.140663 0.391782 -0.00175676
0.209099 0.192893 0.0322297
0.207144 0.193035 0.0321389
0.205219 0.193139 0.0320176
0.31039 0.191143 0.0319237
0.316783 0.0886746 0.00762984
0.31909 0.0889121 0.00736305
0.321217 0.0889198 0.00694672
0.322909 0.0891044 0.00669157
0.324926 0.0890745 0.00635006
0.309615 0.191239 0.0319646
0.333057 0.0898025 0.00576695
0.197423 0.0915751 0.00470245
0.306725 0.191347 0.0320247
0.304873 0.191277 0.032051
0.303075 0.190801 0.0320854
0.300908 0.191154 0.0321535
0.246991 0.190968 0.0326463
0.244934 0.191008 0.0326196
0.243019 0.191147 0.0326019
0.136573 0.389318 -0.00156312
0.134887 0.389331 -0.00183752
0.133617 0.389357 -0.00200771
0.241084 0.191025 0.0325513
0.239021 0.191018 0.0325234
0.360983 0.387143 -0.0034755
0.237099 0.190973 0.0324763
0.235069 0.19106 0.032454
0.233087 0.191073 0.0324533
0.230962 0.191225 0.0325076
0.212924 0.191089 0.0322649
0.366878 0.384549 -0.00372337
0.364901 0.384867 -0.00332858
0.363045 0.38554 -0.00315061
0.211065 0.190846 0.0321992
0.20898 0.190976 0.0320637
0.321034 0.0908576 0.00772866
0.323143 0.0907284 0.00724585
0.324801 0.0910038 0.00706916
0.207134 0.191265 0.0318983
0.205947 0.191926 0.0318752
0.303068 0.189498 0.0320281
0.332957 0.0912621 0.00632737
0.300973 0.189174 0.032089
0.29906 0.189024 0.0321464
0.296918 0.189012 0.0322239
0.295019 0.18904 0.0322612
0.269296 0.189058 0.0323143
0.367202 0.382949 -0.00319859
0.365124 0.382893 -0.00259755
0.363066 0.38337 -0.0022095
0.361421 0.383784 -0.00194754
0.264725 0.189039 0.0322758
0.262938 0.188991 0.0323285
0.260918 0.188979 0.0323881
0.259006 0.18907 0.0324768
0.369137 0.381005 -0.00305835
0.367128 0.380909 -0.00245125
0.24704 0.189042 0.0324951
0.245184 0.189402 0.032482
0.24276 0.18896 0.0323977
0.240893 0.189055 0.0323921
0.239075 0.189092 0.0323723
0.236919 0.188931 0.0323378
0.235016 0.189232 0.0323449
0.126013 0.379539 -0.00178437
0.124685 0.378777 -0.00207812
0.233001 0.189094 0.0323556
0.23103 0.188952 0.032391
0.229051 0.188939 0.0324672
0.217003 0.188888 0.0323192
0.215048 0.189082 0.0322534
0.213061 0.189085 0.0321483
0.211181 0.189344 0.0320661
0.20904 0.189116 0.0318509
0.300919 0.186817 0.0319478
0.298922 0.18717 0.0320725
0.332999 0.0928641 0.00687566
0.334842 0.0934978 0.00685612
0.191604 0.0954057 0.00470945
0.297212 0.186883 0.0321139
0.295317 0.187517 0.0321836
0.124193 0.377385 -0.00192512
0.12281 0.37716 -0.00228777
0.292892 0.187043 0.0321589
0.291031 0.187053 0.0321542
0.288848 0.186924 0.032143
0.286963 0.187005 0.032157
0.122477 0.375569 -0.00209251
0.12103 0.375069 -0.0023985
0.27106 0.18699 0.0322442
0.269618 0.186857 0.0321796
0.382363 0.372771 -0.00390959
0.380965 0.373207 -0.00347946
0.37931 0.373188 -0.00278839
0.2648 0.186924 0.0321349
0.120818 0.373129 -0.00217506
0.262996 0.186988 0.0321734
0.261064 0.187263 0.032254
0.384657 0.370579 -0.00425472
0.383169 0.371235 -0.00376217
0.258998 0.187152 0.0323108
0.120348 0.370942 -0.00188513
0.119022 0.371204 -0.00234181
0.257036 0.186884 0.0323452
0.254997 0.187088 0.0324304
0.253018 0.187049 0.0324548
0.384553 0.368843 -0.00368973
0.383212 0.36923 -0.00317759
0.250982 0.186939 0.0324218
0.118828 0.369413 -0.00197974
0.249064 0.187009 0.0323839
0.247008 0.187053 0.0323476
0.245069 0.186968 0.0323219
0.384542 0.36707 -0.00322159
0.243043 0.187051 0.0322932
0.329255 0.094927 0.0079232
0.331127 0.0948995 0.00774852
0.332893 0.0948894 0.00759812
0.33497 0.0951172 0.00744841
0.241057 0.187048 0.0322863
0.239282 0.187115 0.032281
0.236829 0.186974 0.0322692
0.191323 0.0974956 0.00544402
0.382972 0.367201 -0.00252578
0.234918 0.18698 0.03226
0.232936 0.187143 0.0322646
0.231025 0.186941 0.0323372
0.228944 0.187032 0.0324003
0.226804 0.187017 0.0324302
0.224977 0.186979 0.0324329
0.222948 0.187019 0.0323833
0.221012 0.186959 0.0322848
0.385208 0.365049 -0.00289157
0.383705 0.365192 -0.00226336
0.218966 0.187078 0.0322178
0.217172 0.187056 0.0321381
0.215252 0.187291 0.0320515
0.213019 0.186871 0.0318605
0.211194 0.187072 0.0317856
0.209598 0.187846 0.0317277
0.386951 0.362871 -0.00279521
0.385309 0.362931 -0.00218077
0.33511 0.0964197 0.00787303
0.337195 0.0966012 0.0076286
0.338834 0.0969037 0.00740304
0.340569 0.0970006 0.00702671
0.300976 0.185494 0.0318573
0.112235 0.363727 -0.00197982
0.110929 0.363397 -0.00224926
