0.33883600000000003 0.071151900000000004 -0.0037779799999999998 -0.21978799185684869 0.41795754538398805 -0.88147871720883064
0.34066299999999999 0.071969000000000005 -0.0038580300000000001 0.20579038667094932 -0.41395164214466457 0.88673240310679791
0.22863900000000001 0.071926199999999996 0.00039952500000000002 0.057644796352521066 0.34923893805560458 -0.93525891687771145
0.195105 0.17100199999999999 0.027535199999999999 -0.11182590622656324 -0.17729288399728166 0.9777843320387859
0.232933 0.071583099999999997 0.00061675900000000004 -0.058446853699519234 -0.33149859319014546 0.9416435886287241
0.33543299999999998 0.072114899999999996 -0.0022653999999999999 0.22738832150672825 -0.41161422666675118 0.88253514357666529
0.33901399999999998 0.072719599999999995 -0.0030875799999999999 0.21908187769858833 -0.40394483643399959 0.88816197846021883
0.26683299999999999 0.28309400000000001 0.035171000000000001 -0.058782242354241364 -0.061320199694429783 -0.99638570899689383
0.046901699999999998 0.18592400000000001 -0.0131611 -0.16187706727665191 -0.12199297019369333 0.97924130341465432
0.34100399999999997 0.073344999999999994 -0.0033188699999999998 -0.2036855088636785 0.40049170299145137 -0.89337484255711586
0.043081800000000003 0.186311 -0.0124589 -0.0042552116490493785 -0.089054152593235264 0.99601769616795599
0.34200000000000003 0.076325299999999999 -0.00213394 -0.18478968935088833 0.40092463293778036 -0.89728045192866424
0.353132 0.079409099999999996 -0.00347518 -0.30075403969314984 0.40451601955281274 -0.86366301155797998
0.181945 0.17508399999999999 0.026189500000000001 -0.16935766639335981 -0.15595465026353106 0.97313726056244243
0.18104700000000001 0.083472199999999996 -0.0037768300000000001 -0.25566756632890342 -0.32249524332944585 0.91138955093710461
0.050072800000000001 0.18700600000000001 -0.0117132 0.47177064713270822 0.16452473679651775 -0.86623557274336316
0.35726999999999998 0.082886399999999999 -0.0033246600000000001 -0.25929859229459684 0.38923566568488893 -0.88388904088289366
0.0351864 0.190994 -0.011855600000000001 -0.05119949259561575 0.020404840753900977 -0.99847997197327876
0.17713400000000001 0.085507200000000005 -0.0036374100000000002 0.16572543368097961 0.3870603975488785 -0.90703876944734574
0.182925 0.085021899999999997 -0.00271017 -0.28730571814070077 -0.33207433625904798 0.89843311354923283
0.36096699999999998 0.085006200000000004 -0.0033730700000000001 0.22703888413281831 -0.39031204123983304 0.89224988403188932
0.32986500000000002 0.174322 0.0279984 0.14268300188523433 -0.13306151385411671 0.98078345953827617
0.040745799999999999 0.191636 -0.0118744 -0.02209595727159867 0.015614151836872099 -0.99963391645875388
0.34079799999999999 0.17502000000000001 0.026310699999999999 -0.15177085755684888 0.13340524174770077 -0.9793715578220028
0.17507800000000001 0.087127099999999999 -0.0031645800000000002 -0.15750192495832896 -0.41143079942674415 0.89772926927748742
0.36494500000000002 0.086955299999999999 -0.0033369099999999998 0.23054673181979157 -0.38417316695088183 0.89401296536579566
0.167323 0.089288900000000004 -0.0036222799999999999 -0.18398447186465408 -0.42079073213651952 0.88830449388748245
0.17887400000000001 0.0884384 -0.00212109 -0.16593713785862418 -0.43114811180261114 0.88689129659069887
0.18252199999999999 0.088012000000000007 -0.00155966 -0.25655280111589762 -0.40067234488790687 0.87956940162878139
0.36144799999999999 0.088383600000000007 -0.0020969700000000001 0.21856070332861405 -0.35504844233060817 0.90893994441828252
0.34098699999999998 0.17699300000000001 0.026540000000000001 -0.14497254644917196 0.12730946943414892 -0.98121111885691448
0.17911299999999999 0.17898 0.026363899999999999 -0.17094961402759548 -0.16680892279069098 0.97105664754494403
0.16306399999999999 0.0911888 -0.00359188 -0.21223440349815512 -0.42663047832629541 0.87917176531941643
0.15907399999999999 0.093158900000000003 -0.0037323299999999998 -0.23129919574459612 -0.41114033288549467 0.88173936552856014
0.16101499999999999 0.093014600000000003 -0.0032124599999999999 0.23418027567666336 0.42447951536768902 -0.87462948699275722
0.15706000000000001 0.094910400000000006 -0.0034917799999999999 0.23616657714570055 0.39022420514810469 -0.88991596095126535
0.32866699999999999 0.105364 0.0121125 0.16855454161012837 -0.32911551598663558 0.92912450384189638
0.1749 0.183031 0.026336700000000001 0.16571044437424626 0.16076048554180819 -0.97298310104217711
0.34698200000000001 0.18287700000000001 0.026411400000000002 -0.16947973083407991 0.083546462837179522 -0.98198605355870727
0.15326600000000001 0.096955299999999994 -0.0035719300000000001 0.22721929750778636 0.38208142791158872 -0.8957595510431966
0.25413200000000002 0.40621099999999999 0.00088082199999999996 -0.49299925221131186 0.42956536412214252 0.75658795606703821
0.17150699999999999 0.18597 0.026280899999999999 -0.16284290392515019 -0.15102844995466899 0.9750244078716771
0.37893100000000002 0.097292900000000002 -0.0032661500000000002 0.26615953880375265 -0.33668946660996635 0.90321608875045489
0.31656400000000001 0.10119599999999999 0.012400100000000001 0.11347414486840794 -0.34726875951829561 0.93087487188612428
0.31289699999999998 0.100913 0.012726700000000001 0.08785034687181878 -0.34170531010940691 0.93569214894511921
0.30898999999999999 0.10115499999999999 0.0130613 0.08182942317495677 -0.34096117803543269 0.9365091673740007
0.167685 0.18743899999999999 0.025938900000000001 0.15861907535051872 0.14262713224114631 -0.97698387401410713
0.294846 0.098143800000000003 0.013635100000000001 0.10616478892482967 -0.36300064619400979 0.92572110727544588
0.14546999999999999 0.10188899999999999 -0.0037745000000000001 -0.25637917219724993 -0.33737141668272297 0.90578708716173773
0.143041 0.103738 -0.0037664999999999999 -0.2780109906595975 -0.35900449732907935 0.89096894444754071
0.29711100000000001 0.40516099999999999 -0.00029855099999999998 0.16271327344962502 0.39453438930752449 0.90435999817387203
0.30675599999999997 0.097829600000000003 0.0119986 0.083753247040755652 -0.34052567213866075 0.93649754950274344
0.29905199999999998 0.096693799999999996 0.012454700000000001 -0.11959832566200046 0.35245138240523377 -0.92815637881743052
0.167046 0.190969 0.026269600000000001 0.16670623894330339 0.14339773343254431 -0.97552351070785959
0.16306499999999999 0.19716400000000001 0.026394000000000001 0.19653981637648996 0.13326484724952392 -0.97139723134578493
0.165024 0.19705 0.026779399999999998 0.18993040559972871 0.14252229684347822 -0.97139787725276705
0.38677899999999998 0.10492700000000001 -0.0033454700000000001 0.33468882317872584 -0.32532161858896036 0.88439201495598008
0.249141 0.27884900000000001 0.035801199999999998 -0.023723573218981414 0.088499402994190471 0.99579367729635426
0.26523600000000003 0.095887700000000006 0.011299500000000001 0.24619985672740152 0.34480344167707611 -0.90581246246397495
0.13917499999999999 0.107067 -0.0035753299999999998 -0.28380816682191928 -0.34766609178599517 0.89363371303204153
0.141152 0.107046 -0.0030252999999999999 0.283851557970488 0.33237007058767443 -0.8994211634241609
0.14458099999999999 0.106556 -0.0020731399999999998 -0.29429438341546321 -0.35688033404784747 0.88658177460401744
0.38704499999999997 0.106903 -0.0026956200000000001 0.34224358464596211 -0.32296768248589719 0.88236115329176334
0.21870600000000001 0.27876899999999999 0.035143599999999997 0.079288149395778426 0.12236618774586566 0.98931284509094308
0.39088000000000001 0.10914500000000001 -0.0034531700000000002 0.33228219694654837 -0.31721796962381521 0.88823493589259339
0.16913500000000001 0.40712100000000001 1.6038599999999999e-05 -0.2116587303734089 0.32517115461011575 0.92166387694551688
0.26887499999999998 0.27654000000000001 0.035459900000000003 0.1255659007920569 0.061095315931138955 0.9902022858636278
0.29302400000000001 0.093679700000000005 0.0120803 -0.088595207086007099 0.36285972358895013 -0.92762261199171858
0.290933 0.093393199999999996 0.012101799999999999 -0.081015731024070115 0.36568122067694558 -0.92720747202061227
0.28679700000000002 0.093095899999999995 0.0123179 -0.097495776384896496 0.35526615175133036 -0.92966689464931851
0.28299099999999999 0.092985100000000001 0.01274 0.056066740627557884 -0.34786127457759508 0.93586807523531479
0.27100600000000002 0.093359600000000001 0.0127549 -0.19384934873924337 -0.35262087830120781 0.91546761066651428
0.267482 0.093764 0.011359299999999999 -0.27429333662497463 -0.36630497744511087 0.88914781053662562
0.38803900000000002 0.110226 -0.0018918299999999999 0.34346737471242883 -0.30947126591586838 0.88671173336128917
0.046785399999999998 0.19855999999999999 -0.011591499999999999 -0.33060927353396713 -0.095695924903459545 0.93890350846623949
0.0229292 0.20094500000000001 -0.0119498 -0.0056699405975952771 0.12839516315674371 -0.99170687899780807
0.39124900000000001 0.110939 -0.0029341699999999998 -0.32610702461748092 0.3077080712124956 -0.89385119086222597
0.26915600000000001 0.091615000000000002 0.011299999999999999 -0.27257452833854257 -0.3766916007353151 0.8853285065084523
0.39505200000000001 0.113107 -0.0034509599999999999 -0.30358274319755768 0.32185387638924884 -0.89679852825808115
0.27051199999999997 0.090098700000000004 0.010938099999999999 -0.24409079723256155 -0.36273838822730498 0.89935562733138519
0.24484500000000001 0.40432299999999999 0.0080923699999999998 -0.20974632541287766 -0.062047275445147418 0.97578512726195465
0.28254099999999999 0.40159499999999998 0.0079794299999999992 -0.001529385330613521 -0.34233890594292593 -0.93957529472539381
0.133045 0.114943 -0.0027160800000000001 0.25485770625279147 0.33313843895863526 -0.90778099233888432
0.076233999999999996 0.261021 -0.000205689 0.40282639299076106 -0.044711761289490712 -0.91418365524244871
0.074856800000000001 0.26118599999999997 -0.00080144799999999996 0.40708530335995463 -0.054783624366338102 -0.91174574870937664
0.39874300000000001 0.11540499999999999 -0.0036303899999999998 -0.31180072895365851 0.32609304677929613 -0.89243690548192989
0.050845000000000001 0.26134400000000002 -0.0039110999999999998 0.068750994859177322 0.1791757087824993 -0.98141192477377337
0.25729400000000002 0.40223999999999999 0.0067758599999999999 0.1560085874789085 0.23662033129152762 0.95899538030812403
0.241146 0.40236 0.0079088500000000003 -0.051405345207051707 0.04248222771911761 0.99777389764022439
0.22755600000000001 0.40184599999999998 0.0075111700000000002 0.13081807816740759 -0.31829174536749122 0.93892331702621057
0.28353299999999998 0.40015699999999998 0.0089536600000000004 -0.11730002064902606 -0.26349556363930032 -0.95750237237207159
0.127109 0.117212 -0.00333578 -0.2712208331394742 -0.34480486330465759 0.89863722709032379
0.26319700000000001 0.39957300000000001 0.0075629399999999998 -0.019561268137353857 0.31432042340783783 0.94911539246688859
0.26876800000000001 0.27495999999999998 0.035591900000000003 -0.12939510343251404 -0.032701012019573983 -0.991053757886314
0.24857499999999999 0.40053899999999998 0.0082287899999999997 -0.051980079994334648 0.069693433812596628 0.99621327865432108
0.042851 0.200903 -0.0125068 0.18463928420714226 0.016054514979575413 -0.98267521963070015
0.24909999999999999 0.27497899999999997 0.036148800000000002 -0.03183368261168109 0.036166677879997326 0.9988386196290685
0.24530299999999999 0.40063900000000002 0.0085086299999999997 0.13062382092343014 -0.34846610488853985 -0.92817497873578392
0.24111399999999999 0.40036699999999997 0.0081076099999999995 -0.023984741532598275 -0.15423739080317839 -0.98774265851579091
0.23858699999999999 0.40006599999999998 0.0079871500000000002 0.0489015574756341 -0.039641991230017472 -0.99801660818233695
0.2293 0.40094999999999997 0.0081338299999999999 -0.012157375219810765 0.080877532757901383 -0.99664989987595909
0.163107 0.20507500000000001 0.027562099999999999 0.21048389189134589 0.12093212995352066 -0.97008863058958517
0.34935300000000002 0.20474899999999999 0.027768999999999999 -0.14503080912077795 0.1055020344031964 -0.98378624972224471
0.35901699999999998 0.20511499999999999 0.026221399999999999 -0.22305487365183402 0.099386858673097198 -0.96972613436127342
0.26127800000000001 0.39782699999999999 0.0078754500000000009 -0.042626280801389776 0.31264045892302422 0.94891461345552175
0.34928399999999998 0.209171 0.0280924 -0.15327784060654967 0.063215360112623714 -0.98615907531433522
0.40309800000000001 0.120945 -0.0033494200000000001 0.37360742150696191 -0.26595206085929812 0.88864334573529058
0.026960100000000001 0.203043 -0.0120751 -0.068099178345056993 -0.010200060847893919 -0.99762641337698521
0.12088 0.12327299999999999 -0.0035294699999999998 0.34530935272606134 0.27933931030076203 -0.895952566066197
0.25504399999999999 0.40938000000000002 0.00033980300000000001 -0.5483052986327478 -0.026683647681238085 0.8358524286246205
0.21917 0.39707199999999998 0.0112388 -0.26706731858176069 -0.36941555746112098 -0.8900602188904061
0.21299899999999999 0.39697300000000002 0.0112677 -0.10775939039928477 0.32810249845272632 0.93847571321257617
0.160804 0.21271999999999999 0.027859100000000001 0.20288496021474473 0.058666327563254156 -0.97744358145567811
0.40179199999999998 0.12264899999999999 -0.0023616499999999999 0.34863541155980099 -0.25465077801141378 0.90200129216354763
0.193219 0.388714 0.0112935 -0.13824153182925827 0.33119653040903968 0.93337995324654055
0.192909 0.38707999999999998 0.0118107 -0.13263448723382151 0.33537015463661063 0.93270303536293719
0.35359400000000002 0.220359 0.0279365 0.18278382484201522 -0.051139384087924337 0.98182220221954208
0.119369 0.12509899999999999 -0.0036441099999999999 -0.34799290201891042 -0.27799658518481069 0.89533169203934782
0.40308699999999997 0.125004 -0.0023070600000000001 -0.37170204540072449 0.22212854833387 -0.90138587600428122
0.29110000000000003 0.37848399999999999 0.010128099999999999 0.18896106887882022 0.29145586771824616 0.93773513937613417
0.071620600000000006 0.25847799999999999 -0.0018137100000000001 0.43006498816342364 -0.063572829928944696 -0.90055682844050444
0.40635300000000002 0.12699199999999999 -0.0033824900000000001 -0.38762480472088412 0.24889603578461494 -0.88757972832630672
0.115565 0.12969700000000001 -0.00359699 -0.34069049442986515 -0.31772492721783496 0.88486205570673893
0.40524399999999999 0.12909599999999999 -0.00228831 -0.36713563716382125 0.22364545968479652 -0.90288101779065622
0.40689999999999998 0.129021 -0.00304288 -0.37378569033439707 0.25129796735084076 -0.89282338080192214
0.1132 0.131608 -0.0037621899999999999 0.34525806761311917 0.30578117474979805 -0.88729630897276257
0.176872 0.37917099999999998 0.0115432 0.20247027465541992 -0.26478624910989107 -0.94281176815060697
0.30197099999999999 0.376218 0.010204899999999999 0.040919648630782693 0.350899056718944 0.93551880491505268
0.35582900000000001 0.22534299999999999 0.027791300000000001 -0.20915887784065468 0.026009748726194978 -0.97753570614665453
0.28733900000000001 0.37738699999999997 0.011348199999999999 0.35866020458548409 0.26517581677553331 0.8950109741473159
0.21898500000000001 0.274974 0.035651000000000002 0.12213942720368826 0.07275072521887202 0.9898430644816798
0.36099500000000001 0.22495399999999999 0.0265209 -0.23007276270943983 0.027628273528248069 -0.97278116879444887
0.11294899999999999 0.13304199999999999 -0.0032653600000000001 0.34999708569246318 0.29583771258826391 -0.88880936528443855
0.114577 0.13295399999999999 -0.0026209499999999999 -0.34938956298046719 -0.30755467978797935 0.88506330407538192
0.40742800000000001 0.13287199999999999 -0.00210904 0.33042886107759689 -0.2384188029297421 0.91322135442427721
0.36288999999999999 0.225077 0.026126 -0.2322771905531083 0.016360860122976838 -0.97251201997959469
0.11096 0.136905 -0.0028555099999999999 0.35778537610295769 0.26223432857692119 -0.89622696989249095
0.246035 0.37770799999999999 0.0136171 0.036922082362208578 0.14328310057791493 0.98899277698212629
0.23777999999999999 0.37705699999999998 0.0129231 -0.41230006112386797 0.29433798151927887 0.862191285175402
0.30098599999999998 0.37490499999999999 0.0107583 0.039142931786725906 0.34733461109322039 0.93692395573379461
0.35531000000000001 0.228852 0.027963200000000001 0.20870157620703308 -0.010167018849676416 0.97792652270833225
0.107 0.14094999999999999 -0.00344341 -0.33630546849441717 -0.25378188282912578 0.90691421193432331
0.242255 0.375865 0.013603499999999999 -0.0061906173918321473 0.02334577006760407 0.99970828308875115
0.110647 0.14066200000000001 -0.0021615800000000002 -0.35954312969530172 -0.26775223877378074 0.89388896207556789
0.149314 0.235237 0.0261797 -0.22605956935246999 -0.073426955864119861 0.97134214016313747
0.242148 0.37394500000000003 0.0139589 -0.073239128566406853 0.13542795428779023 0.98807656547671319
0.236791 0.37384499999999998 0.0133618 -0.043386067666940399 0.22342791468616857 0.97375439206783054
0.233482 0.37413000000000002 0.013907900000000001 -0.032962218428057334 0.19957676399667934 0.97932763027952752
0.353993 0.24756500000000001 0.028069299999999998 0.19834434511956361 0.035934918842623405 0.9794734311694554
0.146977 0.251195 0.0265747 0.24206194977719653 0.032964129071104513 -0.96970066446540359
0.14904800000000001 0.25077500000000003 0.027118799999999998 -0.24376666649927139 -0.034640717920317046 0.96921506022440551
0.14510200000000001 0.255048 0.0263964 0.23703343252436251 0.0086584984363772596 -0.97146290833492244
0.042975600000000003 0.204848 -0.0123505 0.2606948103994926 0.031490299486525708 -0.96490754835321979
0.14500199999999999 0.25900400000000001 0.026231500000000001 0.24542880205994916 -0.023316553155676625 -0.96913417103534072
0.32815299999999997 0.36612800000000001 0.010031 -0.14452787153825725 -0.29674752173166064 -0.94395582666496558
0.325021 0.36701800000000001 0.010289100000000001 0.12857378129965266 0.30175996945610883 0.94467439025103106
0.14685300000000001 0.25908199999999998 0.0266704 0.24505211512426608 -0.016010061729730581 -0.96937770698347192
0.26863900000000002 0.27098899999999998 0.035753199999999999 -0.12639264613109202 0.012096218472270655 -0.99190653818928498
0.158836 0.366815 0.0111136 -0.3130044753011178 0.30971650046807603 0.89783288410443074
0.1583 0.36475200000000002 0.011635400000000001 0.30947708809685298 -0.26779315230726042 -0.91242027570655893
0.24895200000000001 0.271092 0.036041499999999997 -0.036228864315399706 -0.028006295146084683 0.99895100821942562
0.152201 0.26178699999999999 0.0278429 -0.23107028540380853 0.025815634913374547 0.97259450759163824
0.33251199999999997 0.36305799999999999 0.0101466 0.17739491873399738 0.30622708936302645 0.93528392082169776
0.32905699999999999 0.362981 0.010922599999999999 -0.16650923676926099 -0.3140862782459099 -0.9346788132231042
0.147207 0.26315300000000003 0.0265513 0.24992887361858351 -0.021963997456073428 -0.96801505202527482
0.025578199999999999 0.20994699999999999 -0.011961400000000001 0.1829638971129513 0.053083594478193302 0.98168546100597631
0.149031 0.26295400000000002 0.026976400000000001 0.24991589653181381 -0.021128102303530412 -0.96803700753315791
0.34301999999999999 0.35819299999999998 0.0098866300000000004 0.18740497301713208 0.28692069236836176 0.93944445944361576
0.34080500000000002 0.35882500000000001 0.010123999999999999 0.1878366947968261 0.29751500192075153 0.9360567289004974
0.21884400000000001 0.27111800000000003 0.035769000000000002 -0.13444359816987625 -0.006472630366424155 -0.99090010796612416
0.33129799999999998 0.35997000000000001 0.0117777 -0.17674054133410386 -0.34223629588452531 -0.92284186014081926
0.151141 0.357159 0.011657300000000001 -0.23326558753054166 0.27610348687806024 0.93239156485234698
0.147123 0.35687600000000003 0.0106961 -0.25467543388160879 0.28005612922266332 0.92558575392128484
0.34504000000000001 0.35474 0.010206700000000001 0.20756615965776701 0.27891874694362373 0.93761432474569473
0.34309200000000001 0.355014 0.010693299999999999 0.21659596718463597 0.29454411295527483 0.93076847417751674
0.34089999999999998 0.35490300000000002 0.0113706 0.21145083058211286 0.2926954945489354 0.9325330523455394
0.26292100000000002 0.268899 0.036189699999999998 -0.059726591963056602 0.055666654064835598 -0.99666140581328055
0.15249099999999999 0.26698300000000003 0.027910000000000001 -0.22343397351479322 0.014595600153854603 0.97460978239269669
0.14691799999999999 0.35546499999999998 0.0111377 -0.25560782886735034 0.28657188235220898 0.92333157319937409
0.14144999999999999 0.352159 0.0104607 0.28378308473172242 -0.28681311766099399 -0.91498928756446563
0.35615999999999998 0.35034599999999999 0.0099171199999999998 0.20197631737003638 0.30957882831486999 0.929175180620334
0.35489300000000001 0.35047200000000001 0.010071 0.18433623662684689 0.30967739631278096 0.93280226311860359
0.35497299999999998 0.26695200000000002 0.026358099999999999 -0.24520379332486045 -0.073128522055681988 -0.96670953186624275
0.14400399999999999 0.26979799999999998 0.0256411 0.31600161659632381 -0.034069106751936411 -0.94814675777204172
0.13563 0.348825 0.0096662799999999993 -0.31685374750636425 0.26858487837311479 0.90965150788665905
0.15262700000000001 0.26896199999999998 0.027918100000000001 -0.21496463971083124 0.030488641036231095 0.97614581208022233
0.354989 0.34701900000000002 0.011266399999999999 0.18588549473800117 0.3318352876487608 0.92484156736009271
0.13702700000000001 0.34706300000000001 0.010784200000000001 0.31330081159695067 -0.2515672030500376 -0.91572733048777855
0.135236 0.34690300000000002 0.0101195 0.32093363057296448 -0.24352117739195098 -0.91525900210207956
0.043344100000000003 0.209069 -0.012386299999999999 0.34511741953510117 0.0078318760624624256 -0.9385268394940951
0.15285499999999999 0.27301700000000001 0.027719299999999999 0.20959764220501045 -0.072996129117020997 -0.97505917436637235
0.35277599999999998 0.27281499999999997 0.026588799999999999 -0.23551982380809552 -0.086446344497679101 -0.96801727366632884
0.134717 0.34322999999999998 0.010842900000000001 -0.31080561793926037 0.20799652449435974 0.92743588115603015
0.363039 0.34084300000000001 0.011265900000000001 0.25791596622693264 0.30405252079984202 0.91707765154347187
0.13287399999999999 0.34087600000000001 0.010618499999999999 0.30327805538484731 -0.21507539302897732 -0.92831298409287433
0.156857 0.28100399999999998 0.0275953 -0.20729629434528585 0.17219579660482548 0.96300407786381781
0.16104499999999999 0.28381899999999999 0.027971699999999999 -0.21015662282788333 0.12082355499710321 0.97017310952192493
0.155307 0.284773 0.0264941 -0.24106161339482648 0.13859494291495927 0.96056272067256632
0.12728200000000001 0.336511 0.0099201700000000007 -0.32586823891025013 0.20720869315920648 0.92242856002445306
0.16087499999999999 0.28520499999999999 0.027720999999999999 -0.21628105370328685 0.10254214347618011 0.97093131302904567
0.37088900000000002 0.33298 0.011090900000000001 0.2941403162664285 0.22522503556036019 0.92884614318170056
0.12828700000000001 0.33312000000000003 0.011126199999999999 0.32043796719198014 -0.19352874304237164 -0.92728967146103347
0.372894 0.33113900000000002 0.0107657 -0.30588069640213894 -0.2303456733213789 -0.92378453675663075
0.268565 0.267177 0.035470700000000001 -0.11316835624911968 0.034310340841647712 -0.99298324439801211
0.37129200000000001 0.33118300000000001 0.0113674 -0.30877289524521845 -0.23218199767405678 -0.92236154468731479
0.16304199999999999 0.28495500000000001 0.028257000000000001 -0.20620264508700567 0.099479017650914409 0.97343946612325682
0.374865 0.32909899999999997 0.010644499999999999 0.29284116696810752 0.22703272472192076 0.92881655499570948
0.12534300000000001 0.32861200000000002 0.0107565 0.3066963967315367 -0.18878398653498399 -0.93289759709190545
0.34178900000000001 0.28544000000000003 0.0277868 -0.21852845160309997 -0.16665446185589683 -0.96149446497807411
0.33960000000000001 0.28734500000000002 0.0278493 -0.18903688014191661 -0.18321189132931259 -0.96472714319736352
0.15543199999999999 0.28894500000000001 0.026105799999999998 0.25979885548856774 -0.060830064042542688 -0.9637449133434689
0.23086100000000001 0.424981 -0.0023690999999999999 0.20395270644290914 -0.37208274460054563 0.90551517088624067
0.160859 0.28899799999999998 0.027603300000000001 -0.22768583654124955 0.040614970233165536 0.97288724117004954
0.12482 0.32294600000000001 0.0116702 0.27623270410666984 -0.14894420248433407 -0.94947939299819584
0.34114699999999998 0.28887299999999999 0.027186100000000001 -0.19629174828958593 -0.17700181078370686 -0.9644376125663634
0.124847 0.32117699999999999 0.0118596 0.27168473204269361 -0.12552324164162335 -0.95416524888651677
0.155638 0.29300900000000002 0.0261751 0.26104499367266221 -0.059887336422649227 -0.96346718585255431
0.071251300000000004 0.25303399999999998 -0.00184469 0.44929805567686287 0.034278790232252547 -0.8927240456631621
0.120782 0.315025 0.0114953 -0.27703164507811101 0.18097003820892088 0.9436648308038067
0.33899899999999999 0.29486899999999999 0.026399499999999999 -0.16136846726350618 -0.15189448269541497 -0.97513500803720454
0.26107799999999998 0.267154 0.035964400000000001 0.033623015792080449 -0.067517186397966125 0.99715140392517487
0.32389200000000001 0.297601 0.028058400000000001 -0.15663817400953431 -0.16791191730082852 -0.97327800266486986
0.339034 0.29689500000000002 0.0261359 -0.16100988337374475 -0.13126152471974428 -0.97818517141910355
0.32156699999999999 0.30127100000000001 0.0279955 0.14983107001650992 0.13755312500111047 0.97909641418000104
0.25695699999999999 0.266878 0.035993200000000003 -0.0021834529739589298 -0.063598086276896892 0.99797320402655465
0.394395 0.30099399999999998 0.0102247 -0.38976657807777149 -0.19032362463823771 -0.90103214843761692
0.39616699999999999 0.29664699999999999 0.0103748 -0.40037287219854878 -0.16407207564211809 -0.9015441848306559
0.16328999999999999 0.30489899999999998 0.026384899999999999 -0.23667479037710967 0.1975418769117088 0.95129503860061759
0.25314700000000001 0.26712399999999997 0.036074099999999998 -0.019416452144853557 -0.046361227310169201 0.9987360201716976
0.164966 0.30493599999999998 0.026784800000000001 -0.22987544424677395 0.20040351662675807 0.95236322411986141
0.24912699999999999 0.26685700000000001 0.035904800000000001 -0.028077680875100597 -0.024077812416633482 0.99931571727152657
0.32154700000000003 0.30521700000000002 0.0277045 0.1354795517513987 0.12486257666979829 0.98288078015831548
0.112997 0.29488500000000001 0.0115163 0.37929805978157005 -0.13389722245231661 -0.91553509799760902
0.32889200000000002 0.305203 0.026500300000000001 0.14052249315510784 0.1298679324275461 0.98152317804750155
0.24105499999999999 0.26704800000000001 0.035739 0.0035190701850137682 -0.0082554053037696296 0.99995973140337169
0.39693400000000001 0.29077799999999998 0.0110002 -0.37727940107724156 -0.1564364445817204 -0.91279126438054181
0.23699999999999999 0.26714199999999999 0.035960100000000002 -0.027961735324923978 -0.0062043732939478183 0.99958973939794316
0.10907799999999999 0.290962 0.010878799999999999 -0.34392693864305757 0.18671057401695987 0.92024639223735716
0.10563599999999999 0.29009099999999999 0.0098082699999999991 -0.33975490623539978 0.1890440265367391 0.92131914107965418
0.107116 0.28689500000000001 0.011174 -0.35172691838224612 0.16367172174669231 0.9216831030163255
0.314971 0.30770900000000001 0.027862600000000001 0.099654503265829822 0.15860260712035801 0.98230045963211554
0.32712000000000002 0.30714900000000001 0.0265285 0.1553195168244873 0.13181921289329332 0.9790298988312871
0.17085700000000001 0.31304100000000001 0.026249700000000001 -0.21838813111155242 0.18533174365570446 0.95810164856508817
0.17887 0.31501699999999999 0.027722900000000002 -0.22186385354772015 0.15179462665615956 0.96318991990534941
0.40527999999999997 0.27105099999999999 0.0104568 -0.38126037302662419 -0.1021111660880696 -0.91881110012871192
0.100991 0.27089400000000002 0.0106146 0.36153066883418949 -0.090843268922495696 -0.9279240680054478
0.076462299999999997 0.24895800000000001 0.000101306 0.42828056670655001 0.041030262432535845 -0.90271383823791773
0.075066599999999997 0.24911700000000001 -0.00062466799999999999 0.42988473319154258 0.055171292796590929 -0.90119656269872062
0.30111100000000002 0.31543500000000002 0.028083899999999998 -0.058226849007625217 -0.18688060083516972 -0.98065553334804023
0.304975 0.31548100000000001 0.027990899999999999 -0.077862541902059476 -0.16941448667896902 -0.9824643282439578
0.17496 0.31716100000000003 0.026509000000000001 0.22374121848292611 -0.13288060826945897 -0.96554782952358931
0.40529100000000001 0.262795 0.011525199999999999 -0.39036793556279736 -0.062229860192359363 -0.91855338406914544
0.408557 0.260764 0.0101771 0.36877891534653978 0.054808465105773696 0.92789985653009932
0.29796800000000001 0.31798199999999999 0.027868400000000002 -0.067587428693037951 -0.20553767325925429 -0.97631255464315103
0.40864899999999998 0.257025 0.0104037 -0.35143584464047473 -0.045627751490578752 -0.93509943610064794
0.40539700000000001 0.25535200000000002 0.0116157 -0.35053789672577434 -0.035859996708690195 -0.93586176521702324
0.176843 0.31917899999999999 0.026688699999999999 0.21909586565541755 -0.12846267267317638 -0.96720956539023528
0.17873600000000001 0.31903100000000001 0.0270893 -0.21408230457846483 0.12659517551389757 0.96857752833884103
0.182369 0.319608 0.0279294 -0.18661381935896382 0.14161564250536959 0.97217297443513173
0.22283900000000001 0.31984299999999999 0.030394600000000001 0.17943173220249312 0.18091593660488681 0.96699207719670044
0.076525499999999996 0.24682799999999999 -3.7549599999999997e-05 0.44059773993323958 0.052836894709620184 -0.89614836613317883
0.23674999999999999 0.31993899999999997 0.030738000000000001 -0.086694441310967318 0.19711855038923151 0.9765389653967872
0.40549600000000002 0.24884000000000001 0.0119081 -0.35819062152868497 -0.070365850387808321 -0.93099308576814643
0.101151 0.24504000000000001 0.010919999999999999 0.34781519999547433 0.026937238768580497 -0.93717606233814621
0.412547 0.240535 0.0098918600000000006 0.40939865324061242 0.054838183777617462 0.9107060537433278
0.40908499999999998 0.239149 0.011540999999999999 -0.38048616692706277 -0.021241373809770023 -0.92454263331434572
0.102932 0.23907600000000001 0.011347599999999999 0.34834917768518903 0.048913593480708929 -0.93608776873691513
0.076739199999999994 0.24510299999999999 -6.9330299999999996e-05 0.44037765941304441 0.056209586670759641 -0.89605133751152399
0.41242099999999998 0.23708899999999999 0.0100526 0.40323397397025784 0.0050856817415091838 0.91508278208989235
0.26853399999999999 0.264849 0.035393800000000003 0.10459407785660492 -0.038993755554437376 0.99375025328554645
0.40915800000000002 0.23686399999999999 0.011493 -0.37917526829287501 0.0056632522608233288 -0.92530753995028947
0.26487300000000003 0.264984 0.035777000000000003 0.07524803842413659 -0.054411406158438314 0.99567923127540503
0.102975 0.23708599999999999 0.0112914 0.35781416988087661 0.054282968532416841 -0.93221369822577027
0.10299800000000001 0.23288600000000001 0.0109085 0.37676553366857196 0.066480679925707498 -0.92391993800115169
0.25907400000000003 0.26493699999999998 0.035838599999999998 0.024167777625253524 -0.066079925754655183 0.99752160975936532
0.25705899999999998 0.26500800000000002 0.0358997 0.004473166577383802 -0.05787860702315549 0.99831360685399351
0.101645 0.23300799999999999 0.0103631 0.37983883100682908 0.07145078428213554 -0.92228913464533091
0.17906900000000001 0.32296799999999998 0.0268475 0.22391309119784977 -0.15089628312449108 -0.96285681143638224
0.251079 0.26484400000000002 0.036006099999999999 -0.015300138340446945 -0.029970240063820125 0.99943368488223394
0.24914 0.26495000000000002 0.035900099999999997 -0.015046036326719952 -0.018385402233246792 0.99971775705724886
0.102809 0.23100699999999999 0.0106754 0.37973994885952533 0.047477739060534971 -0.92387414485624875
0.24493899999999999 0.264905 0.035708400000000001 -0.0031157325159751775 0.0047861698446057454 0.99998369226158257
0.182584 0.32332499999999997 0.027637499999999999 -0.18195327152679353 0.14203150350221805 0.97299540543293239
0.101496 0.228884 0.010100100000000001 -0.3799307842420106 -0.02636132429008518 0.92463921600098897
0.24249499999999999 0.32375999999999999 0.030292400000000001 0.061470723943400696 -0.20408362962110171 -0.97702160785652614
0.105189 0.22691900000000001 0.0114968 0.36338571451374463 0.021054963882960367 -0.93140083260818629
0.103142 0.22708500000000001 0.0107346 0.37050278552607685 0.018485512101412378 -0.92864738828026994
0.10116 0.22683300000000001 0.0099603699999999996 0.37867965567255724 0.011369732545879222 -0.92545796639369227
0.24471100000000001 0.32361800000000002 0.0305326 -0.036171747923445269 0.20599712924812308 0.9778838312364585
0.40884399999999999 0.225018 0.0113207 -0.32920987444175348 -0.0053345040889159314 -0.94424170721069622
0.40895100000000001 0.223049 0.011299500000000001 -0.3308353889716652 0.019328955000719468 -0.94349050705481252
0.10513400000000001 0.22303600000000001 0.011469399999999999 0.3539722998269017 0.011706899150956044 -0.93518263428462078
0.103031 0.22303700000000001 0.010692399999999999 0.3690577117615928 0.0099192862359011175 -0.92935354583165364
0.10191500000000001 0.222631 0.0102506 -0.37150353030813144 -0.0080498109134088634 0.92839664341963979
0.10482900000000001 0.21909699999999999 0.011350799999999999 0.35263827097800926 0.03799849227172112 -0.93498789533700177
0.101772 0.21891099999999999 0.010208800000000001 -0.37092082773476642 -0.03528534347488127 0.92799390304485063
0.26299099999999997 0.42870999999999998 -0.0017781699999999999 0.097521053309335137 -0.072170865886745067 0.99261322290134524
0.265181 0.42861100000000002 -0.0023419199999999999 0.050842056501474706 -0.20185199056823638 0.97809552662014665
0.105104 0.21701300000000001 0.0114095 -0.34946494043923426 -0.059149790679876794 0.93508050865491221
0.40690900000000002 0.21498700000000001 0.011484299999999999 -0.33053881891606768 0.082853646671174619 -0.94014858529003775
0.288964 0.32294299999999998 0.0274807 -0.062349225401261019 -0.24086368125216839 -0.96855421177418688
0.29285299999999997 0.323239 0.027052 0.081800483805858484 0.25437884760362806 0.96363897946325194
0.191325 0.32597100000000001 0.028188100000000001 -0.1086317196372901 0.15961667900157722 0.98118380809772465
0.27707700000000002 0.42915500000000001 -0.0022638900000000002 -0.010099189874116758 0.18055341481876816 -0.98351333024070831
0.10693900000000001 0.20700399999999999 0.0109637 -0.34744343355255208 -0.12011408462842693 0.92997616483170609
0.105891 0.204183 0.010204299999999999 0.36195934456448714 0.1399291276474732 -0.92163185281231685
0.108944 0.20302400000000001 0.0112885 0.3691800702625545 0.14358379669701712 -0.91819919900150493
0.24088599999999999 0.26506099999999999 0.035848600000000001 0.0013794610545675608 -0.005567131321395807 0.99998355193275512
0.40501999999999999 0.199125 0.0109292 -0.39519426276375602 0.09039486171398553 -0.9141390833206513
0.237091 0.26504800000000001 0.036045500000000001 -0.026042961144884486 -0.010476125530410392 0.99960592983869268
0.109218 0.19916600000000001 0.0105532 0.3713004925110831 0.16582165353824407 -0.91358585993811758
0.23309099999999999 0.265013 0.0357354 -0.062084171507161202 -0.009151303817542986 0.99802896214824732
0.112535 0.196683 0.0115453 0.39253455474001137 0.16649357041343796 -0.90454215730724596
0.22076999999999999 0.43071599999999999 4.5735400000000003e-05 -0.052486972417250463 0.36274549844158227 -0.930408953679423
0.11094 0.19689000000000001 0.010786799999999999 -0.37113198515959672 -0.1666691129129648 0.91350011296786504
0.187163 0.32897900000000002 0.0275981 0.14309020513189857 -0.20029455946847391 -0.96923025264518081
0.194435 0.329897 0.027818300000000001 0.10770089962927873 -0.18120003055249867 -0.97753110699701906
0.116757 0.189168 0.011996700000000001 0.31702426639637793 0.15091086401750456 -0.93633408868700752
0.114995 0.188968 0.011302400000000001 -0.34804100059712406 -0.13200677050731072 0.92813882282963633
0.196959 0.33138800000000002 0.027760799999999999 0.12717882452112197 -0.19892264228252302 -0.97172801183292268
0.20135500000000001 0.33202500000000001 0.0283191 0.14553956297655082 -0.22637829938193746 -0.96310492739760001
0.117009 0.18509500000000001 0.011410200000000001 0.31998032441579755 0.15969320384327304 -0.93386865919840789
0.115102 0.18527399999999999 0.0108193 0.32694678928443771 0.15684745061125147 -0.93193598182136361
0.113436 0.185089 0.010165199999999999 -0.3491298952650535 -0.14151901695719041 0.92632644573696754
0.120715 0.180975 0.011752800000000001 0.31790784634405816 0.1588389073610865 -0.93472177825341118
0.204703 0.33565200000000001 0.027779499999999999 -0.13395750999903086 0.27354363179682839 0.95248583559980593
0.19329199999999999 0.33691700000000002 0.0262591 -0.11769374231873991 0.2467453265497975 0.96190692213168116
0.397314 0.177062 0.011040100000000001 -0.3367775954334028 0.077154940147009923 -0.93841779950350834
0.39676299999999998 0.172931 0.011172 0.32756618936334098 -0.045887850411575781 0.94371324922912092
0.200849 0.34057100000000001 0.026115300000000001 -0.1050727395759703 0.26419005911187199 0.95873006214703926
0.20541499999999999 0.34066999999999997 0.026409599999999998 -0.11139116635387092 0.25401196593398317 0.9607652831054404
0.207037 0.34091700000000003 0.0265355 -0.12334935299583681 0.2516901255008786 0.95991510970546789
0.39699899999999999 0.169132 0.0108614 -0.3208869841759131 0.10951962197648223 -0.94076404894565124
0.121126 0.16934399999999999 0.0099242400000000008 -0.34566799327127445 -0.18944323406438882 0.91903476511774851
0.209008 0.34315800000000002 0.0262854 -0.11466326249356405 0.24243162136213386 0.96336869639720946
0.13114500000000001 0.160859 0.011125599999999999 0.26182204622758148 0.20632334088749912 -0.94280427190070748
0.181005 0.074784100000000006 -0.0066418299999999996 0.29161025128729706 0.34584541480384351 -0.89182644634666275
0.177011 0.074922000000000002 -0.0077639500000000004 -0.23545842632190694 -0.36867891331834513 0.89924145164044555
0.13306999999999999 0.15909300000000001 0.0112763 -0.27014293884402329 -0.2059670198915787 0.94053196612858225
0.38494099999999998 0.153003 0.011077200000000001 -0.26324333512371784 0.18723208637879654 -0.94638633355685398
0.13708100000000001 0.152922 0.0110726 0.29272827847374805 0.24023705881618812 -0.92552488381088005
0.38825599999999999 0.15101700000000001 0.0098044399999999993 0.28288626157525854 -0.24150782382942099 0.92825068491283769
0.13900299999999999 0.15090100000000001 0.011175900000000001 -0.29052865903441771 -0.25465783873797371 0.92235702602027558
0.14097299999999999 0.148926 0.0112348 -0.28060184720084652 -0.26558285674350729 0.92234936415190893
0.38314900000000002 0.14754 0.0103213 -0.29951497920546621 0.24587647306706228 -0.9218652489510879
0.38113000000000002 0.14697199999999999 0.0108445 -0.30424907864732209 0.23018833250032958 -0.92436239090682037
0.37883299999999998 0.146978 0.0115826 -0.29936610189809892 0.21033037628673842 -0.93066700266282987
0.13952200000000001 0.14694499999999999 0.0101765 0.28732884399296776 0.26982639430048599 -0.91904072398804137
0.22527800000000001 0.43289299999999997 -0.00044419400000000002 0.068595960545398751 -0.45372151509135089 0.88849951093968738
0.144951 0.14488400000000001 0.011231 0.24211857677875848 0.28520117542130158 -0.92738281433124292
0.37690000000000001 0.14318 0.011399100000000001 -0.31735938099568545 0.21998153144252319 -0.92243761258864421
0.23119400000000001 0.432952 -0.00021620100000000001 0.071982669938160215 -0.46879936518248544 0.88036677040485389
0.154803 0.138937 0.0114854 -0.24289504836327058 -0.26740500914843079 0.93246799224581012
0.151169 0.13872300000000001 0.0106021 -0.21482422676398644 -0.27008849568657078 0.93856419923893375
0.158993 0.135075 0.011750200000000001 0.23832703805958971 0.28092048249545015 -0.92966870735992091
0.37092799999999998 0.13302900000000001 0.010896299999999999 0.27442095846077241 -0.24556991327755681 0.92972498904263312
0.36782999999999999 0.13256799999999999 0.0116176 -0.24508404370916204 0.24723245129395802 -0.93744862608376911
0.37085499999999999 0.13114600000000001 0.0104051 0.26879293249745517 -0.25397795691356262 0.92911008865549982
0.36726399999999998 0.131046 0.0113393 0.2474787189162711 -0.25419146831017719 0.93495506903908343
0.164939 0.129079 0.0112447 -0.22400859187092717 -0.3043868440683043 0.92583411037082797
0.16128500000000001 0.127999 0.010037000000000001 -0.2261260741104153 -0.32044052567944042 0.91988307306401451
0.26860099999999998 0.260884 0.0352962 -0.094988509145432123 0.022056028085675864 -0.99523399999970452
0.27502799999999999 0.0485989 -0.0064518700000000002 0.11935526220090403 0.36585486013779522 -0.92298675109586914
0.26486500000000002 0.26097700000000001 0.035710199999999997 -0.067403516470441099 0.027433812729493794 -0.99734856087856361
0.26713399999999998 0.14910399999999999 0.028112100000000001 0.12278139449167649 0.14933612904887872 -0.98113375730701269
0.25893500000000003 0.432531 -0.00117084 -0.025346243764167161 0.36244602223079719 -0.93166005006983099
0.26536900000000002 0.43194100000000002 -0.0011639899999999999 -0.097439882127301106 0.25704737791256788 -0.96147392834090462
0.17116999999999999 0.123076 0.0110241 -0.21336070182642958 -0.31584770269311685 0.92450929666478399
0.17713400000000001 0.12102499999999999 0.011395799999999999 -0.15981911710641222 -0.31862480893325063 0.93431048422865104
0.34886 0.116913 0.0115605 0.20292079632179374 -0.28045932878829238 0.93817147436689297
0.18915899999999999 0.11702799999999999 0.011606399999999999 -0.15613766045979571 -0.32569785619926661 0.93249232568066931
0.34315200000000001 0.11307 0.011595299999999999 -0.19439867190988647 0.28278598238937375 -0.93927697966241519
0.106797 0.14473900000000001 -0.0024610999999999999 0.34097763171510637 0.24607106363914752 -0.90729448709305849
0.23085700000000001 0.43443100000000001 3.3779199999999997e-05 0.038820284675552728 -0.56447939952582549 0.82453380343602156
0.233402 0.43464399999999997 0.000393178 0.0626209152000851 -0.55746521291004303 0.82783522356484929
0.235072 0.43481799999999998 0.00021058200000000001 0.10701587641512141 -0.58069238638733456 0.80705882969389919
0.193083 0.112844 0.010834999999999999 -0.18992516411535115 -0.3185377559949179 0.92868839232623068
0.18906700000000001 0.11290699999999999 0.0102851 -0.1453568582554976 -0.30715978597055466 0.94049149365670215
0.342889 0.111084 0.011027500000000001 -0.19586363463264561 0.28875474708053012 -0.93715427367480331
0.26095000000000002 0.261189 0.035777099999999999 0.026745302422934665 -0.032175516236647085 0.99912432907682247
0.265241 0.153141 0.028227100000000001 -0.083991009078679096 -0.15824919299195916 0.9838204629460291
0.257046 0.261013 0.035824599999999998 0.012149537645424872 -0.029903684635749581 0.99947894344013488
0.10109799999999999 0.14893000000000001 -0.0034502500000000002 0.34146772653230084 0.22187236964506601 -0.91333041300777051
0.25286799999999998 0.26111400000000001 0.035940199999999999 -0.0051932910023592916 0.023993603312432079 -0.99969862295026224
0.10292 0.14895700000000001 -0.00276699 0.35299569979581907 0.23798599107750695 -0.90485175801150819
0.24896099999999999 0.26116200000000001 0.035908599999999999 0.0027652286633461556 -0.01619116635933672 0.99986509072092511
0.098713400000000007 0.15324399999999999 -0.0033046899999999999 0.35993744089300972 0.22567784717316944 -0.90527042807035007
0.10262 0.152727 -0.0019445899999999999 -0.37945995755915601 -0.25914824686829446 0.88817359043955646
0.283161 0.43521399999999999 -0.00128433 -0.035420595127776164 -0.50947404726598366 0.85975669616654504
0.0958561 0.15551200000000001 -0.00389245 -0.35643769123617758 -0.20889742673934431 0.9106668091941772
0.097198000000000007 0.155089 -0.0034599600000000002 0.36365111671776257 0.22101248770161619 -0.90493720532966671
0.244946 0.26090000000000002 0.035864399999999998 0.0027728339279368087 -0.0061156013166559055 0.99997745515213676
0.225964 0.43570900000000001 0.00085101399999999998 0.095308199355562867 -0.77192353003055403 0.62853035799455914
0.095954499999999998 0.156806 -0.0035566199999999999 0.3721160360513967 0.22083952083419925 -0.90153178632320952
0.23733399999999999 0.43593300000000001 0.00024349699999999999 0.11388404272178673 -0.75414735344360828 0.64675512685045167
0.098708099999999993 0.15642500000000001 -0.0024548999999999999 0.38868732372759374 0.25103462266471716 -0.88651214464160843
0.24085799999999999 0.43597900000000001 -0.000185677 0.034237777055966409 -0.69262889537445771 0.7204810808859764
0.23500199999999999 0.15709999999999999 0.028631400000000001 0.034389773176890355 0.18208136915015419 -0.98268190097775132
0.093594999999999998 0.15992400000000001 -0.0038216999999999999 -0.37734039061998892 -0.23797808483430424 0.89497522912388516
0.24090800000000001 0.26107599999999997 0.036054799999999998 0.0014489586177564399 -0.0064355878245574358 0.99997824162742466
0.094891900000000001 0.15915699999999999 -0.0034488100000000001 0.38360476836960056 0.24104412820387661 -0.89148477830108686
0.237067 0.26091799999999998 0.036119900000000003 -0.028497425710720371 -0.010588358236099105 0.99953778487745315
0.24310799999999999 0.15709100000000001 0.028796100000000002 0.021865042191231459 0.18395594498082443 -0.98269126903427195
0.233261 0.261154 0.035772999999999999 -0.055348143073226747 0.003341005377026432 0.99846152692100076
0.25761400000000001 0.43650899999999998 -0.00024406300000000001 0.089924227025127992 -0.64774044495890115 0.75653549114260166
0.333117 0.105055 0.011052899999999999 0.16931985390834162 -0.31427288397586572 0.93411098990963048
0.33103300000000002 0.10487299999999999 0.0114237 0.16748574714540349 -0.32287296103702229 0.93150500564104977
0.262818 0.43660399999999999 -0.00047737000000000002 0.018267143344668675 -0.70952651975865588 0.70444192750942569
0.093361399999999997 0.161302 -0.0035360399999999998 0.38570719486570409 0.2542773707147904 -0.88688949625711699
0.267042 0.436861 -0.00061426600000000003 0.04314562525664329 -0.72441073048350779 0.68801711358189588
0.26919500000000002 0.43692999999999999 -0.000723454 0.011362482306054082 -0.74344033295243661 0.66870573897299201
0.091180399999999995 0.16301499999999999 -0.0039621700000000001 0.37752909003224555 0.24833977554551626 -0.89207574906026188
0.27282800000000001 0.43692199999999998 -0.00098961399999999999 0.00094274737083073425 -0.7683560213021412 0.64002198068202176
0.0930367 0.163023 -0.0031278600000000001 0.39274001347841542 0.26666858926109893 -0.88013813990445222
0.27713100000000002 0.43707200000000002 -0.0010114200000000001 -0.028454060911643753 -0.79579443540269623 0.60489799387974497
0.094775899999999996 0.16417499999999999 -0.00182869 -0.41838529601709518 -0.2822402316458808 0.86330423126332889
0.28121400000000002 0.436552 -5.6832700000000002e-05 -0.05763829560826271 -0.80318670180186913 0.59293249947022642
0.42896800000000002 0.16488700000000001 -0.0032634299999999999 -0.37449028279848989 0.16476285624594791 -0.9124747828248102
0.074979100000000007 0.24487100000000001 -0.00099550300000000001 0.4115392877223592 0.045031688091227443 -0.91027883735074688
0.087960099999999999 0.167824 -0.0039143299999999997 0.37722976709597028 0.22204598222000921 -0.89910693724198965
0.089480799999999999 0.16752600000000001 -0.0032825100000000002 0.39198361494088085 0.23576830599581963 -0.88924808209281003
0.090983400000000006 0.166855 -0.0027395499999999999 0.40132439641749817 0.24959311514643268 -0.88127294620431351
0.42880400000000002 0.16706799999999999 -0.0028209400000000001 0.37727176892525965 -0.14538562126665547 0.91461961136907299
0.328878 0.103085 0.011206600000000001 0.17174732501082249 -0.34415636478491096 0.92307055685340877
0.088702699999999995 0.170844 -0.0028298500000000001 0.40090216171274223 0.18994964991437241 -0.8962123561028702
0.42914200000000002 0.170958 -0.0027009099999999999 0.39396969103461277 -0.10059483440328774 0.91360197123116293
