0.20698829431825488 0.34111209675119708 0.027347685261238219 -0.063841458845567453 0.2263172632871164 0.97195924012825752
0.3972994167366079 0.16899298828990694 0.011664708815691467 -0.34344132367500962 0.15916212176801742 -0.925589258897628
0.12076055615360963 0.16910191353011436 0.011002368445978291 -0.30463720043047365 -0.21221873128752564 0.92852538263883588
0.20897884694191979 0.34329236468408292 0.026838131895358538 -0.058580711420247442 0.23081620018925258 0.97123230072917799
0.13066712343396772 0.16050868382732489 0.012601216448048838 0.30126655305019684 0.21441158793628823 -0.92912116269725131
0.18070630566947854 0.07426512657097846 -0.0053666104504731622 0.19632257172039186 0.36043306300894112 -0.91189114203565125
0.17664188192129002 0.074188484335920526 -0.0059187394078480783 -0.163274732454709 -0.35516344914642639 0.92043483535351756
0.13262997278319255 0.15873715003895683 0.012699760543313055 -0.28242079385373603 -0.23689267981979109 0.92958074068196106
0.3854719593789559 0.15265667420329038 0.012645773943879082 -0.31366392047936376 0.19837595330097565 -0.92858059754737732
0.13665044617102723 0.15256072903048634 0.012467553591527266 0.28752882208364472 0.23278419093515851 -0.92905258027834747
0.38873118406031859 0.15068555729145963 0.011309911018333415 0.2862169084714789 -0.20604263309199619 0.93574906607142605
0.13862206183640957 0.1505506088384396 0.012463448580912806 -0.27049417118815322 -0.25546894691303279 0.92820715388127661
0.14059661701616538 0.14856542551457119 0.012533880015389263 -0.26513135990725784 -0.26003703974042713 0.92848591801748059
0.38368720280779739 0.14716320775989761 0.011927638677610148 -0.30979089792605435 0.2106184688603587 -0.92718361727172849
0.38166842056892847 0.14658807474977401 0.012482139599895973 -0.30475540413397262 0.21127550923048247 -0.92870167591672803
0.37936791105875434 0.14658847331246264 0.013249917493578713 -0.29833101860926686 0.21133017766048054 -0.93077288279448012
0.13910946899259741 0.14657167888687767 0.011532597200986502 0.28288596883707467 0.24609500511088053 -0.92704518611262166
0.22528475754313096 0.43300109119548807 -0.0004241080105443831 0.029993856010615948 -0.63025515139595656 0.77580848973214678
0.14455931484099738 0.14450503754533425 0.012588848651265822 0.26921643347791185 0.25061533861741014 -0.92990024410961092
0.37738591730028803 0.14281022141200125 0.012933562938311879 -0.29428968271860456 0.21847647532885836 -0.93040937891514275
0.23118082423017589 0.43326315542143023 -0.00059115228074563785 0.027286557933268393 -0.63508832308391217 0.77195742475775098
0.15433562530707923 0.13836675842221374 0.013329564912828292 -0.23196111865541449 -0.28564102096392152 0.92984044146015576
0.15071888123091912 0.13819508153079232 0.012308111660491491 -0.240932155961014 -0.28578637485300445 0.92751164099021188
0.15859270236376954 0.13459832258005539 0.013326512135397362 0.23887169490423621 0.27113213291988486 -0.93243105904505963
0.37130063912439132 0.13265260792335318 0.012233882268670572 0.25149369999110166 -0.26400829393660075 0.9311554862628858
0.36822421899194629 0.13221772925167571 0.012948741789878716 -0.27613914340774487 0.23899407271622755 -0.93092910937651285
0.37122230398367256 0.13076786557878167 0.011727490938351784 0.25044713799351709 -0.2679215060619784 0.93031946000303445
0.36764230767529638 0.13064491462200187 0.012742701010938454 0.24338896746517077 -0.26850169078545 0.93202395492905254
0.16463009254028341 0.12863051069107173 0.012599634955872118 -0.21038343327389097 -0.30377155901959418 0.92922637227679639
0.16097467401198659 0.12755982137624441 0.011351236749996541 -0.21735266215788376 -0.30591530801331629 0.92691620148533316
0.26866454676829626 0.26092052418060735 0.036779410633678185 -0.041419272127090921 -0.031113034376475411 -0.99865731008607261
0.27501963301395282 0.04840645128429074 -0.0059883837375561012 0.046803900552662293 0.37462044460935878 -0.92599617567986903
0.26491282909151231 0.26101304355581906 0.036988131933338129 -0.036069908372266903 -0.03003393677456075 -0.99889785481391347
0.26708128783334534 0.14880886169916852 0.029624315383235938 0.027415015817296325 0.1991481716404413 -0.97958584240484348
0.25887623160867995 0.43255343646946087 -0.0024996675270462219 -0.039799327908833365 -0.15901749133695622 -0.98647323883970939
0.26530534919222859 0.43212561685475404 -0.0026939875870230258 -0.051822042707506719 -0.1433340134867635 -0.98831666811169261
0.17095411936616131 0.12273915658196399 0.012023719727425287 -0.19858036632937859 -0.31114656502984345 0.92938348015155681
0.17689281941401488 0.12062163723589459 0.012582054410160404 -0.18663855309716043 -0.31389951850230902 0.93093133086271029
0.34923657557213217 0.11638029240867261 0.01322636074161149 0.20326991730030156 -0.29983550588182178 0.93208369266569646
0.18881066660811374 0.1163588503060992 0.013557142516055536 -0.15853089928621816 -0.31813721959206614 0.93469602731675949
0.34355097415877428 0.11249876315444569 0.013404813425169155 -0.2070474638846623 0.28564307252482557 -0.9357026145189008
0.10636394596883067 0.14442109757550223 -0.0013391057128033497 0.33638246911375691 0.23839672452644964 -0.9110509514884404
0.23087649266586574 0.43430900963317953 0.00028546558940362366 0.027392200711464046 -0.63590473911690848 0.77128129116998512
0.23341022020455118 0.43465672130118388 0.00044018650104525419 0.026498367838824283 -0.63769997733073502 0.76982892607010966
0.2350908678215729 0.43472330878680382 0.00039890161422873884 0.02561741253162891 -0.63931800993397125 0.76851560189058676
0.19275888335830998 0.11217180649997958 0.01274479700274388 -0.14731698680201696 -0.32614425193213986 0.93377065296099304
0.18875111620206803 0.11228524609534317 0.012045127020053217 -0.15797850677375641 -0.32589108604777411 0.93211468791782082
0.34327978671714271 0.11051375815852614 0.012802570222199551 -0.2060509839160877 0.29012631425809488 -0.93454251578097036
0.26097429487996343 0.26123890668168481 0.036963239054417452 0.020054927752752885 0.048775004532498438 0.99860843117094023
0.26520139105389651 0.15273248956423785 0.030359548831630803 -0.013788516528614804 -0.20273869740194797 0.97913579108706961
0.2570647825559419 0.26105959927758254 0.037064549556951265 0.015511313379978093 0.047223462950240526 0.99876390789025582
0.10073634500590233 0.14868242772769719 -0.0025401902588264155 0.33847413218565936 0.22467919238553 -0.91375845952316681
0.25289114437835913 0.26114342437213761 0.037489894558644224 -0.01220938617739359 -0.025063776218272511 -0.99961129345903821
0.102529424318066 0.14868701935755615 -0.00177978439805038 0.33872806245450948 0.22636436008784466 -0.91324831025731135
0.24896817250401129 0.2612059943612754 0.03721521384697294 0.0083496033566554991 0.044970909313254072 0.99895340303706137
0.098367033657489458 0.15302018938783857 -0.0024551214432373789 0.33870954041472168 0.21271307601150313 -0.91653095666527951
0.10223050417148433 0.15246048427448514 -0.00093331956300818906 -0.31875653070151388 -0.22980023100998062 0.91955757185882292
0.28307543625339598 0.43453794170468574 -0.00030669361892476178 -0.044264529403015354 -0.70985146230615292 0.70295914027669204
0.095593615567705972 0.1553433463832824 -0.0032232919689374234 -0.31363726279488657 -0.21396605692096066 0.9251217184091115
0.096891446038213341 0.15489733625066152 -0.0027221008663215443 0.33651372974383226 0.20488981958231778 -0.91911842083891471
0.24494783486207597 0.26094581918590692 0.037291113432845691 0.0042899950866324326 0.043288642590133319 0.99905339665348236
0.22601642526438992 0.43514011947486775 0.0012642923802288633 0.029535906152549824 -0.63318795147838858 0.77343432064419648
0.095691747816080627 0.15664630557754206 -0.0029400949023646911 0.33389124731313574 0.19747058070683726 -0.9216951799391071
0.23739069929664303 0.43531115898544454 0.00073320416832350346 0.023653531384283496 -0.64271057900532969 0.76574383581435801
0.098388792559378685 0.15622656408141952 -0.0016867811936022107 0.33924783034281902 0.20539921476801709 -0.91799894998870879
0.24091303020861476 0.4353153921336228 0.00053010590956928275 0.020893391172150479 -0.64699031389273776 0.76221191274756672
0.23494306956198951 0.15689501688258417 0.02976917468717994 0.060082167999695221 0.17810435581811451 -0.98217563171108602
0.093357458693717824 0.15978043421759938 -0.0032381260766286492 -0.30974014164924019 -0.20276752916724131 0.92894906952239342
0.24090600468822845 0.26112281624707029 0.037376472072243941 -0.00073475637884519603 0.041904210725880381 0.99912136262643525
0.094636274703880502 0.15900749995499228 -0.0028627159836492381 0.33393769378933708 0.19110093531364492 -0.92302006976495865
0.23706065423031367 0.26096619861774756 0.03745580507936519 -0.0050758682484066979 0.040859377588157719 0.99915201387207997
0.24305164220188852 0.15686107140842204 0.030076253340552347 0.049930438243627605 0.17937066728516127 -0.98251367168832582
0.23324285096038289 0.26120340445115126 0.037530239356329542 -0.010108472518790412 0.040650923020937341 0.99912227542022236
0.25765115174814612 0.43601380589541505 0.00036946460995221678 -0.0021989731687240177 -0.68012098513049224 0.73309658988576121
0.33339666616037394 0.10451759304780175 0.012588140245986923 0.16542889873033886 -0.32622435348786971 0.93070454530763347
0.33129699661359702 0.10434425320116168 0.012934556884841394 0.15942751011773423 -0.32629704889550454 0.93172587433200782
0.26282437821236021 0.43589236202784803 0.00020610936525118767 -0.010560577543732026 -0.69017756688123055 0.72356298991576895
0.093148181502618346 0.16118194279569423 -0.0030613846389928165 0.33208986121922135 0.18352624343792578 -0.92522129355358096
0.26702999533002392 0.43590007682842713 0.00025193290044672056 -0.016873354791984537 -0.69664151797124307 0.71722094596908281
0.26916121972866019 0.43583369063782795 0.00022890447907789819 -0.020956575726582251 -0.69975091159380576 0.71407946592620475
0.091053410663042567 0.1629458528600172 -0.0037083328603953391 0.32678827760928603 0.17530613698097658 -0.92869649506927898
0.27276308651900583 0.43559814808710823 0.00011833932126096834 -0.027530298327959096 -0.70473915963785827 0.70893215440329604
0.092886635823913113 0.16294084671050707 -0.0028103527324792286 0.33225890768178029 0.17935482056131002 -0.92597832944811975
0.27701599327128623 0.43551978336254654 0.00025135887551495456 -0.034602826564902787 -0.70769294020772455 0.70567226583865772
0.094740494562299396 0.16415738832066404 -0.0017691201541257737 -0.31109175330003963 -0.19864151326739701 0.92938876162537376
0.281121982105212 0.43565917051417496 0.00067266185375243243 -0.041242045596855653 -0.70987611674088458 0.70311805022760498
0.4294298927436202 0.16469977921185344 -0.0021612449853032935 -0.37813291920692998 0.15178564988285537 -0.91322319938867325
0.075004192353592583 0.24487556704354108 -0.0011035027028708626 0.33434305281830512 0.031982757467434141 -0.94190860822954336
0.088017954548921307 0.16785302963888277 -0.0041122743689990682 0.32227859320440516 0.15932224695202898 -0.93314143086048118
0.089516363753898279 0.16754419746446272 -0.0034171096932702713 0.32766780973403375 0.16371160996466866 -0.93050110973973443
0.090998552543673242 0.16686306405040643 -0.0028161205843250186 0.33183971057947531 0.16884426762998211 -0.92810237569517351
0.4295051315394452 0.16680187497294149 -0.0010370789135549371 0.35257115988420512 -0.13499349586493115 0.92599694021744539
0.3291287021652492 0.10256217741758761 0.012681416523250106 0.15519221257806662 -0.32974918726738578 0.93122545640227361
0.088777835735431687 0.17088001707134146 -0.00305316569735779 0.3297526516877447 0.15641408567551771 -0.93101977557256688
0.42993740191150931 0.17067844990713243 -0.00071123443982050645 0.35595375254462075 -0.12591419058785133 0.92598193430434117
0.43325141824097352 0.17507265006020503 -0.0020441970568186346 -0.39036314690303425 0.12692103377346972 -0.91187042101706195
0.27306307365611193 0.15692816315811342 0.031172130612100064 0.0074096047335487107 0.17154168967627348 -0.98514899708658366
0.43932080767949583 0.24078927973638792 -0.0002343037650055969 -0.42561167146070505 -0.011148960099584767 -0.90483722613800699
0.27730707280778089 0.15667362490799541 0.031237767190557816 -0.0023464889332186724 0.17025211050936784 -0.985397743480668
0.33126835631918894 0.10101663373973473 0.011709838264532689 0.16057171192508946 -0.33362887811249642 0.92892868241800086
0.074811469889092944 0.24104797821170179 -0.0012602145636547853 0.33810385070015397 0.038317223402208896 -0.94032844077613287
0.32954481637352229 0.10091748615817314 0.011990466759185307 0.15662372331794228 -0.33381525615102486 0.92953557438908718
0.22880746876750604 0.15893295161593288 0.030176405736808097 -0.06494342960449874 -0.20544261903074354 0.97651199748748307
0.23298487222879052 0.15900785763801345 0.030060499599545234 0.061470113371807474 0.1734936864747296 -0.98291472972759208
0.236920440261469 0.15880677125662851 0.030493231810386039 -0.051692279806901782 -0.19984717669887228 0.97846257678761261
0.085138864850913681 0.18294914650013355 -0.0024107642800801649 0.33724072221692208 0.13196123039179516 -0.93212388068973551
0.08113408078659208 0.18703100527193389 -0.0036057867694621174 0.33093545811877095 0.12034078072748085 -0.93594861987911482
0.08414108552729041 0.18684421995618505 -0.0022043014975243859 0.33935550535700082 0.12529684332293561 -0.9322760009982034
0.23316264234658673 0.047994305085938792 -0.0088893830780104269 0.096968452433469049 0.37187092467505067 -0.92320590044365558
0.31529457697704261 0.097729683627420266 0.013142881358596236 0.11744244378989796 -0.33770398392050099 0.93389683136890378
0.27521688763544555 0.06390039308297063 0.00070626733080789519 0.039760556907779292 0.37149325107620423 -0.92758388435721306
0.31072966527427875 0.097463414429158762 0.013644680166425357 0.10634032441963934 -0.33800163484865309 0.93511851133530866
0.079655383659553519 0.1910501088872863 -0.0036270442018861218 0.33226561251963532 0.11319001919471601 -0.93636936210645605
0.26692887997372189 0.15893053795618323 0.031348040370295503 -0.011521665959496184 -0.18469858816574988 0.98272767476198442
0.270898641555959 0.15883474610117879 0.031400944582903871 0.0102270867774743 0.1677796234237027 -0.98577147689504918
0.31094196091399751 0.15896360146411018 0.029946637544149907 -0.11126560597985763 0.1645813047922281 -0.98006783389662511
0.43969098760761377 0.19512825176224208 -0.002511928011215876 -0.41695946698819092 0.076573849419178094 -0.90569379399113292
0.31725614905434296 0.096424358879066335 0.012375403642563051 0.12255231195596246 -0.34072224169704785 0.93214230933221076
0.31311040738185919 0.096699178277942763 0.01305894754882196 0.11177374160948421 -0.3394445856154098 0.93396145743975911
0.23888886715944321 0.16062962421445759 0.030865299810796741 -0.047404790055057204 -0.19284159013609514 0.98008413260985827
0.2427650780696029 0.16038629439892682 0.030692733049140837 0.04869855627499995 0.17135444582126017 -0.98400513439413484
0.29699421301965578 0.093938569664238886 0.013599311360382773 0.065270258187134528 -0.34497671673264996 0.93633907229621993
0.075672211796091585 0.20124621101743567 -0.0054211365049797386 -0.23770954227090571 -0.10247099210638336 0.96591607776767541
0.27923097320814899 0.16043463783174838 0.031769702403891903 -0.0095436536738432443 0.15981209051302425 -0.98710131921723754
0.21286150585887284 0.16297260642119787 0.029711799548786569 0.09960524794109743 0.17775820239044718 -0.97902033485801987
0.228934252697719 0.16273289360808138 0.030503093930216503 0.064699443381869212 0.16606556520901802 -0.98398994409388429
0.075234960640530951 0.20484337578403922 -0.0038012329187762702 0.33597035903709355 0.088368498847451335 -0.93771793534086489
0.23922071052465213 0.16274867266272733 0.03122536862246313 -0.045952368479383318 -0.18784157391760259 0.98112380612198624
0.2449753649427952 0.16264604972261409 0.031327840098671414 -0.037478393985994084 -0.18314080218885082 0.98237203571653797
0.2470835535177611 0.16269861123997975 0.031386999477986753 -0.034960486400501846 -0.18175833399794039 0.98272156403171163
0.29111408814993756 0.090500343521297252 0.012467794141072628 0.045062525534280889 -0.35216010424761562 0.93485433612343083
0.28693270925485098 0.090476008539448302 0.012491338882984808 0.032296578800614734 -0.35291102881142217 0.93509931918542177
0.28317923353232693 0.090491039849194488 0.012388922219968054 0.019104119066301183 -0.35487553874698491 0.93471834508248408
0.2729293023426127 0.09084250442410105 0.011999949243429502 0.050945627408145927 0.34417005833640957 -0.9375241404853013
0.021814516926386165 0.2156467264346506 -0.015656140004790015 0.14472555465702311 0.055682952377821435 -0.98790380232272923
0.27208209043632303 0.0902922727622677 0.011556441393330447 -0.01404941435030709 -0.35947873201016489 0.9330475096096541
0.25116670520700429 0.16261190173740897 0.03146128387013946 -0.02910949973016784 -0.17945495517096632 0.98333542399836571
0.25900362731524745 0.16273739764395617 0.031625680888510213 -0.020489877238532527 -0.17531598304688098 0.98429897440719483
0.28709049685928933 0.088659016207914873 0.011720914848640246 0.030881855134704116 -0.35628988863335037 0.93386499360511099
0.28293581127179374 0.088902331488427092 0.011696695034246186 0.017000196552754844 -0.35771360604033353 0.93367658713860269
0.23287879043488399 0.1649294287904661 0.031015584268641642 0.058752445226302658 0.16123314897929927 -0.9851659869535434
0.23483749837849249 0.16481167358133336 0.031074772202763678 0.05648373745034066 0.16041280413910375 -0.98543255460324153
0.44006702589932289 0.21671560821337976 -0.0011699697579847944 -0.4284911792060983 0.040104971093334593 -0.90265547172560257
0.28509878982259673 0.086706126949364568 0.010843371886971544 0.023370983279583642 -0.36045362059658753 0.93248430793196557
0.28100166025672718 0.086882401774552781 0.011036340817234766 0.024317691653494688 0.35276918231553034 -0.93539433068683797
0.28848591527669409 0.064844662782007109 0.001951306593594616 0.0014087469254900585 0.37254291816791368 -0.92801389513036658
0.29321030479811871 0.065338016867161286 0.0014561093194513559 0.039885144847862097 -0.38182545955831382 0.92337343131235239
0.29523390444150993 0.064703281667266244 0.0011528099671647169 0.04554773794662928 -0.38210571520321446 0.92299546368169394
0.2969323686375272 0.064725905528322317 0.0011319853659119191 0.051304218745622091 -0.38209073513101688 0.9226995975212845
0.29877677579161915 0.065145078483798427 0.0020038635274770011 -0.039208862387826331 0.37314858624488711 -0.92694271543267148
0.25516608677482333 0.16447788696704077 0.031783752702835587 -0.023892838925493171 -0.17276978395673442 0.98467239932864159
0.26126154293419884 0.25723888301330566 0.036957565396972904 0.020996432557928706 0.041572920475790087 0.99891483225696176
0.22086067232562459 0.16667280762616013 0.031034628136726687 -0.072913958630017969 -0.18554865035170848 0.97992614670165812
0.22487001572732207 0.16642103777485678 0.03123371934176649 -0.066442840952262272 -0.18550992964231422 0.98039350002450343
0.2291027726878225 0.16664604655018653 0.031148068113021923 0.063972975647185612 0.15970184243922794 -0.98509023947471974
0.2568983343135044 0.25720892570170789 0.037095783742945608 0.016127760210966607 0.040079518766313459 0.99906632789121574
0.23494886486663855 0.16674756247662986 0.031360983528043049 0.055397765534248695 0.15719299115377888 -0.9860129061558679
0.25289375059866032 0.25700297424070084 0.037204846822713161 0.012199462612681705 0.039069526745469763 0.99916202149193334
0.25742354467786582 0.16610100268436834 0.032146409224331179 0.022579706238554591 0.15447152214100032 -0.987739189115033
0.2489589841494263 0.25719518136040603 0.037593088734995013 0.0036186773336832371 -0.011223191886314245 -0.99993047015191894
0.25928911405180555 0.16655969423978173 0.032070768935217576 -0.018674047813893653 -0.1650891117374334 0.98610185332144551
0.26324837438877446 0.16662479536573693 0.03214389382317874 -0.014688848053038566 -0.16335785258201518 0.98645752556441446
0.24506095336767442 0.25704660818103836 0.037353874227053746 0.0044305226715351687 0.036397665398249957 0.99932756412620494
0.23307037202086894 0.1685130696996377 0.031861720247951031 -0.051925623044806579 -0.1737351896797957 0.98342250001631248
0.43591697693036824 0.22330639858996953 0.0011402562351072296 -0.42465753716783544 0.027638586628910736 -0.90493208842194606
0.24106775114626172 0.25725615055138445 0.037419494184480491 0.00033080830022017119 0.034775488055309348 0.99939509504318846
0.23488726166755833 0.16873847033612091 0.031948700108111856 -0.048722589460110453 -0.17234538075426772 0.98383086910757578
0.23688708259840011 0.25719582617209613 0.037519396503934987 0.025414398532318354 -0.0068744117099364156 -0.99965336532764337
0.24516848245898473 0.40579590700161883 0.0052221568095323669 -0.015797527712363289 -0.27866336296998651 -0.96025890688732196
0.19685634554740938 0.17140030957717417 0.029662255980479849 0.13483559895057715 0.1715316015465729 -0.97590792133607918
0.23304385153765744 0.25708644035974781 0.037508576413977777 0.03128648369543939 -0.0060203566347021061 -0.9994923267559217
0.23096530072912766 0.25700489251683895 0.037485833859648578 0.033214270571792506 -0.0058549419462273072 -0.99943110412133462
0.21663719415407745 0.17065354309407246 0.031227104996508798 0.086627478317057083 0.1607922791500126 -0.98317929339778731
0.30366685391849585 0.17070351644094334 0.03219567587437331 0.084567606076428214 -0.13988585553225935 0.98654967813309336
0.071286642282717957 0.22900428685272692 -0.0034746990317194564 0.33259379947377826 0.057777984594323761 -0.94129860780084773
0.071397094544938311 0.23112940737678167 -0.0032865796380034291 0.33256227996385684 0.054743240552731831 -0.94149110859265528
0.21043000865727571 0.40372959902741284 0.0068376720161954004 -0.050833471221835125 0.35586149093073288 0.93315516259413944
0.20881108619131528 0.17464505667785157 0.031403147448171881 -0.086456496212810569 -0.1665928962913584 0.98222812073767318
0.44317917644984706 0.23134358139271879 -0.0021576864747972751 -0.43210457872925695 0.011934621468168066 -0.90174453025877732
0.30111922112277911 0.066505070753770171 0.0024427383562660252 -0.051126218283603607 0.37262003117709613 -0.92657456373979818
0.21287656322686274 0.17400267340343342 0.031546742887583502 0.095646174378360177 0.15683753050087934 -0.98298209462490727
0.22704858029744177 0.25678397935857705 0.037463763388570138 0.038034046161474717 -0.0048762060411782346 -0.99926454652771046
0.44180178916145729 0.23273286845755151 -0.0014571525873120455 -0.43063474405129881 0.0089529722640017927 -0.90248188984794164
0.25443849343620689 0.40297447951116788 0.0066167735879019496 -0.021716759427680813 -0.2911187422833299 -0.95644041123915946
0.31087974640042804 0.17418102025611412 0.032062026390422209 -0.11327035493102142 0.13966113474927061 -0.98369944298771794
0.20298926231652664 0.25722933905487738 0.03735677607012871 0.09084627574151008 -0.0039933760395644523 -0.99585692101411039
0.31540093094221872 0.17471996980942911 0.031533034355698715 0.10915854749072308 -0.13189102485617687 0.98523559064423916
0.20769197713909293 0.40234393407410096 0.0076264976677260276 0.0074627116597213335 -0.24868425219021489 -0.96855585830001434
0.23660811261541861 0.40121095442162774 0.0067842534474172522 -0.014651462705050498 0.36415621000050341 0.93122263146826056
0.20589738592814605 0.17809632589177571 0.031699066831488355 -0.089513061988039794 -0.1596502167063274 0.98310692197702887
0.32004091467579188 0.17785126472952217 0.031380665859345909 0.11817689864451067 -0.12777368609722148 0.9847375821851696
0.20227537682227267 0.18160447927757142 0.03189619343657555 -0.092907178832695503 -0.15263712056338455 0.98390556739326795
0.32125139435607042 0.18320652938693024 0.032061313019322829 -0.14437578298788681 0.12462321098661112 -0.98164387054064628
0.32356300879778316 0.18613186685156119 0.031812127156649009 0.12470299075081054 -0.11615745785384547 0.98537130518537808
0.32747482876165473 0.19079290567160115 0.032119639263086287 -0.16476292803999837 0.1096775808892807 -0.98021630561522577
0.32969533232244569 0.19473309634443028 0.03190288039280427 0.14090981428129051 -0.10656692806841449 0.98427024443557853
0.33131142123926571 0.1948228793451694 0.031995139664424264 -0.17581505609196893 0.099982261804714756 -0.97933273884609384
0.17704297884876466 0.39113265976889694 0.0090603238991384463 -0.15492588202187099 0.30909804535137836 0.93832636616462106
0.3340450783374358 0.19840074592006818 0.031934512425083682 -0.18501273975541729 0.090748438397937212 -0.97853717714583022
0.44179906090495086 0.23490843607446249 -0.0015044514166497106 0.39410150445015396 0.0085373721269428604 0.91902726698792314
0.4437181757776239 0.23536244137781781 -0.0023623600959970063 -0.43191762173718434 0.0029978297155519641 -0.90190807793804073
0.3342664242423099 0.20076352249294724 0.031870355854847224 0.15479942629832733 -0.10045746426236307 0.98282523140774369
0.33574925858344751 0.20499106909403819 0.032263440733121991 -0.19394625273437316 0.076466174222559052 -0.97802749207272277
0.33935020098797902 0.20498312756601042 0.031621064794319698 -0.19935775066595113 0.074750122354357046 -0.97707159740595317
0.1674315627001631 0.38292888601705405 0.0097363936587972627 -0.182208443767374 0.29493698786624473 0.93798307884964438
0.30129092808805891 0.067940638961697233 0.0030514888213294456 -0.0521763393451707 0.37154040433760055 -0.92694949029447649
0.17473968121767827 0.2088616844365864 0.031630122217613486 0.17148544383125069 0.099329765849358945 -0.98016648594527578
0.33777568227459431 0.20873098761456887 0.032097385488090831 0.16897452076453559 -0.090807269217588527 0.98142837292878393
0.23788429074158726 0.38210682015493003 0.013249615917212043 -0.026719712997774078 -0.26899412150952295 -0.96277111481942401
0.23750008645546025 0.38195272881276127 0.013312264527462387 -0.026493050034921282 -0.26891457432022775 -0.96279960013391042
0.23459737568259417 0.38209037412228741 0.014567225293475409 -0.012829682065646995 0.31834913972847378 0.94788671500988719
0.22861987665063604 0.38313876886666964 0.014372731400163846 -0.019124778917758475 0.32123927897525928 0.94680492630467572
0.17405872745999418 0.21240728022258903 0.03236458687782455 -0.16582357375560225 -0.087211890040934353 0.98229151916445268
0.34193451537962444 0.21309118856338777 0.03173412686225012 -0.20955955100723239 0.05553187779828208 -0.97621770375764227
0.4357463089089208 0.21475265705776792 0.00080142020564537883 -0.42360627372637744 0.044413463954977528 -0.90475696685859974
0.17471816895861025 0.21632484881105452 0.032334191542836802 0.1695397418212107 0.084055655073415586 -0.98193223941032515
0.23496972552265749 0.37944365948404879 0.015478153097543185 -0.011894034129241428 0.31324690953756912 0.94959723336649127
0.17015896116259266 0.22084621599128201 0.031973388086378077 0.17759841852985531 0.073560836475942221 -0.98134988922027921
0.16656267383742829 0.22476934356091818 0.031794729246249355 -0.19724788875481225 -0.063607665028641111 0.97828796135461749
0.34206124983549691 0.22424609553363814 0.032295737679863379 -0.21358185731976451 0.03067354335861671 -0.97644350781889411
0.34407586719089017 0.23181991860144777 0.032130679094130234 -0.21668583378712117 0.013449316452388083 -0.97614874139290042
0.16631525355184829 0.23270310545237716 0.032249352867588475 -0.1949428166091482 -0.046341400920602245 0.97971923162363617
0.16256197446422263 0.23905173821030659 0.03179988544740802 0.19756356597829136 0.029459667768968439 -0.97984731737801034
0.14647795085955811 0.36335695313975547 0.010038595859827013 0.25250025247667246 -0.23646343206789233 -0.93825831613361677
0.14341876256375724 0.36254029700499496 0.0093622596582823205 0.25912978241964624 -0.23394666901858019 -0.93708095270273095
0.16258933197966144 0.26717357699479694 0.032054118093152249 0.21449270225634795 -0.034358720253089677 -0.97612107805401871
0.16442146017617038 0.26923080812218947 0.032313625677887439 -0.19373779894231183 0.056714836164291176 0.97941262633266379
0.31098154885698431 0.070656407498332366 0.003201768046790726 -0.091992682087269351 0.37027640217768093 -0.92435530637993457
0.1655492051215014 0.26875718071053911 0.032566863188393455 -0.19205190258350088 0.05566431021176628 0.97980485367378423
0.31530842004308124 0.070683172569500199 0.0026612630682706509 -0.10924287331966041 0.36889824465281518 -0.92302767007329534
0.34708482568294924 0.35948882214944894 0.01056657650763464 0.19116252297372144 0.30538609901943825 0.93284308451958375
0.31914423386105034 0.07106389343037095 0.0018035837788589141 0.12227518377877584 -0.37498340545484721 0.91893211123855734
0.14277666131830027 0.35934020666330929 0.010208419677220549 -0.24915214445970785 0.24591409440085546 0.93672272689741864
0.13894662311320077 0.3584694683788332 0.0093110728266462568 -0.25494979842298576 0.24311743048041315 0.93589236308492241
0.16252732627561386 0.27322415995484461 0.031636837064811275 -0.19736779909567534 0.069456084423494935 0.97786594388836623
0.13861211564930997 0.35507388974066156 0.0099501044218661457 0.27344753721355797 -0.22120721084689626 -0.93610566404716122
0.1353521372941025 0.35428657891585369 0.0091112424335593658 0.2802358400761516 -0.21825478940605939 -0.93479020150947789
0.26692062022548096 0.25371185935879692 0.037098616717819388 -0.032956889569555538 -0.01625174513000522 -0.99932463404547855
0.26499573272921284 0.25330389405889187 0.036873015817109375 0.024800991782867383 0.036109654913719577 0.9990400410537098
0.33588846979963588 0.27560651578593137 0.031670680640592981 -0.17991219718546114 -0.093636517694496296 -0.97921591278836362
0.080823768641921701 0.21136983386712119 -0.0003742666409179262 0.35752993154934742 0.083420887551640191 -0.9301684275261205
0.1625348792848518 0.27704637399166165 0.031559611046225199 0.22140966239995435 -0.059668399003251348 -0.97335370937615839
0.31108488428237813 0.071612851018756682 0.0035911001045038321 -0.093301242420364722 0.36946622061494511 -0.92454831674030158
0.1315560407287292 0.34846281466314782 0.0095228334592839022 -0.27254883840664812 0.22747964016158409 0.93486370343229341
0.12672059881390854 0.34099682790431823 0.0096298555299658209 0.30131422000800284 -0.19423696650072089 -0.93353186430114243
0.16247952195910606 0.28118046925300583 0.03096201226396296 -0.19600809032577471 0.092642268344729786 0.97621628681495887
0.12325476763711954 0.3387739533695362 0.0090843605378593054 -0.28850165050627813 0.21319276159704087 0.93344289812381165
0.33176307111915943 0.2814210203434454 0.031698322766303036 -0.16974356863826451 -0.10502581447093191 -0.97987585907637509
0.12301518754123696 0.33714566651801386 0.0092619247620578764 0.30821411561877599 -0.1869375272091974 -0.93276922111219263
0.38283189636592213 0.33261379994237306 0.0092291411976474207 -0.30302786192351006 -0.22154277021815269 -0.92687265353021009
0.2613048662202172 0.25319842116007729 0.037010796025519176 0.020950853056515981 0.034391050017536881 0.99918882971883516
0.25649517276788786 0.2537888026274297 0.037157388175399653 0.01633579212801476 0.03435755696306509 0.99927608806329393
0.12076057401162238 0.33294273606680241 0.0095693747603719081 -0.29406144717125393 0.20587880837164296 0.93334976378152046
0.17043267388101066 0.28346209395490635 0.032460637258361229 -0.17708763323309054 0.099189574841573369 0.97918404725498387
0.17231239187787695 0.28377467232501191 0.033079349480338152 0.19103821275765587 -0.074388075929734662 -0.97875983541716338
0.25309048992775041 0.25314478651098682 0.037268383762570287 0.013061129413254035 0.032790425712682411 0.9993769033152764
0.11714106618697763 0.32886157445138581 0.0091986087549858191 -0.30103229754523192 0.19898632034048697 0.93262211004886231
0.24912611636782511 0.253274107455846 0.037578639669104845 0.00838989478214946 0.00010648855031930709 -0.99996479854329523
0.17051517765601731 0.28518216475418207 0.032289049944907965 -0.17704022977332018 0.10376887108854599 0.97871792587794093
0.17406080620681871 0.2853043631665918 0.032995352001662016 -0.16728190488720249 0.1039431519751355 0.98041449675878556
0.38955424390613269 0.32085562483717384 0.009782561546553081 -0.31838828147974124 -0.19679024373483342 -0.92730928076190511
0.24514448336545622 0.25310313062192047 0.03753792396487822 0.016663563586252515 0.0022023116547584842 -0.99985872775706774
0.17372887451812583 0.28684809569574238 0.033065366205660487 0.18771348769058072 -0.082532205126407701 -0.97875026521376263
0.24088926827570409 0.25298552981766265 0.037455509577108498 0.023779026788306849 0.0035968481636070256 -0.99971076845670159
0.39077135837410176 0.31873380928910716 0.01025154086575655 0.29196635686914285 0.21191044448039068 0.93265728431009609
0.17034760861161025 0.28918553973222388 0.032144181820283918 0.20031525835319752 -0.091705206673086709 -0.97543013708821724
0.11267175807023508 0.3170063199987404 0.0096815038660104259 0.33167578877976078 -0.1505607371585812 -0.93130158142439989
0.39373095850674439 0.31325524066933741 0.0099330077621064983 -0.32741140482683967 -0.18155868342707349 -0.92727461760879815
0.16261640615130113 0.29310112407461947 0.029875113933685058 0.22770503463812306 -0.10682486430182882 -0.96785270861187711
0.31988714573796451 0.29313165380780826 0.031839559830949639 -0.14074522372152198 -0.12571855074518512 -0.98203137831645126
0.31813204912656889 0.29548064477725033 0.031655328330256811 0.1240194938541465 0.15944508015549083 0.97938574196195571
0.39966995100580305 0.30119936478255172 0.01013515214250477 -0.33931523462986307 -0.15636504637580892 -0.92758565309084651
0.22695631481823256 0.25285239504180013 0.037618605679661056 -0.021164267899077591 0.015081229338193749 0.99966225810817966
0.17869960105549465 0.29950323144688168 0.032200722452126393 -0.15409759786086738 0.13745190139360758 0.97844821280269734
0.18032425500410323 0.30021674064901621 0.032390545469224388 -0.14911568894433713 0.13851135737897899 0.97907053636992292
0.30583664131084998 0.30025708109861465 0.032310364293637817 -0.11223549210426345 -0.13617572342288808 -0.98430654100354675
0.10451267535352973 0.29921520910963417 0.0095066284752015392 0.34637513357821942 -0.11690464077041245 -0.93078331087585131
0.10444266813262805 0.29520882434172896 0.0099997498727309193 -0.34479238757629177 0.11900172167541409 0.93110514965159952
0.18001482827106571 0.303652471243406 0.031854634764022831 -0.15076297393331958 0.14578353869430399 0.97776156885845522
0.22210176507672125 0.30377021544638805 0.03518475374050669 0.027439672840124458 -0.12296612276726201 -0.99203144960531042
0.20285310287243277 0.25299424564787576 0.037276131837717066 0.093326954827258016 0.0049622921647673839 -0.99562314916796824
0.084415797836378814 0.20064930094027209 0.00018027811851900683 0.35791020310197413 0.10372463902808518 -0.92797709334551837
0.22862045042338569 0.30402521307843289 0.035119630507163969 0.013156367073245282 -0.12187172274558335 -0.99245866070101763
0.30161598433183767 0.30567359596204996 0.031798237046763385 -0.10628799330997188 -0.1538257472336827 -0.98236474996110201
0.3152541187797045 0.30523922846651569 0.030319462564278303 0.12131376143968023 0.1835968814236307 0.97548713800689013
0.40990055770826928 0.27902972491442918 0.0097295597069885741 -0.36503923102537689 -0.10609634809760148 -0.92492698346018332
0.41076638975309504 0.27546923270635204 0.0098492015629018242 -0.36681747589962788 -0.097816130643375465 -0.92513617590092334
0.26520147308985431 0.42328663871281147 -0.0022717509683875653 0.027243285749459428 0.31198113191730437 0.94969762383043321
0.29126296795183126 0.31025005572120434 0.031818384885047582 -0.089379539368026797 -0.16820147134974026 -0.98169219360150861
0.41508635530267224 0.26256019813383652 0.0092166356238852082 0.35986451197676617 0.077098233912040834 0.92981363473943968
0.41336670516542207 0.26109815538864323 0.010238973317087497 -0.37376443742535426 -0.063302249762337975 -0.92536099468863231
0.097901002830533018 0.26083747371194638 0.010226051032782933 0.36169263252854511 -0.022104678540420062 -0.93203531197116962
0.41194009315574587 0.25686852788484826 0.011128808041495949 -0.37112518222646479 -0.053315021568541919 -0.92705102750200286
0.43169661807744453 0.19789770380034505 0.0014270686474838056 -0.40940170781402763 0.078479296100469081 -0.90897262979835236
0.096848189348393177 0.25701151451299159 0.0098191048576453058 0.36383190058267117 -0.011673095243604353 -0.93139147889909057
0.28139147301366085 0.31172883634729542 0.032265931546079062 -0.075796505911683354 -0.17277106587213198 -0.98204126618436327
0.28501585439283361 0.31190399264546165 0.031973208322935917 -0.081421722560565041 -0.17391529242559101 -0.98138879867043083
0.18604727641114077 0.31318967118975422 0.031780017938786487 0.14754440525538498 -0.1456067677054097 -0.97827875254255503
0.27529989195380783 0.3139107571308648 0.032267664892966938 -0.069679894325413383 -0.1765773166289227 -0.98181727606460889
0.43223893210643927 0.19698244158165773 0.0010943751081683385 -0.40939951367858463 0.079729205868410494 -0.9088648369979615
0.41559515806668051 0.24476567742800259 0.0100991374495196 0.36472769426312135 0.019778639660046136 0.93090413816391704
0.415663017492302 0.24081810820869237 0.010100124720126597 0.36558483952309434 0.0086611594052406968 0.93073772322208481
0.41547920343282435 0.23704422958708599 0.01015216381183146 0.36470335786316749 -0.0026588470200682702 0.93111996611384851
0.41726698066865403 0.23480685874994672 0.0097536374287133659 -0.38490860599593335 -0.0039322153750063309 -0.92294631626791379
0.41867323060981787 0.2281304479157869 0.0091314785878269713 -0.38938504870990209 0.013407803257947347 -0.92097747782070294
0.43188053238572582 0.19470951048171775 0.0010248999128067765 -0.4071782200903602 0.084924423182535402 -0.90939196138472644
0.086577720683225626 0.1945695617774906 0.00035617356070917049 0.3558097775382601 0.11638976632796705 -0.92728249444400446
0.27327703483661497 0.3155480765481315 0.032075509202059732 -0.06851825207083323 -0.18216867895713143 -0.98087706749631542
0.097209536154463982 0.21881039506410507 0.0085712842872834663 0.37582074383016978 0.075511834284090654 -0.92361070337561058
0.2752023737052568 0.31718175345678645 0.031583068904524884 0.050595726705002592 0.18635763912234335 0.981178323639459
0.09717841320982977 0.21510607466728035 0.0081870700504702385 0.37507089213133965 0.083718619875858671 -0.92320800395245839
0.4115523120965735 0.19896773814031674 0.010275346907326628 -0.37388851151157171 0.087278072215558639 -0.92335795825345934
0.10840499912321529 0.19660287017942857 0.011323114980770845 -0.31977168062264988 -0.12909886391657091 0.93865838067276464
0.086560056406157895 0.19299856687273276 7.2333080489065066e-05 0.3535272735674892 0.119212074511482 -0.9277968248138202
0.10815093114002763 0.1925678434508559 0.010414470167017185 0.35506957272171685 0.13651468256450022 -0.92481854434885291
0.410721990351614 0.18830802209939515 0.0092421460262373158 0.3410998937877287 -0.10030881730841656 0.93465983310945111
0.40929087274657983 0.18884659950153768 0.0099798366161956593 -0.36800621449327486 0.11293036395546853 -0.92293995416344143
0.20079770573095898 0.32334040373520107 0.0310725778047658 -0.086018246281616667 0.18759317446683638 0.97847312799079478
0.19328034303008293 0.32727044678873235 0.03012999284329396 0.11995523427893884 -0.18501686838922354 -0.97538684642583207
0.088117861196935682 0.1907732372226503 0.00044970345390359724 0.35356832293663176 0.12424066634978281 -0.92712118832477319
0.11649515776691328 0.17275530116602661 0.010222886279022908 -0.31015216710395749 -0.20418061607108093 0.92850197052109307
0.11689531762409737 0.16912271925179279 0.0096015609643349369 0.33115288564005729 0.19218110414099773 -0.92379878195601128
0.40119995859033408 0.16489377353645412 0.0093402880941715095 -0.3507677181212237 0.16631919821147398 -0.92157470246872675
0.021815474637403715 0.21695674598492243 -0.015584783853229327 0.14493131963616043 0.055634923157098733 -0.98787634242035827
0.21269170774061719 0.33327402742982926 0.029754094099264682 0.040184684225926151 -0.20427127130833803 -0.97808917736152157
0.44368890238337094 0.29149193543344287 -0.0065374237420640045 -0.40148487256789916 -0.11653298161226215 -0.90842168693602532
0.023397632972684945 0.2171681213761453 -0.015428231523625156 0.14816881441563179 0.055916907126395674 -0.98738001900589623
0.45067085400326473 0.27511485395445312 -0.0077466472961425278 -0.41748052233506655 -0.08269708909346507 -0.90491502635678855
0.12677053575037009 0.15492705460255499 0.0096889455046595841 -0.29240702571125848 -0.2426718868801179 0.92499107381246592
0.22242453817914734 0.33698419020401355 0.028434675553548328 0.0055758565406381147 -0.21946109446361339 -0.97560531868203304
0.45362217123330451 0.26485570847937295 -0.0082262232086574953 -0.42562285450081355 -0.060756217698231474 -0.90285871969959086
0.060391663357875651 0.26453173706194771 -0.0061712144003471404 0.26625910579369844 0.020707645786899497 -0.96367903473506389
0.057909275354531602 0.26466644135763151 -0.0073338517105319082 -0.24752796272445576 0.010900183786038999 0.9688194329506975
0.22078100308541465 0.33879684188162185 0.028044247156335678 0.011009115692171159 -0.22291809224141299 -0.97477501174533876
0.060125016573827947 0.26096964929904898 -0.006342645612697634 0.26422485015868752 0.024967445578070912 -0.96413788185089233
0.057459105981922727 0.26096853954447186 -0.0074789953204201327 -0.22833172188749398 0.0018182586514502734 0.97358169596360444
0.15873911379638642 0.12646205426060042 0.010411736601452955 -0.22284764269927118 -0.30776966919270815 0.92499554532353778
0.16079429566531342 0.12442246486597636 0.010225903110079749 0.23602285755302072 0.29887994027804304 -0.92464262935033437
0.36321244225820482 0.12047644100825777 0.010902600973363917 0.23354178889878521 -0.29174358231542324 0.9275472575646585
0.040572808864864245 0.24915893942371581 -0.011438308663132694 0.21347321040975986 0.046319893726444711 -0.97585022205383609
0.35872925881574352 0.11285527533891294 0.0097201905341706765 -0.25242886038074486 0.28117895057332781 -0.92586071749554233
0.25688619413127994 0.24845290851482224 0.037612165955875035 -0.0037820581715160726 0.0036806252983837716 -0.99998607441973908
0.3556113631742957 0.11250511675507761 0.010332521377402953 0.21736820628896311 -0.30960430655158655 0.92568689969094309
0.35475373833798562 0.10925163263038531 0.009421765531884568 0.21444387728066541 -0.3177097572235778 0.92362023238004598
0.19269346123561643 0.10823031277928284 0.011227686301689703 -0.14677555371051176 -0.33333342687161877 0.93131399826427819
0.2730467466290506 0.16101744741752344 0.031766412998561061 0.0035745512710329275 0.16125448905324455 -0.98690638479208748
0.25287939700854517 0.24916998754647485 0.037619213978044928 0.0053256416471308791 0.0060649143759823288 -0.99996742664681759
0.19290508090294708 0.10481027333015627 0.0099203097771088031 -0.14572832665318633 -0.33848648269921749 0.92961828501852006
0.4277893791718268 0.18269339212482399 0.0013883678701659644 -0.39121533613347775 0.11609572133453025 -0.91294706542153103
0.2668355365261515 0.16267785453492509 0.031807883304626507 -0.011126288833731134 -0.17374592078817122 0.98472765814018792
0.26896554014341129 0.16273255200694273 0.031881573210051299 -0.0077475772149815225 -0.17341353076255298 0.98481862411093901
0.069281105264627038 0.262625207056358 -0.0033641027079851773 0.29337318389272227 0.013632636436707602 -0.95590079307239384
0.24887222983260338 0.2489869760828779 0.037564278165045345 0.013705583406301642 0.009160876312367134 -0.99986410843108198
0.25299889137485865 0.16504451817780455 0.031832227224616275 0.03093327377837864 0.15840475199503132 -0.98688959216254002
0.42804564624649905 0.18076414787355397 0.0010069814278604158 -0.39015384735253056 0.12013010549597454 -0.91287936396302893
0.09049775120226522 0.18115021231236689 -4.4643627387280527e-05 0.34861453743758131 0.14347383700413138 -0.92621982400642522
0.26688965524253061 0.16495005777379987 0.032065816206094902 -0.010507766809639472 -0.16758182709990171 0.98580216984064961
0.070832838753690855 0.27292456591676811 -0.0026753742714513821 0.30371843266518039 -0.0089706937085053239 -0.95271960214629492
0.43735368922190787 0.27331510689994426 -0.0014426259385688347 -0.40898336634566046 -0.086714507211189368 -0.90841246154579569
0.07113543465152207 0.27680838991218537 -0.0025998262449929243 0.30770680831714997 -0.017740603219336803 -0.95131582090948474
0.07126157648512893 0.28085082501632347 -0.002635659130826906 0.31270683451838122 -0.028722561360517679 -0.94941532013886587
0.33919547806073536 0.09732380612707428 0.0089737408744715169 -0.19684501381722364 0.32166702534263991 -0.92616540927769186
0.090932388866682104 0.17868881184381713 -0.000324304700933635 0.34637080016588656 0.14863086380555413 -0.92624841976483729
0.33707288016317549 0.097339673323564843 0.009150049205775293 0.17470867748008562 -0.34047930178545749 0.92387808885634193
0.32915497646428205 0.096295348265462669 0.010319833096582192 0.15516977658956335 -0.3429751535263848 0.92643962809062619
0.057881310797802531 0.28380937833088055 -0.0037463401163330503 -0.68038610427874258 0.26048763343582698 -0.68499703789972588
0.244950352484052 0.24900738991332036 0.037460394856605142 0.005851946031016071 0.022591899708071791 0.99972764330853159
0.43682011722493713 0.28485737173085823 -0.0026028910970416594 -0.4013513187116392 -0.10854946634241476 -0.90946914863848194
0.22699946196229775 0.16881742577530501 0.031682663646297009 -0.061221824590132826 -0.17668412933594918 0.98236174937476706
0.22895233756119426 0.16884902648556263 0.03176806988043869 -0.058239425100841347 -0.17563057469918913 0.98273194239057693
0.43352401556280112 0.28921143025446083 -0.0017552096905989341 -0.39587105210223444 -0.1182636691318224 -0.91065900021410251
0.4276362957140038 0.176800654024483 0.0005917837069455194 -0.38618230237389284 0.12901948408845454 -0.91335491571390159
0.07487716003481748 0.29309105998271118 -0.0020250832949506993 0.33734507432309396 -0.073240642550792615 -0.9385276283139955
0.077814487205461025 0.2956827708559952 -0.0011570548265594446 0.34419855788326087 -0.086175938061453045 -0.93493371981671092
0.21487576013106163 0.24882038128595374 0.037443444090490476 -0.043891243884111718 -0.010888388029291853 0.99897697757076909
0.32104067137389458 0.092564775567865701 0.010305358314354255 0.13417262168601302 -0.34771019812872661 0.92795222167263747
0.22090121092169213 0.17077943151162603 0.031638021680044148 -0.069549938826018884 -0.171919510714034 0.9826527809176262
0.30242055920740768 0.17051381061889737 0.032264945333890266 0.080979194719556891 -0.140412797609095 0.9867758693290789
0.42432176472586947 0.17483086122614891 0.0016745618940795311 -0.38138709467515491 0.13595582702450662 -0.91436311010086524
0.20295817068335403 0.24897011979247174 0.037171309400799289 -0.069353613943109987 -0.016620174972021045 0.99745368113859278
0.078415947241696718 0.30037558984236051 -0.0017921653757553737 -0.34049099287582812 0.096074527435897339 0.93532645046978213
0.078686686098292463 0.30335199523519868 -0.0016924856543383846 0.34809443720866712 -0.10462710105695731 -0.93160261512556874
0.26067431525914808 0.24640851328060367 0.03756811542458819 -0.011050392240414373 0.0031976105211467759 -0.99993382986990098
0.23905789636781574 0.17492844396081797 0.032641375018653732 0.047534664674199235 0.13981321197750241 -0.98903625889592417
0.21288298950049309 0.17671514190308607 0.031980630066019505 -0.078445918668141476 -0.15916569553295834 0.9841303364950299
0.092323987340712524 0.17304061744189134 -0.00083319509151874225 0.34190965560330805 0.16065567974599393 -0.925898234132985
0.078948214914879716 0.30501893844571099 -0.0018075387772644729 0.34846586252046352 -0.10857903199518244 -0.93101135141783242
0.31107210297302862 0.17668067427114756 0.032380031755900276 -0.11457860133054713 0.13657739951318437 -0.98398087281173896
