# .PCD v0.7 - Point Cloud Data file format
VERSION 0.7
FIELDS x y z
SIZE 4 4 4
TYPE F F F
COUNT 1 1 1
WIDTH 1421
HEIGHT 1
VIEWPOINT 0 0 0 1 0 0 0
POINTS 1421
DATA ascii
0.84364051 0.19239064 0.099894919
0.84861392 0.19157365 0.097283237
0.85350615 0.19612013 0.097671755
0.85721415 0.19750379 0.098270066
0.86047351 0.19893111 0.097596675
0.85971558 0.20334673 0.095456928
0.86429912 0.20245236 0.097404175
0.88600856 0.20434676 0.095389724
0.85713935 0.20508271 0.09963958
0.86157477 0.2056129 0.096521795
0.86968237 0.20693178 0.099900179
0.87308389 0.20676507 0.098002523
0.8774454 0.20787929 0.098619379
0.88057023 0.20883152 0.096609928
0.88723344 0.20791396 0.09573216
0.8920213 0.20904048 0.098423146
0.86329317 0.21183971 0.099283963
0.87126052 0.21293646 0.099265143
0.87822086 0.21191548 0.098611251
0.88271207 0.2122554 0.098620713
0.88738692 0.21244112 0.098237179
0.89170492 0.21320926 0.097760968
0.878097 0.21627133 0.098799519
0.88418114 0.21842632 0.097808711
0.88737094 0.2171776 0.096917711
0.87964404 0.22376573 0.09964408
0.88174886 0.2224986 0.098075122
0.88843167 0.22196549 0.097947657
0.87765819 0.22687459 0.09937451
0.88170904 0.22906238 0.097410753
0.88936961 0.22552377 0.096749932
0.88264579 0.23034267 0.095616393
0.49719706 -0.1527569 0.10074814
0.50301474 -0.1514927 0.10304396
0.49450269 -0.14785722 0.10245695
0.49622643 -0.14802252 0.10051912
0.47814068 -0.14350922 0.10395852
0.48744732 -0.14152312 0.10288864
0.49627841 -0.14312001 0.10283879
0.50913692 -0.14041528 0.10216528
0.47828376 -0.13900739 0.10480711
0.49786249 -0.13685997 0.10325618
0.50410402 -0.13545047 0.10161437
0.50774258 -0.13713354 0.10155783
0.51100159 -0.13678761 0.10145012
0.52265728 -0.13582641 0.10088989
0.50888407 -0.1344655 0.1042013
0.52704209 -0.13174999 0.10099292
0.51424885 -0.12660308 0.10115316
0.51684064 -0.12643041 0.10241088
0.52279657 -0.12758535 0.10336674
0.52706814 -0.12757507 0.10099433
0.51325089 -0.12289175 0.10322982
0.51779771 -0.12215129 0.10052812
0.522241 -0.1236945 0.1027817
0.52833146 -0.12225866 0.10236644
0.54179144 -0.12022582 0.10000491
0.51426727 -0.1183244 0.10211271
0.51635146 -0.11793143 0.10012098
0.52868962 -0.11759343 0.10352906
0.53467232 -0.11671715 0.10393673
0.54187208 -0.11681236 0.10085691
0.51638931 -0.11296327 0.1015655
0.53181469 -0.11116376 0.10085972
0.54257762 -0.11185428 0.10082874
0.52921653 -0.10664482 0.10112564
0.53076315 -0.1080662 0.10139281
0.54105681 -0.10731772 0.10171533
0.551494 -0.10514386 0.10198177
0.55747008 -0.10600512 0.10089683
0.52435374 -0.10233475 0.1013481
0.52679914 -0.10250772 0.10091761
0.53477746 -0.10427581 0.10252597
0.53932887 -0.10458096 0.10022198
0.5413273 -0.10482819 0.10496368
0.54952258 -0.10203189 0.10205227
0.55200654 -0.10265686 0.10211298
0.55897474 -0.10292725 0.10354578
0.52643377 -0.098754928 0.10013694
0.54404664 -0.095473826 0.10345326
0.54249305 -0.09383107 0.10363706
0.54986989 -0.091012873 0.10046165
0.55401701 -0.092191778 0.10160708
0.55781555 -0.092462815 0.10078429
0.56289655 -0.092457272 0.10354223
0.54182518 -0.086640291 0.10306398
0.55260462 -0.087588012 0.10206615
0.55808109 -0.087817483 0.10230517
0.56346065 -0.087406009 0.10370854
0.56639463 -0.08706326 0.10223871
0.55161196 -0.082574628 0.10387499
0.55636543 -0.08295583 0.10168651
0.56353557 -0.083761349 0.1023977
0.56667161 -0.083313078 0.10205165
0.57225347 -0.082269967 0.10340279
0.57718325 -0.082273029 0.10052829
0.5825547 -0.081616968 0.1006373
0.54760039 -0.078657433 0.10390949
0.56476986 -0.076941311 0.10364404
0.56681007 -0.077462383 0.10182334
0.57423311 -0.079383507 0.10072154
0.57894665 -0.076908357 0.10386997
0.58138341 -0.077919878 0.10131694
0.5857451 -0.075898141 0.10058026
0.56789178 -0.073278211 0.10129789
0.57203692 -0.071724378 0.10027099
0.583359 -0.072172061 0.1019841
0.5892514 -0.07129769 0.1009924
0.56774312 -0.069003768 0.10145355
0.57411534 -0.066712178 0.10268147
0.57679164 -0.067333087 0.10070213
0.5822522 -0.066820584 0.10302659
0.59224844 -0.067172743 0.10276522
0.59893721 -0.065608636 0.10149036
0.57441795 -0.06225263 0.10299724
0.5763343 -0.063233539 0.10074811
0.58349663 -0.062675782 0.10237372
0.58632678 -0.061294578 0.10095885
0.59220225 -0.062115401 0.10413311
0.59798872 -0.061127454 0.10376737
0.60651165 -0.060141623 0.10086665
0.57383221 -0.058969129 0.10262693
0.57722175 -0.057690479 0.10131069
0.58286107 -0.057844829 0.10378943
0.58642834 -0.057477225 0.10111076
0.59402865 -0.057442497 0.10362285
0.59774011 -0.055987567 0.1031822
0.60230029 -0.056674831 0.10295033
0.57865828 -0.052742265 0.10397056
0.58300298 -0.053097535 0.10296889
0.58658844 -0.054293398 0.10189197
0.59342378 -0.051647287 0.10216916
0.59717184 -0.051378027 0.10161791
0.60354084 -0.052780408 0.10287092
0.60763335 -0.053444937 0.10309508
0.61185127 -0.050981712 0.10081206
0.58777606 -0.04576784 0.10383051
0.59191138 -0.048089355 0.103767
0.59823281 -0.047459442 0.10245334
0.60328782 -0.047845807 0.10168356
0.60837328 -0.048306953 0.10144407
0.61202532 -0.047588922 0.10159663
0.61634326 -0.049327586 0.10192581
0.5977878 -0.043324914 0.10151877
0.60426056 -0.043016899 0.1022348
0.60840476 -0.043350656 0.10206484
0.61309266 -0.041714966 0.10320082
0.61614048 -0.043286961 0.10265269
0.62324905 -0.042519476 0.10213508
0.60319281 -0.036547638 0.10327256
0.60919768 -0.037019353 0.10340943
0.61223406 -0.038112078 0.10253916
0.61765712 -0.038296569 0.10251857
0.62114197 -0.037497893 0.10172033
0.62807405 -0.036277801 0.10150518
0.6314072 -0.036825877 0.10022008
0.60401952 -0.032655589 0.10316117
0.60750234 -0.032137591 0.10251522
0.62176132 -0.033056196 0.10197145
0.62918818 -0.0319736 0.10376152
0.63140893 -0.032523334 0.10175426
0.63633418 -0.031366069 0.10062781
0.60233533 -0.026515087 0.10452142
0.60876453 -0.027869886 0.10383972
0.61445916 -0.026003309 0.10425815
0.61893523 -0.026278859 0.10417931
0.6230008 -0.027199665 0.1040271
0.62771398 -0.026004141 0.1025231
0.63158393 -0.026928643 0.10325
0.63833308 -0.025687985 0.10251804
0.60287821 -0.021531889 0.10406661
0.60837388 -0.024588013 0.10486349
0.61393613 -0.022604315 0.10392151
0.61881119 -0.022681946 0.10321821
0.62321746 -0.023146803 0.10246695
0.62816548 -0.023451453 0.10356158
0.63240409 -0.022868592 0.10155656
0.63982558 -0.022585038 0.10164215
0.64294386 -0.023325033 0.10105979
0.64699161 -0.023665525 0.10060503
0.61404222 -0.017960455 0.10412004
0.61752439 -0.018841766 0.10319437
0.62085825 -0.01574339 0.10454526
0.62961757 -0.017451514 0.10336721
0.63907355 -0.017363857 0.10340527
0.64372236 -0.016147386 0.10365415
0.64714748 -0.016953047 0.10156348
0.65366417 -0.017822091 0.1010474
0.65802252 -0.016537651 0.10090772
0.66288841 -0.016571779 0.10148752
0.61464548 -0.01388365 0.104481
0.62153846 -0.01168014 0.10436957
0.63707471 -0.012091115 0.10331492
0.64375716 -0.012456098 0.10219578
0.65364486 -0.01442931 0.10304181
0.65919769 -0.013932772 0.1006603
0.6635772 -0.013222732 0.10070424
0.6346699 -0.007496424 0.10461742
0.63851851 -0.0083474889 0.10315573
0.6428836 -0.0083577009 0.10309113
0.64693373 -0.0089515904 0.10091221
0.66356254 -0.007217051 0.10066928
0.62882292 -0.0038574375 0.1049694
0.63172323 -0.0025869054 0.10474399
0.63756943 -0.0031696751 0.10314913
0.64338124 -0.0040579 0.1039961
0.64877647 -0.0033584086 0.1022762
0.65282476 -0.0027443154 0.10352593
0.65961516 -0.0044066701 0.10279597
0.66199625 -0.0036933639 0.10141197
0.63080031 0.0024648481 0.10452146
0.63933384 0.0019861253 0.10340266
0.64212781 0.0029104615 0.10170097
0.64750034 0.00283527 0.10314369
0.6527229 0.003231518 0.10350211
0.65750664 0.00074903166 0.10380965
0.66261297 0.0016558013 0.10330702
0.6682151 0.0031052153 0.1014282
0.64118803 0.006681575 0.10304651
0.65403992 0.0070201387 0.10275712
0.6582222 0.0078455927 0.10410858
0.66407961 0.0083658407 0.10389731
0.66622722 0.0077899061 0.10203423
0.6734485 0.0074032955 0.10149255
0.67624867 0.0080195442 0.10095304
0.65429282 0.011345595 0.10259653
0.65839404 0.011641715 0.10365275
0.66322076 0.012024001 0.10396343
0.66641217 0.01270885 0.10212499
0.67380017 0.011956478 0.10152505
0.67662507 0.012142425 0.10134524
0.68174165 0.013811012 0.10152143
0.65922338 0.01615472 0.10430231
0.6629988 0.016626867 0.10249583
0.6675635 0.017906258 0.10329253
0.67287475 0.017293073 0.10123853
0.67741537 0.01661754 0.10158782
0.68137485 0.018559236 0.1014245
0.6872071 0.018533906 0.10165678
0.6638698 0.021831147 0.10349456
0.66829729 0.023069488 0.10301504
0.67244327 0.022505362 0.10269681
0.67739898 0.023725472 0.10352761
0.68291223 0.024183359 0.10144379
0.68874371 0.023079354 0.1028008
0.66449916 0.026075829 0.10462817
0.66876125 0.02683101 0.10365373
0.67274964 0.026687736 0.10365301
0.67772204 0.02815132 0.1034134
0.68335259 0.028037798 0.10380874
0.6884256 0.027577681 0.10262883
0.69127005 0.025854245 0.10164542
0.6684283 0.032089211 0.10432349
0.67338359 0.031967025 0.10336573
0.67752081 0.032140173 0.10204926
0.68363106 0.032047115 0.10253519
0.68781543 0.03204209 0.10297898
0.69184488 0.032166567 0.1020513
0.69953835 0.030824158 0.10152487
0.71303695 0.033904519 0.10075158
0.66856867 0.035609312 0.10475626
0.6731115 0.036114555 0.10400744
0.67771316 0.037483916 0.10249543
0.68286276 0.036984857 0.1036095
0.68866491 0.036918346 0.10411767
0.69260007 0.037269283 0.10276233
0.69712818 0.037137289 0.10156536
0.70780379 0.036643021 0.10089193
0.67910004 0.042812847 0.10460029
0.68329734 0.041868865 0.10371871
0.68807799 0.042387526 0.10454833
0.69282788 0.041513756 0.10347786
0.69621426 0.041683916 0.10168552
0.70388007 0.041136786 0.10253996
0.70837688 0.042484026 0.10125032
0.71311563 0.042400599 0.10136776
0.67974854 0.046111025 0.1043161
0.68301684 0.047076173 0.10358117
0.68793213 0.047230795 0.10319944
0.69346881 0.046292227 0.10357982
0.69703424 0.047288395 0.1028837
0.70273858 0.046986289 0.10364106
0.7092216 0.046663232 0.10193814
0.71254426 0.047778737 0.10220128
0.71712238 0.048561983 0.10199503
0.72818524 0.048891876 0.10058878
0.68829477 0.051843353 0.10326544
0.69139856 0.0516361 0.10429659
0.69845551 0.051501814 0.103388
0.70155942 0.05301749 0.10257795
0.70713127 0.052246138 0.10344584
0.71391737 0.050466485 0.10160552
0.71670419 0.051260114 0.10164335
0.73246753 0.05444587 0.10135651
0.68755406 0.055870891 0.10464979
0.69141114 0.056244031 0.10496523
0.69880104 0.057945393 0.10193689
0.70258301 0.056124087 0.10245214
0.70796239 0.057788782 0.10196389
0.71264803 0.058377575 0.10410683
0.71866101 0.057768494 0.10254564
0.72320324 0.057998527 0.10352473
0.72749639 0.05814914 0.1026538
0.73106712 0.05874737 0.10128005
0.70929575 0.062375635 0.10491635
0.71356016 0.06161958 0.10319179
0.71659482 0.062374163 0.10187237
0.72352111 0.06263648 0.1033878
0.72719753 0.063431635 0.10249262
0.73253345 0.061691832 0.10331124
0.70889193 0.067803472 0.10433725
0.71464586 0.067100272 0.10424544
0.71843827 0.067685783 0.10202044
0.72227877 0.066782288 0.10146289
0.7274583 0.066150129 0.10220742
0.73428422 0.06700366 0.10252557
0.73709446 0.06719847 0.10291062
0.70939213 0.070922494 0.10428023
0.71251953 0.071628436 0.10383952
0.71661383 0.072035812 0.10317806
0.72305846 0.072501786 0.10206418
0.72759342 0.073283136 0.10414223
0.73246318 0.072937012 0.10338429
0.73741549 0.07303834 0.10178629
0.7417382 0.071583107 0.1026447
0.74636412 0.071919456 0.10109395
0.71816522 0.07631477 0.10294282
0.72337955 0.077668689 0.10252854
0.72762871 0.077396117 0.10220646
0.73346418 0.078147732 0.10267419
0.73862225 0.076973267 0.10328944
0.74355495 0.077862576 0.10219107
0.74616778 0.076390229 0.1034656
0.75369704 0.077756435 0.10090369
0.71869057 0.080172837 0.10472375
0.72437686 0.081236355 0.10402677
0.72855037 0.081255287 0.10213505
0.73327512 0.082541272 0.10460337
0.73835677 0.081894822 0.10382989
0.74304372 0.08248347 0.10237251
0.7481364 0.082657211 0.10270429
0.75312161 0.082787625 0.10342187
0.73971951 0.086670861 0.10449211
0.74254167 0.08757747 0.10258569
0.7483986 0.086800329 0.1025916
0.75214702 0.087626889 0.10269772
0.75945187 0.088142529 0.10187751
0.76029599 0.088603646 0.10171594
0.74378908 0.091338098 0.10296916
0.74825966 0.092762649 0.10283938
0.75280851 0.092344627 0.10233221
0.7590701 0.09261395 0.10364792
0.74275583 0.097551368 0.1041369
0.74760342 0.09732306 0.10359677
0.75246018 0.097404227 0.1030991
0.758744 0.097324662 0.1032309
0.7616564 0.098310232 0.10135943
0.74486667 0.10320642 0.10476935
0.74713433 0.10265686 0.10349568
0.7538994 0.10232393 0.10386223
0.75813276 0.10247155 0.10246892
0.76233011 0.10295097 0.10238526
0.76660413 0.10302994 0.10203445
0.74793804 0.10684733 0.10347126
0.75361085 0.10685965 0.10463919
0.75852376 0.10698617 0.10213743
0.7625801 0.10777347 0.10291444
0.76882279 0.10761856 0.1017323
0.77162343 0.1089742 0.10404489
0.77724391 0.10809088 0.10145297
0.78377503 0.10781793 0.10004614
0.75379407 0.11103232 0.10462505
0.75775564 0.11238579 0.10318817
0.76266217 0.11194128 0.1029285
0.76741678 0.11210601 0.10240646
0.77234948 0.11310647 0.10443842
0.77692401 0.11383305 0.10383473
0.78253812 0.11246455 0.10236601
0.78621078 0.11100311 0.10130957
0.75753844 0.11726288 0.10374093
0.76264864 0.11687579 0.10392591
0.76799971 0.11708645 0.10359722
0.77316421 0.11703273 0.10307602
0.77792996 0.11741675 0.10296284
0.78358734 0.11670822 0.1038084
0.78868711 0.11577806 0.10227963
0.7576524 0.12219562 0.10399882
0.76168889 0.12259554 0.10277966
0.76811826 0.12131611 0.10370865
0.77309233 0.12188647 0.10273675
0.77785331 0.12278979 0.10326117
0.78318745 0.12322843 0.10404748
0.78899509 0.12273971 0.1027608
0.79273081 0.1231203 0.10304797
0.79693258 0.12259404 0.10342072
0.75948 0.12562355 0.1049738
0.7689482 0.12716377 0.10314002
0.77196199 0.12814306 0.10167668
0.77874619 0.12590562 0.10438166
0.78280073 0.12717398 0.10285691
0.78827769 0.12737752 0.10196511
0.79166651 0.1263901 0.10298253
0.79950094 0.12929933 0.10195611
0.77348715 0.13308276 0.10332618
0.78411084 0.13301848 0.1039479
0.78852832 0.13218907 0.10261758
0.79334605 0.13199767 0.10179485
0.79819649 0.13288844 0.10125258
0.80234253 0.13390689 0.10307406
0.8070302 0.13421604 0.10243259
0.77772605 0.13840333 0.10378639
0.78357208 0.13741189 0.1025339
0.79290897 0.13700841 0.10282505
0.796839 0.13762772 0.10175467
0.80382586 0.13702413 0.10459199
0.80872607 0.13795882 0.10213982
0.78361571 0.14229181 0.10370375
0.78814542 0.14203891 0.10296361
0.79279512 0.14191593 0.10328282
0.79799765 0.14240681 0.10235243
0.80449617 0.14131145 0.10373014
0.80588406 0.14202984 0.10322046
0.78916979 0.14630821 0.10406201
0.79309094 0.1473148 0.10359726
0.79803282 0.14751108 0.10239286
0.80190611 0.14769076 0.10192696
0.80681181 0.14826512 0.10236184
0.81231695 0.14639911 0.1046738
0.81715661 0.14833859 0.10280479
0.79364449 0.15167424 0.10456611
0.79831886 0.15221374 0.10409304
0.80310684 0.15183049 0.10146576
0.8079015 0.15268382 0.1029617
0.81255621 0.15325175 0.10233825
0.8189882 0.15358791 0.10351279
0.82098442 0.154129 0.10243434
0.80828905 0.15735914 0.10305054
0.81158543 0.15728679 0.10275001
0.81915402 0.15709983 0.10303842
0.82242024 0.15727255 0.10303477
0.82617259 0.15947232 0.1014196
0.83199978 0.15844147 0.1010703
0.80793393 0.1618721 0.10255845
0.81239516 0.16178012 0.1025001
0.81764925 0.1625282 0.1042003
0.82297838 0.16178921 0.10367273
0.82742316 0.16207393 0.10353604
0.80774856 0.16742396 0.1038047
0.81336617 0.16753957 0.10408442
0.81647611 0.1678655 0.10291446
0.82326603 0.16732824 0.10220759
0.82795191 0.16550358 0.10311779
0.83358079 0.16682905 0.1024725
0.80948126 0.17171952 0.10482633
0.81348795 0.17268912 0.10357124
0.81812972 0.17145175 0.10220707
0.8214491 0.17406555 0.10311113
0.82910311 0.17365423 0.10454656
0.83294737 0.17246005 0.10264142
0.83616436 0.17334664 0.10157182
0.81299245 0.17701678 0.10330556
0.81823367 0.17720948 0.10330739
0.82267642 0.17805704 0.10489975
0.82899171 0.1756044 0.10164677
0.83322209 0.1772529 0.10372653
0.83708543 0.17727795 0.10264212
0.84331399 0.17809516 0.10248569
0.82363302 0.18211171 0.10432563
0.82724804 0.18274908 0.10275923
0.83218265 0.18141191 0.10213833
0.83714187 0.181345 0.10315818
0.84355277 0.18295698 0.10419178
0.8248744 0.18588829 0.10492139
0.82775211 0.18717448 0.1032691
0.83290136 0.18735191 0.10120524
0.83838582 0.18665738 0.10321841
0.84364021 0.18702546 0.10436757
0.84798014 0.18667868 0.10402951
0.8384167 0.19185431 0.10184386
0.84236473 0.19312933 0.10200616
0.84859967 0.19138883 0.10087686
0.84332287 0.19567344 0.10303659
0.84875524 0.19689941 0.10199127
0.85201323 0.19828424 0.10117513
0.85889393 0.19811538 0.10208008
0.86136574 0.19944254 0.10416996
0.84917033 0.20125227 0.10371572
0.85322422 0.20215565 0.10168355
0.85779208 0.20154727 0.10168085
0.86288542 0.20351499 0.10323131
0.86516374 0.20335975 0.10026454
0.85371208 0.20572181 0.10367823
0.8581391 0.20695055 0.10326094
0.86339152 0.20704217 0.10229328
0.86758131 0.20804101 0.10224834
0.8594383 0.21076441 0.10248514
0.86033392 0.21249469 0.101198
0.86899465 0.21183354 0.10345671
0.87202376 0.21166658 0.10161426
0.87730438 0.21280627 0.10229825
0.88643253 0.21097238 0.10027735
0.874533 0.21533655 0.10217785
0.88193065 0.21818827 0.10198697
0.88137406 0.22086105 0.10261191
0.88669664 0.22264932 0.10117802
0.87384832 0.22820866 0.10330103
0.87648803 0.22705345 0.1025123
0.88251162 0.22756688 0.10321177
0.88269246 0.23031107 0.10424111
0.8735007 0.25161159 0.10032467
0.4893747 -0.15254173 0.10584018
0.47374463 -0.14743823 0.10667028
0.47606793 -0.14847809 0.10810228
0.47299907 -0.14370038 0.10504394
0.48880625 -0.14335369 0.10577215
0.49283484 -0.14359768 0.10627041
0.49655432 -0.14090392 0.10636035
0.48423243 -0.13592651 0.10680158
0.48724127 -0.13144714 0.10853657
0.49143684 -0.13218193 0.10665644
0.50371134 -0.13403246 0.10592111
0.50888669 -0.13399503 0.10740863
0.48762631 -0.12823193 0.10923939
0.52022791 -0.12750217 0.10563759
0.50148857 -0.12088075 0.10651986
0.50947082 -0.12114336 0.10983659
0.51165646 -0.12180675 0.10654003
0.51769066 -0.12340186 0.10832806
0.52100021 -0.12236205 0.10587608
0.49899384 -0.11890521 0.10879189
0.50837946 -0.11714413 0.10847146
0.51192772 -0.1169559 0.1072496
0.52178085 -0.11583823 0.10870852
0.53678435 -0.11554886 0.10578442
0.48466721 -0.11331214 0.10996006
0.50835961 -0.11167756 0.10678631
0.51262581 -0.11333673 0.10635983
0.51723593 -0.11301729 0.10746499
0.52130562 -0.11456735 0.10890716
0.52638936 -0.11109443 0.10721445
0.53639126 -0.11083791 0.10552297
0.52413118 -0.10826318 0.10754713
0.52844745 -0.10815805 0.10596882
0.5318737 -0.10561153 0.10540202
0.53866154 -0.10686723 0.10713886
0.54180181 -0.10793768 0.10605218
0.5187366 -0.10084275 0.10751019
0.52401245 -0.1038265 0.10858078
0.52996469 -0.10159299 0.10805045
0.53148097 -0.10336932 0.10743795
0.53829199 -0.10129326 0.10806326
0.54102063 -0.10392775 0.10603211
0.51983297 -0.09914007 0.10782862
0.52240181 -0.097485453 0.10730217
0.52661502 -0.096777752 0.10668484
0.54272324 -0.096656419 0.10617875
0.5489291 -0.097453982 0.10676939
0.55363923 -0.096501008 0.10596964
0.52471554 -0.092341013 0.10839423
0.52685183 -0.092401236 0.10807497
0.54119647 -0.093268864 0.10520478
0.52762169 -0.088269792 0.10693741
0.54861438 -0.086829923 0.10767235
0.55172491 -0.088683978 0.10690141
0.55839711 -0.087484166 0.10724253
0.56122738 -0.087075606 0.10630664
0.5483703 -0.082673497 0.10586565
0.55685776 -0.084302776 0.10796043
0.56351596 -0.081216559 0.10739195
0.56623489 -0.08219561 0.10787001
0.53668034 -0.07738018 0.1077365
0.55488473 -0.076942123 0.10954195
0.55868381 -0.076515183 0.10812163
0.5620333 -0.079016253 0.10785204
0.56677645 -0.078067936 0.1089369
0.5725863 -0.078023545 0.10682256
0.57619268 -0.076728679 0.10511943
0.55428642 -0.074819162 0.10895158
0.55836761 -0.072014213 0.1098399
0.56203234 -0.073896982 0.1061031
0.56808287 -0.072987266 0.10593558
0.57241374 -0.073236637 0.10623898
0.55926937 -0.066397302 0.10879155
0.56228596 -0.066914387 0.10725784
0.56867409 -0.068903305 0.10720155
0.57316273 -0.066394649 0.10595752
0.57766557 -0.068444833 0.10778815
0.58379865 -0.066174999 0.1055341
0.54603434 -0.064953268 0.10981209
0.55899912 -0.062907867 0.10809745
0.56985933 -0.062495045 0.108229
0.57241958 -0.062584631 0.10730495
0.57741958 -0.061802141 0.1083762
0.58195835 -0.062277149 0.10599779
0.58846629 -0.061562166 0.10715932
0.56878179 -0.057528522 0.1078946
0.57187176 -0.057839207 0.10753766
0.57790869 -0.057686388 0.10694618
0.58272904 -0.057533741 0.10847042
0.58792382 -0.057042766 0.10770729
0.59218884 -0.056078497 0.10625019
0.59927231 -0.057726201 0.10544372
0.55981171 -0.052332997 0.10917783
0.56121397 -0.051986396 0.1089897
0.56912124 -0.054012828 0.10745271
0.57342905 -0.052916415 0.10769659
0.57608163 -0.05277551 0.10545535
0.58489162 -0.052407146 0.10974007
0.58744895 -0.050486676 0.10603081
0.59210765 -0.052032929 0.10686217
0.59618205 -0.051990271 0.10667055
0.60193449 -0.052688621 0.10678166
0.57342529 -0.048007961 0.10722389
0.58805496 -0.046813212 0.10742312
0.59271127 -0.048129063 0.10562239
0.59724331 -0.045852393 0.10901845
0.60176235 -0.047164962 0.10747063
0.60917944 -0.04858873 0.10620134
0.61003661 -0.049224347 0.10594039
0.59281975 -0.04357332 0.1092633
0.59866029 -0.043359853 0.10835047
0.60274172 -0.043939166 0.10781194
0.60926968 -0.041839637 0.10717426
0.61206532 -0.042209115 0.1061823
0.57913601 -0.038095448 0.10983889
0.59365207 -0.037011951 0.10939799
0.59676903 -0.036947742 0.10860184
0.60308981 -0.036886472 0.10642107
0.60781687 -0.036906276 0.1074978
0.61129314 -0.038820349 0.1053674
0.59451944 -0.03313119 0.10815581
0.59797275 -0.032187033 0.10782007
0.60144174 -0.031982683 0.10653898
0.60714054 -0.03235779 0.10762038
0.61264652 -0.03221726 0.1060538
0.61775166 -0.033490293 0.10569791
0.62233049 -0.031602304 0.10615061
0.59800309 -0.02838639 0.10703395
0.60389364 -0.028377181 0.10702775
0.60737741 -0.027878394 0.10616031
0.61425334 -0.026753327 0.10825484
0.61809576 -0.027489295 0.10750451
0.62295121 -0.028195575 0.10524581
0.59700459 -0.021073669 0.10529267
0.60424018 -0.023106892 0.10548437
0.60843259 -0.023283502 0.10578692
0.61356068 -0.022768192 0.10679498
0.61683851 -0.023362817 0.10585193
0.62298626 -0.023011481 0.10666043
0.60157686 -0.016064243 0.10819567
0.6093713 -0.0191378 0.10517178
0.61298138 -0.018218581 0.10701434
0.62283927 -0.016675031 0.10690166
0.62774211 -0.016618036 0.10712163
0.63438088 -0.016429478 0.10541709
0.63638175 -0.015890608 0.10545447
0.60220677 -0.013832855 0.10776929
0.60835022 -0.010836419 0.10956869
0.61236 -0.012517439 0.10667235
0.62354743 -0.013066068 0.10613593
0.62767023 -0.011700125 0.10809027
0.63338834 -0.012285031 0.10786981
0.63721937 -0.012004627 0.10695066
0.64324498 -0.01056466 0.10547519
0.6174596 -0.006802815 0.1074449
0.62376016 -0.0074889427 0.10536486
0.62902981 -0.0069153807 0.10753288
0.63358027 -0.0074437712 0.10768777
0.63727415 -0.0078410944 0.10691816
0.64291465 -0.0054159048 0.10688382
0.64769977 -0.0079270676 0.10521472
0.65148365 -0.008161515 0.10524178
0.62366015 -0.002962061 0.10690325
0.62875974 -0.0032860399 0.10777585
0.63320512 -0.0028344288 0.10832943
0.63786095 -0.0029765114 0.10686886
0.64278793 -0.0036714696 0.10726824
0.64757001 -0.00090794405 0.10673287
0.62419409 0.0015533451 0.1095592
0.62728781 0.0018017055 0.10625228
0.63336194 0.0024849225 0.10809152
0.63817883 0.0025386538 0.10706838
0.64277357 0.0016092493 0.1072742
0.64705735 0.0028684319 0.1093476
0.65393013 0.0022495971 0.10665414
0.6563949 0.0039813286 0.10748743
0.62338138 0.0065352935 0.10811228
0.62817162 0.0076787504 0.10778741
0.63317269 0.0074425228 0.10759316
0.63741231 0.0074156942 0.10785179
0.64188564 0.0083044292 0.10734254
0.64791256 0.0076019391 0.10773842
0.6543538 0.0089025302 0.10815634
0.65825844 0.0082164127 0.1078115
0.62872934 0.01107459 0.10828356
0.63136137 0.010591036 0.10579288
0.63849342 0.011059396 0.10916314
0.64336747 0.012271229 0.10809797
0.64781916 0.012910392 0.10714937
0.65391177 0.012385377 0.10811247
0.657821 0.011803159 0.10676191
0.66245234 0.012770051 0.1057843
0.64393175 0.017013859 0.10924464
0.64771646 0.017128292 0.10897937
0.65384442 0.017055128 0.10822912
0.65825433 0.01716849 0.10753796
0.66416061 0.017218722 0.10698815
0.6670658 0.017399793 0.10637375
0.65426171 0.021592934 0.10903068
0.65752906 0.022488125 0.10760416
0.6633904 0.022330865 0.10816473
0.6674996 0.022237828 0.1069535
0.67366797 0.022635793 0.10820992
0.65301347 0.027529409 0.10840227
0.6581555 0.026915686 0.10778614
0.66399384 0.027058825 0.10833529
0.66782016 0.026817383 0.10818364
0.67373717 0.02813297 0.1069832
0.67855513 0.027302006 0.10720275
0.68158829 0.027427521 0.10663144
0.65387154 0.032509722 0.10900874
0.65820163 0.032412354 0.1084578
0.66332442 0.03222302 0.1077558
0.66758078 0.032312829 0.10841558
0.67302358 0.032834649 0.10840327
0.67808259 0.03268059 0.1073121
0.68310767 0.032434043 0.10635307
0.65802866 0.035989095 0.10895405
0.66238004 0.036929902 0.10762934
0.66808003 0.037575416 0.10836057
0.6725648 0.037844613 0.10791556
0.67791808 0.037670568 0.10650919
0.68255329 0.038113173 0.10602844
0.68721253 0.038117371 0.10628396
0.69110024 0.038334116 0.10552558
0.66042662 0.04000967 0.10967243
0.66855901 0.04218879 0.10924285
0.67353231 0.041843724 0.107356
0.67755097 0.041991733 0.10637943
0.68355674 0.042113144 0.10628191
0.6881907 0.041754663 0.10620458
0.69312972 0.042727523 0.10705888
0.69821525 0.041474376 0.10683746
0.70217556 0.043538939 0.10802127
0.67361879 0.04516219 0.10760913
0.67826396 0.046781823 0.10773587
0.68331861 0.047073122 0.10733384
0.68847984 0.047234137 0.10668509
0.6927501 0.047265016 0.1059785
0.69856411 0.047452871 0.10762395
0.70224237 0.046791602 0.10695976
0.67828321 0.050284293 0.10814682
0.68226349 0.051779546 0.1078801
0.68800926 0.051827393 0.10657869
0.69335347 0.052242726 0.10736673
0.69801164 0.052107941 0.10709615
0.70090687 0.051464438 0.10577966
0.68378556 0.056974433 0.10832608
0.68842423 0.057379879 0.10750588
0.6935392 0.057624128 0.10713083
0.69832891 0.057911608 0.10726457
0.701886 0.05808451 0.10697492
0.70770776 0.058796085 0.10806377
0.68855512 0.061011158 0.10862973
0.69245684 0.061075293 0.10672618
0.69888264 0.061082143 0.10768694
0.70354873 0.062271271 0.10856309
0.70845854 0.062073682 0.10818233
0.71252781 0.06184271 0.1066642
0.71739161 0.063034609 0.10649624
0.72171748 0.062930569 0.10593883
0.69967049 0.067144863 0.10830652
0.70348054 0.067427598 0.10805304
0.7086302 0.067145176 0.10826186
0.71294951 0.06756781 0.1080303
0.71672243 0.0678389 0.10670681
0.72345066 0.067412324 0.10634066
0.70412701 0.072743461 0.10911635
0.70842189 0.07219027 0.10782342
0.71314371 0.072224222 0.10759997
0.71655029 0.071287744 0.10659756
0.72258759 0.072373986 0.10673019
0.73332256 0.071947351 0.10705654
0.70441043 0.077323295 0.10891795
0.71272534 0.076186381 0.10710084
0.71720904 0.078323603 0.1073103
0.72182381 0.078407288 0.10568545
0.72881687 0.077152655 0.10705746
0.73288882 0.07696376 0.10840181
0.73615682 0.078775518 0.10781918
0.70472109 0.080778621 0.10967817
0.71475279 0.08292494 0.10697567
0.71797574 0.083281234 0.1070559
0.723306 0.082998171 0.106405
0.7281993 0.083364986 0.10786531
0.73306561 0.082304232 0.10807065
0.73745203 0.083519369 0.10676324
0.74259412 0.082947396 0.10832155
0.74756038 0.082149558 0.10642087
0.70668769 0.086437479 0.10939384
0.71344423 0.08695478 0.1092776
0.71835196 0.086966343 0.10879458
0.72341657 0.087589331 0.10778644
0.72834069 0.087008141 0.10672691
0.73279482 0.08715824 0.10694685
0.73831236 0.087348677 0.10798541
0.74200928 0.087729231 0.10620278
0.74601853 0.088155925 0.10552555
0.75179678 0.089977659 0.10751589
0.71482885 0.091811217 0.10993645
0.71848023 0.091091141 0.10977258
0.72416288 0.091989689 0.10966031
0.7283687 0.09195257 0.10775322
0.732283 0.092257515 0.10660787
0.73804438 0.091528371 0.10889804
0.74172157 0.092260644 0.1077147
0.74712133 0.091126695 0.10639782
0.75656122 0.094592296 0.10682458
0.72885913 0.097514659 0.1076382
0.73282212 0.096925348 0.10704353
0.7377218 0.097528674 0.10873795
0.74356371 0.097575717 0.10816983
0.74695784 0.097793505 0.10661878
0.75316983 0.096422769 0.10643678
0.75753725 0.098052993 0.10630032
0.73791599 0.10116645 0.1094012
0.74404675 0.10183994 0.10831709
0.74802566 0.10233576 0.10795003
0.75344706 0.10247304 0.10640755
0.75618786 0.10131544 0.1063294
0.76075739 0.104556 0.10612629
0.73218876 0.10587037 0.10890784
0.73944062 0.10648736 0.10906037
0.74193543 0.1072745 0.10743327
0.74826127 0.10681544 0.10867844
0.7522949 0.10729216 0.10783322
0.7580415 0.10835006 0.10684018
0.76215327 0.10652976 0.10651186
0.7729587 0.10874002 0.10733081
0.74394423 0.11273479 0.10777504
0.74815148 0.11230209 0.10829756
0.75353605 0.11207769 0.10615294
0.75808573 0.11183151 0.10689611
0.763111 0.11274437 0.10652599
0.76763052 0.11300772 0.10640468
0.77235329 0.11387189 0.10655189
0.74856216 0.11646008 0.10876361
0.7534734 0.11749157 0.10680787
0.75825119 0.11691198 0.10798088
0.76393235 0.11730915 0.10731418
0.76619512 0.11682431 0.10660261
0.77391219 0.11862791 0.10780586
0.77630436 0.11875337 0.10886371
0.78232533 0.11957171 0.10719049
0.74998099 0.12382261 0.10865006
0.75260383 0.12212599 0.10688745
0.75905991 0.12146874 0.10929959
0.76468331 0.12287831 0.10696799
0.76827031 0.1226306 0.10741226
0.7737242 0.12418133 0.10764658
0.77830464 0.12054823 0.10797271
0.78220785 0.12331882 0.10724613
0.78820515 0.12355026 0.10571677
0.75744861 0.12685639 0.1073524
0.76413774 0.1269813 0.1075711
0.76794493 0.1272192 0.10770321
0.771873 0.12928662 0.10903867
0.77815342 0.12728235 0.10746311
0.78215152 0.12848213 0.10722278
0.78795308 0.12691382 0.10761808
0.76378691 0.13057688 0.10914165
0.7684859 0.13181677 0.10953822
0.77302474 0.13272302 0.10817397
0.77850115 0.13213831 0.10869029
0.78344089 0.13130663 0.10696082
0.78869992 0.13232233 0.10697946
0.79203284 0.13314134 0.10725293
0.77323061 0.13714172 0.10767361
0.77841175 0.13701272 0.10710478
0.78342843 0.13659786 0.10760903
0.78836435 0.13675939 0.10773306
0.79241586 0.13692108 0.10714207
0.79725951 0.13902731 0.10773161
0.77787453 0.14213894 0.10665613
0.78342068 0.14160784 0.10782782
0.78837919 0.14101738 0.10784461
0.79398018 0.14219159 0.10772532
0.79736793 0.14301327 0.10815928
0.77713048 0.14717439 0.1076944
0.78255481 0.14641669 0.10762114
0.78765655 0.14818227 0.1072154
0.79268438 0.14742225 0.10751183
0.79804927 0.14676225 0.10881213
0.80291748 0.14751939 0.10844202
0.80776215 0.14788766 0.10729714
0.81239074 0.14807135 0.10657277
0.7827574 0.15221222 0.10721457
0.78828853 0.15201105 0.10780071
0.79193872 0.15294649 0.10626687
0.79857802 0.15314139 0.10820396
0.80277175 0.15228102 0.10931571
0.8072421 0.15253861 0.10799927
0.81210804 0.15353611 0.10790209
0.81653011 0.153134 0.1073766
0.78856909 0.15630238 0.10870474
0.79382205 0.1570926 0.10767407
0.79829979 0.15698607 0.10641982
0.80317432 0.15681057 0.10833238
0.8081761 0.15703075 0.10806558
0.81297284 0.15736659 0.1075531
0.81705511 0.15734458 0.10664435
0.78805327 0.16101384 0.10925923
0.79314899 0.16162267 0.10882039
0.79831004 0.16197488 0.10786786
0.80239058 0.16219728 0.10788231
0.80817086 0.16118351 0.10775281
0.81289822 0.16246648 0.1079635
0.81846952 0.16207203 0.10663295
0.82221854 0.16310963 0.10837705
0.7987504 0.16682833 0.10860042
0.80361748 0.16721752 0.10665773
0.80821967 0.1690042 0.10915318
0.81423485 0.16862468 0.10934772
0.81795341 0.16741502 0.10785801
0.82200843 0.16613401 0.10859346
0.8034417 0.17170757 0.10738234
0.80751044 0.17158931 0.10704142
0.81235009 0.17132029 0.10832411
0.81845421 0.17243792 0.10892177
0.82405448 0.17279434 0.10731035
0.82705057 0.17404917 0.10861161
0.83043653 0.17410231 0.1060444
0.79969203 0.17732272 0.10968888
0.8079325 0.1771293 0.10871532
0.81120092 0.17661592 0.10663451
0.81821948 0.17722397 0.10806523
0.82330871 0.17758988 0.10791734
0.82833558 0.17818357 0.10675742
0.83118659 0.17623338 0.10694267
0.8071087 0.18067591 0.10973328
0.81235039 0.18211445 0.10869858
0.81787723 0.18183425 0.10700558
0.82332534 0.18175271 0.10774688
0.82762212 0.18279509 0.10832258
0.83172059 0.18320449 0.10896567
0.83866107 0.18154904 0.1078033
0.84163713 0.18269283 0.10737981
0.81734294 0.18543132 0.10742685
0.82402331 0.18697463 0.10859507
0.82722735 0.18715753 0.1074558
0.83282691 0.18652295 0.10772474
0.83717382 0.18815136 0.1073495
0.84425431 0.18734147 0.10578859
0.82481039 0.19039696 0.10995197
0.8280431 0.19200848 0.10910282
0.83332217 0.1910924 0.10889417
0.83749151 0.19222078 0.10735897
0.84328532 0.19294928 0.10781242
0.84730446 0.1935719 0.10933963
0.82754922 0.19763452 0.10695958
0.83151352 0.19881782 0.10705279
0.83838302 0.19757517 0.10615515
0.84155828 0.19667603 0.10876666
0.84738892 0.19842014 0.10823099
0.85288161 0.19742338 0.1079096
0.85697985 0.19797599 0.10589018
0.83610725 0.20033251 0.10658563
0.84269929 0.20144679 0.10810822
0.84783524 0.20281932 0.10846996
0.85277098 0.20273076 0.10755915
0.85711992 0.20281056 0.10574101
0.83855885 0.20869207 0.10946319
0.84448433 0.20755175 0.10965083
0.84823197 0.20752184 0.10927578
0.85259753 0.20679334 0.10880756
0.8586027 0.20667768 0.10842948
0.86096787 0.20657921 0.10755723
0.83900988 0.21231639 0.10921489
0.848638 0.21178742 0.10797846
0.85318345 0.21087238 0.10878889
0.85849178 0.21177112 0.10937104
0.86375725 0.21131916 0.10546421
0.86602867 0.21421696 0.10542682
0.84225875 0.2158083 0.10874297
0.84795153 0.21665144 0.1084015
0.85414141 0.21638377 0.1090669
0.85725129 0.21703196 0.1089156
0.85446167 0.22240992 0.10950489
0.85766244 0.22226647 0.10634626
0.87452459 0.22578266 0.10674262
0.87748575 0.22743838 0.10751744
0.86774123 0.2343419 0.10941871
0.87375176 0.23119524 0.10977953
0.87237722 0.24128497 0.10874448
0.86640775 0.24678501 0.10853998
0.47526655 -0.14804743 0.11003297
0.47369814 -0.14403023 0.11180281
0.47441748 -0.13544929 0.11006256
0.47779092 -0.13205299 0.11099651
0.48758668 -0.13293409 0.11175323
0.47924575 -0.12809813 0.11277845
0.47866035 -0.12171453 0.11318623
0.48292241 -0.1200632 0.11304088
0.48924741 -0.1224998 0.11219623
0.49782926 -0.12283541 0.11276205
0.5008074 -0.12312755 0.11143752
0.50991285 -0.12127751 0.11084226
0.47954625 -0.11892931 0.11332542
0.48273057 -0.11715895 0.11306764
0.48930827 -0.11781997 0.11095255
0.49286273 -0.11725113 0.11120487
0.49759024 -0.11739659 0.1120298
0.50225699 -0.11652679 0.11273503
0.50928283 -0.11723487 0.11225925
0.51471531 -0.11648154 0.11232394
0.51975411 -0.11544599 0.11017346
0.48282138 -0.11266107 0.11279049
0.49449581 -0.11379758 0.11372347
0.49993861 -0.11454456 0.11243937
0.50267929 -0.11423707 0.11264886
0.50634646 -0.11246525 0.11194101
0.51722395 -0.11295611 0.11097523
0.50704432 -0.10884262 0.11306255
0.51830882 -0.10732667 0.1124303
0.51787037 -0.10260034 0.1138406
0.52879053 -0.10235367 0.11063805
0.53058153 -0.10469274 0.11055209
0.51358116 -0.099722698 0.1136317
0.51907849 -0.099893048 0.11495597
0.52296269 -0.096395895 0.11174546
0.52902001 -0.096054003 0.1104628
0.52399677 -0.092755415 0.11060314
0.52580857 -0.091649204 0.11460912
0.53202707 -0.091999866 0.11334597
0.51774168 -0.086470202 0.11381833
0.52439463 -0.0882698 0.11396725
0.52731228 -0.08773645 0.1121712
0.53244328 -0.085691437 0.1122131
0.52385986 -0.083718717 0.11467922
0.52863818 -0.08184348 0.1136126
0.53282911 -0.082307838 0.11203841
0.55755532 -0.081166886 0.11087042
0.56271577 -0.081164539 0.1101963
0.52750266 -0.078243963 0.11333512
0.53254795 -0.077794984 0.11184402
0.54433149 -0.075894594 0.11312848
0.54731774 -0.077323869 0.11181239
0.55442697 -0.078454882 0.11027924
0.55610329 -0.079171479 0.1103404
0.53746432 -0.072859183 0.11105128
0.54325449 -0.072490305 0.1128182
0.5479849 -0.073005304 0.11138539
0.5523001 -0.071905173 0.11040536
0.55764484 -0.071649753 0.11092988
0.56653899 -0.072499476 0.11121657
0.54261833 -0.067241706 0.11391765
0.55259579 -0.067418762 0.11231008
0.5577535 -0.067503482 0.11134112
0.56355 -0.06841743 0.11176232
0.56596369 -0.068622969 0.11089694
0.54818273 -0.063780516 0.11315892
0.55312675 -0.062792815 0.11246072
0.55815476 -0.062194627 0.11246496
0.56260276 -0.061792303 0.11360717
0.56929892 -0.061471891 0.11232021
0.57190025 -0.063148357 0.11163305
0.5464071 -0.056369025 0.11408672
0.55388439 -0.058790673 0.11409567
0.55804247 -0.057152335 0.11302625
0.56160754 -0.058025531 0.11243083
0.56864709 -0.058478326 0.11202918
0.57330197 -0.057194613 0.11198818
0.57756162 -0.057893343 0.11064146
0.58333373 -0.055946637 0.11084364
0.55406058 -0.05183259 0.11386371
0.55796182 -0.052920263 0.11217523
0.56260961 -0.052711371 0.11215824
0.56861115 -0.052120671 0.11335547
0.57202965 -0.052468535 0.11152772
0.57714474 -0.053120114 0.11275041
0.58207262 -0.05248848 0.11222379
0.55740094 -0.04781419 0.11288729
0.56258583 -0.047540605 0.11208005
0.56829613 -0.047674611 0.11226586
0.57251281 -0.047403067 0.11192616
0.57741892 -0.048343137 0.11169408
0.58245003 -0.047294259 0.11157757
0.58654678 -0.046827372 0.1116818
0.59603441 -0.04752548 0.1107296
0.57445753 -0.044189472 0.11352468
0.57829678 -0.043814402 0.11412151
0.58281392 -0.042824812 0.11392149
0.58828223 -0.041745901 0.11081739
0.59338713 -0.041054606 0.1102105
0.59755504 -0.04180894 0.11042706
0.60249126 -0.042657673 0.11138974
0.57295346 -0.039884053 0.11126249
0.5776602 -0.03717339 0.11237751
0.58248943 -0.036956206 0.11138656
0.58772045 -0.037322626 0.11283883
0.59339607 -0.037259668 0.11161929
0.59716046 -0.037870795 0.11187301
0.6042735 -0.036290973 0.11339377
0.6064558 -0.037169755 0.11094871
0.58241582 -0.03231797 0.11262462
0.58658153 -0.033010893 0.11231159
0.59402591 -0.032502498 0.1146286
0.59667993 -0.031814642 0.11305302
0.60189462 -0.032082591 0.11353932
0.60737073 -0.033129398 0.11152005
0.61258793 -0.033888932 0.11064747
0.58300155 -0.028807728 0.11196693
0.58788288 -0.026944095 0.11417033
0.59431225 -0.02659112 0.11280221
0.59674937 -0.027419265 0.1126638
0.60383707 -0.028045028 0.11279772
0.6076569 -0.027044496 0.11427753
0.61248529 -0.028050955 0.11235765
0.5848372 -0.022833494 0.1136735
0.58745295 -0.022921773 0.11229595
0.59288615 -0.024165126 0.11218578
0.60151833 -0.020775301 0.1134187
0.60731751 -0.021427441 0.11268518
0.61392993 -0.024096582 0.11179677
0.61815548 -0.022832472 0.1117951
0.623169 -0.022268945 0.11117288
0.59888053 -0.01709584 0.11245614
0.60276026 -0.018139724 0.11122116
0.60816973 -0.01752945 0.11140323
0.61164719 -0.017602691 0.11123715
0.59834307 -0.012950339 0.11205484
0.60259932 -0.011238057 0.11051774
0.60762 -0.013184609 0.11016472
0.61284453 -0.014534825 0.11005602
0.61858338 -0.012593877 0.11230237
0.62839079 -0.01100908 0.11201749
0.63282323 -0.011487392 0.11150131
0.59921271 -0.0093739806 0.1140342
0.60277921 -0.0078710141 0.11227041
0.60783654 -0.0069129742 0.1125629
0.6139704 -0.0085194996 0.11404666
0.61598313 -0.0066993907 0.11296765
0.62418026 -0.0080511626 0.11289193
0.62780362 -0.0078030825 0.11086468
0.63249427 -0.0085064173 0.11078484
0.60534811 -0.0035786643 0.11430268
0.61476409 -0.0039824084 0.11468881
0.61706287 -0.0026385828 0.11310511
0.6225068 -0.0024143897 0.11245124
0.62755096 -0.0025190818 0.11206168
0.63217449 -0.0019924038 0.11196367
0.63708639 -0.0012774616 0.11212142
0.61742514 0.0020254545 0.11244082
0.62416571 0.0024802058 0.11343224
0.62858945 0.0027872736 0.11211453
0.63247669 0.0027355584 0.11068302
0.63767743 0.0024198948 0.11091653
0.62455672 0.00649274 0.11356718
0.62792337 0.0067813485 0.11260798
0.63344795 0.0077829612 0.11285248
0.63811052 0.0064307004 0.11109481
0.64307517 0.0073146732 0.11211343
0.6466459 0.0073711192 0.11188249
0.65063292 0.006152235 0.11093158
0.62712568 0.011272141 0.11258668
0.63378888 0.012733438 0.11196315
0.63756472 0.012435178 0.1128391
0.64242059 0.01208164 0.11131694
0.6480931 0.012108856 0.11191358
0.65196812 0.012546606 0.11102603
0.63244379 0.015962567 0.11373522
0.63936317 0.016837271 0.11288967
0.64327979 0.018081812 0.1131443
0.64955181 0.017264279 0.1113559
0.65189487 0.017819775 0.1118261
0.65647817 0.016392399 0.11078008
0.6388222 0.020995332 0.11374077
0.64311892 0.021482972 0.11372006
0.64880383 0.0227718 0.11409409
0.65286887 0.022423109 0.11209109
0.6574887 0.022635955 0.11115481
0.64374954 0.025524948 0.11403535
0.64946324 0.027455809 0.11452198
0.65331036 0.027238743 0.11295906
0.65712124 0.027544862 0.11119994
0.6625452 0.027628014 0.11088238
0.67186338 0.027428463 0.1112956
0.64921725 0.032062288 0.1134844
0.65201914 0.032067094 0.11222519
0.65803993 0.031538885 0.11113707
0.66212583 0.03171235 0.11206406
0.66863078 0.032414824 0.11257972
0.67334092 0.03262854 0.11150673
0.64937431 0.03711585 0.11359057
0.65267056 0.037327565 0.11235154
0.65779042 0.037403457 0.11162569
0.66238993 0.038887683 0.11054311
0.66719353 0.037281651 0.11172669
0.67300737 0.037846766 0.11277337
0.67695868 0.038592521 0.11280353
0.64877009 0.040087201 0.11461312
0.65411693 0.04145284 0.11335355
0.65809864 0.042019941 0.11219927
0.66409522 0.04304276 0.11263756
0.66633713 0.044542797 0.11151622
0.67362189 0.042345334 0.11263337
0.67709738 0.042857569 0.11166662
0.68253762 0.042662494 0.11096002
0.68926263 0.042898554 0.11141041
0.66455019 0.046974469 0.11355826
0.66687495 0.046882872 0.11194224
0.6736694 0.047433797 0.11320763
0.67581224 0.047606867 0.11183039
0.68322587 0.047331616 0.11207335
0.68805897 0.04684395 0.11166237
0.6923871 0.046567254 0.11099508
0.66482985 0.051761281 0.1145586
0.66710711 0.052961357 0.11380847
0.67669147 0.053578705 0.11404468
0.68202698 0.053118266 0.11247715
0.6881817 0.052869339 0.11296168
0.69179809 0.052354906 0.1123428
0.70209008 0.051857606 0.11048275
0.67386866 0.056066241 0.11492083
0.6785515 0.056244958 0.11361223
0.68214762 0.05720719 0.11231718
0.68814111 0.058654428 0.11342899
0.69211817 0.055450171 0.11364657
0.69721138 0.058487892 0.1112631
0.67897856 0.061083149 0.11449356
0.68364662 0.061793692 0.11344109
0.68786722 0.062808685 0.11273897
0.69387859 0.06209043 0.11210301
0.69727314 0.062674724 0.11275294
0.70277971 0.061082546 0.11334927
0.70733839 0.06137548 0.1108785
0.68393767 0.0662193 0.11498708
0.68869328 0.066918746 0.11331648
0.69205141 0.067082316 0.11123725
0.69845313 0.066875279 0.1107906
0.70273423 0.067644045 0.11287257
0.70724982 0.067179859 0.11280338
0.71446741 0.069374874 0.11191039
0.68826497 0.070990831 0.11464632
0.69320291 0.070816077 0.11460713
0.6996488 0.07291054 0.11313841
0.70225 0.073321059 0.11183313
0.70752132 0.073061123 0.11242857
0.69353205 0.076016523 0.1146405
0.69873774 0.077336803 0.11344552
0.70229059 0.077021226 0.11212578
0.70795846 0.077920407 0.11190674
0.71244562 0.078804508 0.11106889
0.72390562 0.078351468 0.11249812
0.72824484 0.078389496 0.11099461
0.69872999 0.080867462 0.11368468
0.70219254 0.082927972 0.11287861
0.70840007 0.082116961 0.11361239
0.71301979 0.081980266 0.1124255
0.71825862 0.082653381 0.11216152
0.72225112 0.083416484 0.11187222
0.72822493 0.083636723 0.11230463
0.73294276 0.084697224 0.11143892
0.70355177 0.086913586 0.1131015
0.7074725 0.087062545 0.11219291
0.71344733 0.087053947 0.11312357
0.71783155 0.087675273 0.11249321
0.72291529 0.087419406 0.1127881
0.72704571 0.087241396 0.11221023
0.73341858 0.088462681 0.11224359
0.7375986 0.088060677 0.11127438
0.70836943 0.092385747 0.11200935
0.71295023 0.091709495 0.1118888
0.71828765 0.092118599 0.11151934
0.72267592 0.092531778 0.11157801
0.72697496 0.092425577 0.11267734
0.73281813 0.092440166 0.1124979
0.73809087 0.092342101 0.11134117
0.70946896 0.09680672 0.11490017
0.71334618 0.096808098 0.11312631
0.71789813 0.097971022 0.11414278
0.72346908 0.096052788 0.11330415
0.72803539 0.097285524 0.1127358
0.73367476 0.097007059 0.11183713
0.73825967 0.09715765 0.11228651
0.71880198 0.10096693 0.11476539
0.72278219 0.10101017 0.114085
0.72835642 0.10130634 0.11373294
0.73240346 0.102042 0.11258117
0.73850751 0.10260859 0.11338798
0.74228317 0.10249636 0.11205199
0.72957563 0.10772964 0.11333384
0.73254967 0.10686897 0.11174115
0.73778754 0.10664223 0.11309149
0.74254072 0.10753812 0.11317009
0.74712086 0.10811786 0.11257794
0.72282088 0.11075663 0.11495751
0.729361 0.11133855 0.11324415
0.73339558 0.11242889 0.11333904
0.73769599 0.11159834 0.11349402
0.74273413 0.11225718 0.11299298
0.74739683 0.11263303 0.11080785
0.75130886 0.11188697 0.11262323
0.73385864 0.11706682 0.1141635
0.73880041 0.11756022 0.11425425
0.74233425 0.11736567 0.11317033
0.748586 0.11804986 0.11238259
0.75164574 0.11868735 0.11224459
0.75761974 0.11869632 0.11351421
0.76323289 0.11908791 0.111473
0.73380816 0.12093672 0.1149819
0.73887712 0.12231154 0.1145542
0.74271911 0.12193062 0.11305875
0.74838483 0.12212591 0.11320877
0.75226086 0.12160024 0.11205832
0.75823754 0.12217838 0.11182672
0.76344103 0.12263352 0.11234698
0.7664963 0.1225885 0.11155002
0.77140051 0.12379832 0.11169001
0.73778188 0.12701002 0.11422841
0.74345541 0.12677571 0.11335917
0.74826443 0.12705669 0.113493
0.7525382 0.12618604 0.11325991
0.75844735 0.12773187 0.11267868
0.76332277 0.12717924 0.11298493
0.76664293 0.12885392 0.11201489
0.77246141 0.12744659 0.1114496
0.75386596 0.13107091 0.11334787
0.75712568 0.13173033 0.11391938
0.76287991 0.1315171 0.11309843
0.76752883 0.13264854 0.11290632
0.77196807 0.13241008 0.11304259
0.7766124 0.13305835 0.11364891
0.74823487 0.1352009 0.11483071
0.75789964 0.13770218 0.11428931
0.76461381 0.13796847 0.11499029
0.76847708 0.13720223 0.11341291
0.77052754 0.13660684 0.11107133
0.77810568 0.13792224 0.11252872
0.76382655 0.14103311 0.11497857
0.76830631 0.14201531 0.1136633
0.77148664 0.14320257 0.11259355
0.77614647 0.14474106 0.11204076
0.78336716 0.1416091 0.11190479
0.78668964 0.14278579 0.11027183
0.7673434 0.14688514 0.11477504
0.77430695 0.14635788 0.11347344
0.77741623 0.14804369 0.11304251
0.78261304 0.14843586 0.11184954
0.78774643 0.14894007 0.11299489
0.79222935 0.14813702 0.11158549
0.79927504 0.14831939 0.11161785
0.8013739 0.14840218 0.1115229
0.76463604 0.15443824 0.11457936
0.76686996 0.15369081 0.11387753
0.77421868 0.1522 0.11400302
0.77729052 0.15182459 0.11327996
0.78350484 0.15295462 0.11273466
0.78629369 0.15196808 0.11201038
0.79916406 0.15148211 0.11098041
0.8027541 0.15124705 0.1123689
0.77394402 0.15584452 0.11454163
0.77801543 0.15624218 0.11312509
0.78295124 0.15736531 0.11287209
0.78684616 0.15722246 0.11279568
0.79231071 0.15849489 0.11177055
0.79941666 0.15594837 0.11232745
0.78402621 0.16223258 0.11357657
0.78813756 0.16210879 0.11267352
0.79200816 0.16215272 0.11217267
0.79692179 0.16339721 0.11242821
0.8039124 0.16088188 0.11227789
0.80587965 0.16206035 0.1129525
0.81457096 0.16418615 0.11285414
0.81592655 0.1642656 0.11198593
0.77852565 0.16777413 0.11484957
0.78432608 0.16661817 0.11263134
0.78795367 0.16636799 0.11311362
0.7919808 0.16836514 0.11380623
0.79756832 0.1678845 0.11298754
0.80372989 0.16644579 0.11071587
0.80867237 0.16845143 0.11195432
0.81237376 0.16817258 0.11275978
0.81782657 0.16761279 0.11214888
0.82083976 0.16648304 0.1116524
0.78485858 0.17239714 0.11486586
0.78705436 0.17224178 0.11305163
0.79686207 0.17272416 0.11274618
0.80276763 0.17332451 0.11292014
0.80835879 0.17258652 0.11250784
0.81454331 0.17281497 0.11421593
0.81725693 0.17263079 0.11232905
0.82294589 0.17221463 0.11209799
0.79359549 0.1768636 0.11458679
0.79806817 0.17753175 0.11349025
0.80329961 0.17708834 0.11338801
0.80824804 0.17716964 0.111662
0.81263494 0.17745666 0.11111984
0.81658447 0.17718609 0.11341932
0.82360023 0.17672132 0.11147029
0.79401207 0.18159138 0.11449056
0.79810774 0.18200521 0.1122014
0.8024987 0.18082933 0.11338048
0.80816108 0.18302859 0.11290756
0.81288236 0.18204246 0.1129216
0.81946129 0.18364647 0.1137249
0.82241851 0.1828219 0.11355237
0.82975006 0.18285811 0.11160456
0.83264953 0.18169191 0.1105986
0.80919445 0.18542756 0.11212538
0.81235421 0.1872922 0.11334475
0.81834298 0.18728714 0.11216624
0.82210183 0.18773495 0.11237183
0.80804205 0.19196279 0.11497744
0.81349611 0.19109425 0.11356689
0.81882358 0.19264898 0.11304215
0.82312608 0.19252136 0.11233012
0.82734585 0.19261965 0.11193439
0.83336914 0.19166359 0.11013728
0.83806711 0.19397327 0.11463081
0.81847841 0.19718589 0.11396018
