# .PCD v0.7 - Point Cloud Data file format
VERSION 0.7
FIELDS x y z
SIZE 4 4 4
TYPE F F F
COUNT 1 1 1
WIDTH 1449
HEIGHT 1
VIEWPOINT 0 0 0 1 0 0 0
POINTS 1449
DATA ascii
0.49268997 0.23608333 0.031316735
0.49067929 0.23600411 0.031406097
0.4888469 0.23595989 0.031648334
0.51069874 0.23625633 0.032367494
0.50883114 0.23604468 0.03262588
0.50683492 0.23615548 0.032697394
0.50483876 0.23626629 0.032768913
0.50284255 0.23637706 0.032840431
0.50082308 0.23629844 0.032929294
0.49879774 0.23615652 0.033023987
0.49678898 0.23614091 0.033107009
0.49478132 0.23612514 0.033189997
0.49276802 0.23604622 0.033278625
0.49074998 0.23590401 0.033373073
0.48873419 0.23576149 0.033467408
0.48725605 0.23578784 0.034015361
0.5104264 0.23616952 0.03402612
0.5089426 0.23619586 0.034576181
0.50694472 0.23630676 0.034647763
0.50493228 0.23647448 0.034222946
0.50294107 0.23646539 0.034796551
0.50092024 0.23638695 0.034884766
0.4988935 0.23624521 0.03497839
0.49687606 0.2361666 0.035066385
0.49485341 0.23602465 0.035159886
0.49283284 0.23588267 0.035253301
0.4908081 0.2356773 0.035352085
0.48879224 0.235535 0.03544534
0.48680204 0.23564547 0.035516635
0.48532388 0.23567176 0.036064599
0.50083816 0.23644015 0.03668851
0.49898919 0.23633358 0.036935404
0.49697033 0.23625511 0.037022784
0.4949463 0.23611337 0.037115231
0.4929111 0.23584533 0.037218086
0.49087912 0.23557699 0.037320673
0.4888688 0.23549798 0.037407734
0.48686603 0.23548222 0.037489466
0.48504055 0.23550132 0.037724741
0.49905533 0.23635238 0.03840873
0.49705756 0.23628026 0.038986791
0.49504644 0.23626491 0.039068259
0.49302295 0.23612323 0.039159596
0.4909758 0.23572904 0.039270688
0.48895767 0.23558715 0.039361872
0.48695338 0.23557141 0.039443117
0.48495048 0.23555562 0.039524265
0.48294836 0.23553976 0.039605424
0.48148003 0.23569241 0.040143743
0.4966163 0.2362636 0.040483706
0.49496114 0.23631805 0.04087428
0.49312124 0.23627463 0.04111487
0.49109817 0.23613313 0.041205127
0.48906511 0.23586527 0.041304633
0.48704696 0.23572353 0.041394714
0.48503655 0.23564473 0.041480012
0.48303851 0.23569211 0.041555956
0.49267888 0.236258 0.042612385
0.49118868 0.23622128 0.043166939
0.48915407 0.23595369 0.043264881
0.48712277 0.23568583 0.043362692
0.48511147 0.23560733 0.043447174
0.48310751 0.23559153 0.043527313
0.48160237 0.23554826 0.043589585
0.49075389 0.23608461 0.045165882
0.48922467 0.23585254 0.045240257
0.48719865 0.23564813 0.045332253
0.48518103 0.23550656 0.045420155
0.48316556 0.23536482 0.045507982
0.49079758 0.23591417 0.046655022
0.48930153 0.23581439 0.047212813
0.48727453 0.23561013 0.047303632
0.48525608 0.23546869 0.047390454
0.48323974 0.23532709 0.047477219
0.48172885 0.23522097 0.047542322
0.48936588 0.23565015 0.049194269
0.48734459 0.23550898 0.049280114
0.48533115 0.23543072 0.049362238
0.48331937 0.23535237 0.049444474
0.48131436 0.23533696 0.049523011
0.48925889 0.23551381 0.05101664
0.48741469 0.23540768 0.051257685
0.48540077 0.23532954 0.051339038
0.483383 0.23518834 0.051423661
0.48137751 0.23517308 0.051501684
0.47986194 0.23500404 0.051568337
0.48749071 0.23536924 0.05323324
0.48545894 0.23510236 0.053322919
0.48344123 0.23496124 0.05340647
0.48142558 0.23482016 0.053489976
0.47943625 0.23499376 0.053558476
0.47698054 0.23539048 0.054128654
0.48704952 0.2351695 0.055236652
0.48552856 0.23500097 0.05530148
0.48349941 0.23473421 0.055389293
0.48148882 0.23465604 0.055469029
0.47949928 0.23482975 0.055537708
0.47802201 0.23516464 0.05558043
0.48559812 0.23489958 0.057280824
0.48356825 0.23463297 0.057367168
0.48155722 0.23455492 0.057446111
0.47956225 0.23466566 0.057517581
0.47758126 0.23496526 0.057581663
0.47575679 0.23504785 0.057812467
0.47410348 0.23510236 0.058202617
0.48566192 0.23473513 0.059263684
0.48364276 0.23459443 0.059344001
0.48164105 0.23464236 0.059417807
0.47964007 0.23469025 0.059491437
0.47763944 0.23473814 0.059565023
0.47564381 0.23484889 0.059636515
0.47347051 0.23469824 0.059887752
0.47215053 0.23473418 0.060265779
0.47014162 0.23459303 0.060345478
0.48555452 0.2345987 0.061087422
0.48372808 0.23468143 0.061318491
0.4817251 0.23472947 0.061392061
0.47972259 0.23477751 0.061465599
0.47771156 0.23469967 0.061542764
0.4757064 0.23468471 0.061618052
0.47370237 0.2346696 0.061693326
0.47186661 0.23456341 0.06192958
0.47961923 0.23470405 0.063287675
0.47778821 0.23472396 0.063520446
0.47577757 0.23464611 0.063596785
0.4737727 0.23463118 0.063671656
0.47176516 0.23455322 0.063747883
0.46974513 0.2342236 0.063830532
0.46772552 0.23383075 0.063914709
0.46591687 0.23416495 0.064138748
0.46361405 0.23479778 0.06420958
0.46229407 0.23483366 0.064587608
0.45760557 0.23428968 0.064443924
0.45561239 0.23431626 0.0645172
0.45429313 0.23426813 0.064896509
0.47767967 0.23458752 0.065344766
0.47584891 0.23460749 0.065577261
0.47384718 0.23465541 0.06565024
0.47184247 0.23464054 0.065724418
0.46982792 0.23443699 0.06580247
0.4678162 0.2342332 0.065880544
0.46582514 0.23440674 0.06595061
0.46383902 0.23470628 0.066018283
0.46184155 0.234754 0.066090941
0.4598316 0.23442405 0.066171221
0.45782727 0.23415682 0.066250294
0.45583105 0.23407829 0.066325285
0.45383915 0.23412576 0.066397771
0.4518635 0.23417965 0.066963568
0.45037082 0.2342625 0.067017049
0.47589692 0.23449972 0.067064986
0.47389907 0.23461062 0.067136556
0.47190124 0.23472148 0.067208126
0.46990395 0.23452413 0.067780398
0.46790051 0.23450923 0.06785401
0.46590427 0.23462006 0.067925528
0.46391356 0.23485664 0.067994878
0.46191189 0.23484161 0.068068556
0.45990279 0.23457479 0.06814602
0.45790058 0.23443374 0.068221413
0.45590061 0.23429248 0.068296738
0.45390534 0.2342771 0.068370059
0.45191354 0.23438767 0.068441406
0.44992018 0.23437229 0.06851466
0.44792765 0.23435676 0.068587877
0.44593674 0.23440421 0.068660058
0.44411692 0.23442346 0.068891078
0.44197053 0.2345055 0.069298007
0.46946219 0.23463282 0.069283128
0.46796381 0.23471594 0.069336802
0.46596599 0.2348268 0.069408387
0.46396816 0.2349377 0.069479965
0.4619703 0.23504862 0.069551535
0.45997843 0.234851 0.07012251
0.45797202 0.23464733 0.070197545
0.45596838 0.2344434 0.070272624
0.45397437 0.23455405 0.070344068
0.45198035 0.2346648 0.070415497
0.44998395 0.23458651 0.070488892
0.44799012 0.23463416 0.070561044
0.44599611 0.23449269 0.070635065
0.44400424 0.23460326 0.070706427
0.44201329 0.23452464 0.070779622
0.44002274 0.23457217 0.070851631
0.438032 0.23468271 0.070922948
0.43621278 0.23472306 0.071153529
0.43406773 0.2347208 0.071561135
0.45953125 0.2349599 0.071626537
0.45804179 0.23479748 0.072177976
0.45603812 0.23465678 0.072251275
0.45403802 0.23457876 0.072324097
0.45204291 0.23468947 0.072395578
0.45004782 0.23480022 0.072467051
0.44805223 0.23484802 0.07253886
0.44605643 0.23476985 0.072611555
0.44406247 0.23469153 0.07268405
0.44206941 0.23473918 0.072755888
0.4400765 0.23484981 0.07282728
0.43808445 0.23489738 0.072898954
0.43609396 0.23488185 0.072971009
0.43410456 0.23486632 0.073043033
0.43211779 0.23478761 0.073115394
0.43014541 0.23471522 0.07368169
0.45759165 0.23484337 0.073683619
0.45610452 0.23474389 0.074234158
0.45410317 0.23466614 0.074306116
0.45210555 0.23471403 0.074377827
0.45010936 0.23482481 0.074449338
0.44811314 0.23493564 0.074520864
0.44611633 0.23492059 0.074592464
0.44412068 0.23484251 0.074664325
0.44212639 0.23482716 0.074735984
0.44013253 0.23487493 0.074807599
0.43813848 0.23498562 0.074879035
0.43614566 0.23503321 0.074950472
0.43415588 0.23495483 0.075022139
0.43216783 0.2348763 0.075093597
0.43018332 0.23473462 0.075165093
0.42836943 0.23462766 0.075395286
0.45415378 0.23481002 0.075794399
0.4519991 0.23489222 0.076202862
0.45017186 0.2349121 0.076433867
0.44817317 0.23489711 0.076505125
0.44617572 0.23494509 0.076576464
0.44417903 0.23486716 0.076647557
0.44218373 0.23478904 0.076718591
0.44018865 0.23489982 0.076790072
0.4381935 0.23501059 0.076861545
0.43619949 0.23505834 0.076932743
0.43420738 0.23504296 0.077003762
0.43221954 0.23490158 0.077074327
0.4302358 0.23469707 0.077144459
0.42825258 0.23455548 0.077214845
0.4267641 0.23451218 0.077267855
0.44971687 0.23483211 0.077940978
0.44806167 0.23488662 0.078331538
0.44623521 0.23496935 0.078562602
0.44423735 0.23489159 0.078632921
0.44224125 0.23475069 0.078702681
0.44024578 0.23479861 0.078773648
0.43824929 0.23497233 0.078845702
0.43625346 0.23508313 0.078917205
0.43426019 0.23506796 0.078987725
0.43227127 0.2349267 0.079057217
0.4302882 0.2346594 0.07912562
0.42831057 0.23432893 0.079193324
0.42682213 0.23428568 0.079245791
0.44412422 0.23488107 0.080460221
0.44229856 0.2347751 0.080689177
0.44030192 0.23482311 0.080759943
0.4383052 0.23493391 0.080831483
0.43630844 0.23504475 0.080903023
0.43431574 0.23496678 0.080972329
0.43232471 0.23488861 0.081041455
0.43034077 0.23462152 0.081108406
0.42836013 0.2343542 0.081174947
0.42655334 0.23405862 0.081400402
0.44218463 0.23476458 0.082517296
0.44035977 0.23465869 0.08274544
0.43836346 0.23470664 0.08281593
0.43636671 0.2348175 0.082887456
0.43436998 0.23492828 0.082958996
0.43237799 0.23485041 0.083027475
0.43038952 0.23470935 0.083094776
0.42840749 0.23444232 0.083159871
0.42643118 0.2341122 0.083223879
0.42496252 0.23388648 0.083767436
0.44190031 0.23459357 0.084183827
0.44041649 0.23461992 0.084733903
0.43842095 0.23454225 0.084801711
0.43642494 0.2345902 0.084871903
0.43442822 0.23470107 0.084943436
0.43243307 0.23474902 0.085013725
0.43044215 0.23467109 0.08508122
0.42845714 0.23446718 0.085146107
0.42647719 0.23420021 0.085209534
0.42450055 0.23393309 0.085272826
0.4225328 0.23379803 0.085834503
0.42054263 0.23390853 0.08590579
0.41853786 0.23407567 0.08548262
0.41671839 0.23415792 0.085712776
0.44046018 0.23444942 0.086223051
0.43847689 0.23450345 0.086791016
0.43647906 0.23461434 0.086862586
0.43448257 0.23466241 0.086932659
0.43248969 0.23458463 0.086999416
0.43049672 0.23456967 0.087067738
0.42850685 0.23449177 0.087134533
0.42652342 0.23428798 0.0871979
0.42454541 0.2340211 0.087259725
0.42255872 0.23400587 0.08732786
0.42056692 0.23411638 0.087399215
0.41858196 0.23410106 0.087467149
0.41660208 0.23402265 0.087533571
0.43452492 0.23455471 0.088423304
0.43254328 0.23454589 0.088989474
0.43055117 0.23446813 0.089055397
0.42856282 0.23432755 0.089119419
0.42657664 0.23418689 0.08918339
0.4245927 0.23404601 0.089247286
0.42260516 0.23403072 0.089315012
0.42061222 0.23414141 0.089386433
0.41862971 0.23406321 0.089451998
0.41665637 0.233859 0.08951363
0.41517109 0.23381597 0.089563258
0.43242848 0.23440948 0.090817273
0.43060762 0.23430377 0.091042019
0.42862105 0.23410046 0.091102786
0.42663482 0.23395985 0.091165677
0.42465085 0.2338191 0.09122847
0.42265734 0.23392978 0.091299899
0.42066386 0.23404041 0.091371305
0.41868427 0.23389935 0.091433942
0.41670686 0.2337583 0.09149652
0.41522917 0.23358941 0.091541193
0.43214414 0.23423856 0.092483819
0.43066216 0.23420212 0.093031563
0.42867512 0.23399895 0.093090959
0.42669296 0.23373291 0.093147933
0.42470893 0.2335923 0.093209654
0.42272714 0.23345146 0.093271285
0.42073476 0.23356202 0.093342669
0.41874242 0.23367259 0.093414038
0.41676491 0.23353168 0.093475543
0.41496032 0.23336241 0.093695834
0.43054718 0.23406565 0.094859906
0.42872703 0.23396009 0.095082991
0.42674661 0.23363137 0.095135592
0.42476451 0.23342812 0.095193624
0.42277661 0.23341313 0.095259622
0.4207865 0.23346096 0.095328376
0.41879711 0.23350877 0.095396966
0.41681188 0.2334936 0.095462851
0.41483578 0.23335257 0.095523216
0.41336954 0.23319024 0.096062854
0.4287833 0.23379558 0.097070605
0.42679766 0.2335926 0.097127393
0.4248122 0.23345226 0.09718699
0.42282599 0.23337466 0.097249568
0.42083195 0.23348534 0.097320989
0.41883796 0.23359597 0.09739244
0.41685513 0.23351824 0.097454771
0.41487783 0.23337752 0.097514063
0.41340464 0.2331461 0.097552493
0.42833775 0.23372138 0.099079937
0.42684892 0.23355353 0.099120788
0.42486247 0.2334134 0.099179201
0.42287257 0.23339874 0.099244311
0.42087752 0.23350942 0.099315785
0.41888237 0.23362017 0.099387258
0.41689846 0.23354247 0.09944883
0.41492414 0.23333916 0.099503718
0.41296515 0.23294717 0.099548668
0.42690006 0.23351446 0.1011157
0.42491293 0.23337445 0.1011732
0.422925 0.23329705 0.10123406
0.42092934 0.23340788 0.10130554
0.41893372 0.2335186 0.10137705
0.41694555 0.23350388 0.10144142
0.41498226 0.23311231 0.10148434
0.41302317 0.23272061 0.10152714
0.42695594 0.2333498 0.10310467
0.42496848 0.23320985 0.10316108
0.4229832 0.23306993 0.10321742
0.42098755 0.2331807 0.1032889
0.41899192 0.23329148 0.1033604
0.41700736 0.23321411 0.10342033
0.41504037 0.23288542 0.10346498
0.41308123 0.232494 0.10350563
0.42852715 0.23298237 0.10553288
0.42701417 0.23312241 0.10509017
0.42502671 0.23298264 0.10514552
0.4230414 0.23284283 0.10520075
0.42104572 0.23295358 0.10527225
0.41905352 0.23300171 0.10533959
0.41707659 0.23279893 0.10539066
0.41510627 0.23253319 0.10543741
0.41313928 0.23226744 0.1054841
0.42907029 0.23278406 0.10700413
0.42707717 0.23276982 0.10706707
0.42508492 0.23275542 0.10712995
0.42309958 0.23261565 0.10718413
0.42110392 0.23272648 0.10725562
0.41911519 0.23271197 0.10731839
0.41713479 0.23257199 0.10737239
0.41516042 0.23236918 0.10742199
0.41319311 0.23210347 0.10746703
0.41171306 0.23199826 0.10750728
0.4286145 0.23264128 0.10851117
0.42713308 0.23260498 0.1090567
0.42514312 0.23252815 0.10911441
0.42315778 0.23238853 0.10916748
0.42116213 0.2324993 0.10923898
0.41917339 0.23248485 0.10930119
0.41718924 0.23240766 0.10935882
0.41521063 0.23226774 0.10941167
0.41323856 0.23206499 0.10945969
0.41127348 0.23179942 0.10950302
0.38541541 0.23317891 0.11092442
0.38342524 0.23328936 0.11099574
0.38143504 0.23339987 0.11106704
0.37944484 0.23351029 0.11113834
0.37745464 0.23362076 0.11120963
0.37546444 0.23373124 0.11128093
0.37347421 0.23384169 0.11135223
0.42701757 0.23246834 0.11088727
0.4251937 0.23248866 0.11111356
0.42320466 0.23241171 0.11117038
0.42121407 0.23239735 0.11123227
0.41922471 0.23238289 0.11129382
0.41724005 0.23230588 0.11135064
0.41526097 0.23216608 0.11140242
0.41329238 0.23190099 0.11144425
0.41132268 0.23169822 0.11149083
0.40983886 0.23165575 0.11153446
0.3869516 0.23292607 0.1123544
0.38545895 0.23300895 0.11240786
0.38346878 0.23311946 0.1124792
0.38147858 0.23322991 0.1125505
0.37964943 0.23334998 0.11245101
0.3774837 0.23350748 0.11219859
0.37550795 0.2335614 0.11276438
0.37351775 0.23367184 0.11283568
0.42523479 0.23238063 0.11260749
0.42325154 0.23243469 0.11317546
0.42125985 0.23242038 0.11323683
0.4192661 0.23246866 0.11330314
0.41728362 0.23232922 0.11335394
0.41530722 0.23212701 0.11339942
0.41333368 0.23192465 0.11344492
0.4113673 0.23165956 0.11348504
0.40988755 0.23155448 0.11352295
0.3875072 0.23267201 0.11431452
0.38549289 0.23297092 0.11440191
0.38351035 0.23301867 0.11446781
0.38153657 0.23300341 0.11452844
0.38002944 0.23314285 0.1140874
0.42079791 0.23240274 0.11475404
0.41914275 0.23245719 0.11514463
0.41733095 0.23228964 0.115354
0.41535372 0.23208767 0.11539815
0.41337514 0.23194808 0.11544771
0.41139862 0.23180842 0.11549725
0.40990832 0.23182881 0.11554539
0.38756523 0.23244548 0.11629245
0.38554299 0.23280713 0.11638618
0.38355172 0.23291767 0.11645754
0.38159463 0.23277688 0.11650636
0.38011646 0.23280314 0.11705431
0.41737816 0.23225009 0.11735557
0.41540027 0.23204821 0.11739837
0.41341656 0.23197126 0.11745273
0.41143441 0.23189443 0.11750685
0.40994778 0.23185229 0.11754908
0.38913041 0.23207945 0.1187114
0.38762325 0.23221898 0.11827039
0.38560104 0.23258051 0.1183652
0.38360977 0.23269102 0.11843656
0.38165265 0.23255038 0.1184843
0.38016 0.23263323 0.11853775
0.41693333 0.23211291 0.11936462
0.41544673 0.23200849 0.11940036
0.41346639 0.23186928 0.11944786
0.41147932 0.23185506 0.1195073
0.40998739 0.23187551 0.11955492
0.38917392 0.2319096 0.12019485
0.38768131 0.23199248 0.12024832
0.38566706 0.2322911 0.120338
0.3836762 0.23240161 0.12040935
0.38171068 0.23232386 0.12046222
0.37989122 0.23240617 0.12069239
0.41532183 0.23199683 0.12124435
0.41351625 0.23176715 0.12144404
0.41153306 0.23169035 0.1214966
0.4100363 0.23177344 0.12155022
0.38972953 0.23165548 0.12215495
0.38773933 0.23176596 0.12222625
0.38574913 0.2318764 0.12229755
0.38375893 0.23198688 0.12236885
0.3817687 0.23209736 0.12244016
0.37977853 0.23220783 0.12251148
0.37795901 0.23229018 0.12274162
0.41355783 0.23178974 0.12345444
0.411578 0.23165071 0.12349973
0.4100945 0.23154631 0.1235336
0.39161676 0.23130879 0.12423234
0.38978755 0.23142898 0.12413289
0.38779736 0.23153946 0.12420419
0.38579911 0.23171252 0.12428227
0.38380045 0.23188573 0.12436032
0.38179266 0.23212168 0.12444496
0.37981027 0.23216948 0.12450965
0.37782821 0.23221725 0.1245743
0.37585616 0.23220226 0.12463201
0.37388045 0.23225611 0.12519781
0.3723878 0.23233899 0.12525126
0.41309789 0.23170939 0.12496799
0.41162282 0.23161077 0.12550451
0.4101342 0.23156899 0.12554432
0.39381903 0.23104417 0.12597522
0.3918215 0.23121718 0.12605351
0.38982326 0.23139027 0.12613173
0.38781688 0.23162603 0.12621698
0.38581741 0.23179919 0.12629536
0.3838256 0.23190975 0.12636673
0.38183376 0.23202035 0.12643808
0.3798508 0.23206815 0.12650238
0.37786815 0.23211607 0.12656665
0.37587687 0.23222661 0.12663798
0.37386641 0.23246258 0.12672353
0.37189445 0.23244765 0.12678081
0.41115829 0.23159286 0.1270251
0.41015935 0.23164839 0.12706086
0.39384282 0.23113033 0.12798949
0.39182943 0.23142862 0.12808242
0.38982952 0.23160172 0.12816109
0.38781345 0.23190007 0.12825425
0.38581181 0.2320734 0.12833285
0.38383424 0.23205888 0.12838964
0.38184938 0.23210686 0.12845388
0.37987369 0.2320922 0.12851076
0.37789005 0.23214003 0.12857476
0.37589768 0.23225066 0.12864617
0.37388611 0.23248672 0.12873228
0.37189317 0.23259735 0.12880369
0.37009138 0.23255438 0.12901935
0.4093616 0.22986534 0.12989585
0.39386654 0.23121616 0.13000633
0.39184484 0.23157689 0.13010766
0.38982844 0.23187527 0.13020167
0.3878333 0.23198605 0.13027312
0.38583821 0.23209673 0.1303446
0.38385949 0.23208231 0.13040093
0.38187352 0.23213038 0.13046491
0.37989676 0.23211589 0.13052128
0.37792107 0.23210123 0.13057761
0.37591848 0.23227456 0.1306565
0.37392497 0.23238528 0.1307279
0.37193155 0.23249593 0.13079934
0.36995846 0.23248112 0.13085558
0.36849886 0.23238197 0.13138896
0.40935779 0.23031896 0.13145691
0.39391789 0.23105186 0.13199493
0.39188153 0.23153752 0.13211285
0.38985682 0.23189834 0.1322154
0.38785318 0.23207161 0.13229473
0.3858726 0.23205736 0.1323507
0.38388485 0.23210555 0.13241433
0.38189769 0.23215377 0.1324781
0.37992853 0.23207673 0.1325261
0.37796116 0.23199964 0.13257419
0.37597662 0.23204774 0.13263768
0.37397352 0.23222101 0.13271688
0.3719897 0.23226902 0.13278052
0.37001657 0.2322543 0.13283622
0.36806527 0.23211411 0.13287614
0.36613059 0.23191729 0.1334106
0.33082581 0.2337527 0.13466029
0.40937817 0.23059073 0.13350184
0.393976 0.23082492 0.1339761
0.3919397 0.23131037 0.13409565
0.38990045 0.23179609 0.13421535
0.38790366 0.23190689 0.13428688
0.38590693 0.23201773 0.13435842
0.38391018 0.23212853 0.13442996
0.38193053 0.23211426 0.13448533
0.37996936 0.23197481 0.13452452
0.3780193 0.23177266 0.13455549
0.37603477 0.23182082 0.13461889
0.37404126 0.23193148 0.1346903
0.37204778 0.23204213 0.13476171
0.37008473 0.23196486 0.13480867
0.36811286 0.2319501 0.1348639
0.36615267 0.23187271 0.13491076
0.36434671 0.23187152 0.13513027
0.27018279 0.23689556 0.1388129
0.40939346 0.23079428 0.13503875
0.3940272 0.23066047 0.13596565
0.39198369 0.23120821 0.13609521
0.38995123 0.23163122 0.13620813
0.38793129 0.23192954 0.13630456
0.38593346 0.23204044 0.13637614
0.38393563 0.23215133 0.13644773
0.38196328 0.23207462 0.13649434
0.38002753 0.23174778 0.13650733
0.37808633 0.23148334 0.13652866
0.37613004 0.23134366 0.13656658
0.37413764 0.23145425 0.13663796
0.3721453 0.23156482 0.13670933
0.37015292 0.23167539 0.13678071
0.36816055 0.23178601 0.13685207
0.36616814 0.23189664 0.13692346
0.36419761 0.23188189 0.13697813
0.36222816 0.23186716 0.13703246
0.35880461 0.23175317 0.13761801
0.35676664 0.2321144 0.13772339
0.27021182 0.23678228 0.13980187
0.39406481 0.23062077 0.13797288
0.39201346 0.23123068 0.13811284
0.38997284 0.23164806 0.13772213
0.38347983 0.23200852 0.13795474
0.38200453 0.23197243 0.13849631
0.38005075 0.23177069 0.13852465
0.37812659 0.23138139 0.1385271
0.37616962 0.23124197 0.13856412
0.37417668 0.2313526 0.13863553
0.37218374 0.23146322 0.13870692
0.37021104 0.23144859 0.13876081
0.36821863 0.23155922 0.1388322
0.36622623 0.23166984 0.13890356
0.36423385 0.23178041 0.13897495
0.36225271 0.23182848 0.13903768
0.36029494 0.23175099 0.13908282
0.35830367 0.23186156 0.13915417
0.35622811 0.23241088 0.13928664
0.35456011 0.23336563 0.13895786
0.35264242 0.23311201 0.13998632
0.33994126 0.23263273 0.13977878
0.33844861 0.23271564 0.13983226
0.3941091 0.23051846 0.13997279
0.39252838 0.23128211 0.1396182
0.38155484 0.23183513 0.14050825
0.3800827 0.23173094 0.14053528
0.37814876 0.23140436 0.14054444
0.3761906 0.23126513 0.14058042
0.37419659 0.23137581 0.14065187
0.37222221 0.23136151 0.14070529
0.3702389 0.23140952 0.14076781
0.36827677 0.23133251 0.14081228
0.36628431 0.23144311 0.14088367
0.36429197 0.23155367 0.14095506
0.36229959 0.23166424 0.14102644
0.36031869 0.23171225 0.1410889
0.35833815 0.2317602 0.1411512
0.35631034 0.23205873 0.14124952
0.35428107 0.23235735 0.14134791
0.35286072 0.23206422 0.1413473
0.33898973 0.23251808 0.14129789
0.3946934 0.23001441 0.14190136
0.38362551 0.23144007 0.14291859
0.38211256 0.23158005 0.14247587
0.38013229 0.23156607 0.1425291
0.37818882 0.2313022 0.14254563
0.37623024 0.23116314 0.14258039
0.37423566 0.23127386 0.14265184
0.37225097 0.23132202 0.14271414
0.37028685 0.23124531 0.14275789
0.36833486 0.23110572 0.14279239
0.36634246 0.23121631 0.14286378
0.36435005 0.23132688 0.14293514
0.36235768 0.2314375 0.14300653
0.36036533 0.23154807 0.14307791
0.35837293 0.23165867 0.1431493
0.35638055 0.23176923 0.14322066
0.35440049 0.23181731 0.1432827
0.35247114 0.23161459 0.14330761
0.39469767 0.23028576 0.14395797
0.38566703 0.23115861 0.14433613
0.38416865 0.23124176 0.14438984
0.3821708 0.23135266 0.14446141
0.38020781 0.2312139 0.14449523
0.37824702 0.23107508 0.14452897
0.37628835 0.23093614 0.14456265
0.3742938 0.23104686 0.1446341
0.37231898 0.23103255 0.14468662
0.37035516 0.23095581 0.14472952
0.36839294 0.23087892 0.14477248
0.36642176 0.23086458 0.14482476
0.36445171 0.2308501 0.14487723
0.36246043 0.23096061 0.14494856
0.36045763 0.2311337 0.14502935
0.35843104 0.23143193 0.14512938
0.35641465 0.2316677 0.14522004
0.35443407 0.2317158 0.14528178
0.35251662 0.23145068 0.14529574
0.35073462 0.23134512 0.14549714
0.39472899 0.2303077 0.14598045
0.38622475 0.23090354 0.14630377
0.38422692 0.23101443 0.14637536
0.38223752 0.23106301 0.14643718
0.38027483 0.23092431 0.14646991
0.37830523 0.23084795 0.14651233
0.37632808 0.23083392 0.14656448
0.37434253 0.23088223 0.14662619
0.37236729 0.2308681 0.14667816
0.37041324 0.23072898 0.14671056
0.36845106 0.23065218 0.1467526
0.36650109 0.23051286 0.14678489
0.36454254 0.23043594 0.14682679
0.36256313 0.23048392 0.14688841
0.36056143 0.23065686 0.14696944
0.35851237 0.23108011 0.14708988
0.35644877 0.23156607 0.14722019
0.35445532 0.23167673 0.1472916
0.35251212 0.23153698 0.14732379
0.35058367 0.23133448 0.14734583
0.34912929 0.23122957 0.14736967
0.39477378 0.23020488 0.1479851
0.38778138 0.23059294 0.14823562
0.38628301 0.23067614 0.14828931
0.38428518 0.23078704 0.14836088
0.38231269 0.23071092 0.14840248
0.3803243 0.23075944 0.14846411
0.37834543 0.23074549 0.14851581
0.37634924 0.2308563 0.14858732
0.37435305 0.23096713 0.14865884
0.37238628 0.23089072 0.14870021
0.37043115 0.23075178 0.1487316
0.36847815 0.23061273 0.1487629
0.36652738 0.23047361 0.14879411
0.3646006 0.23020941 0.14880514
0.36313322 0.23017311 0.149343
0.36063096 0.23036784 0.14893763
0.35858226 0.23079085 0.1490593
0.35653076 0.23121408 0.14918119
0.3545135 0.23144975 0.1492728
0.3525326 0.23149779 0.14933416
0.3506034 0.23129565 0.14935488
0.34918734 0.23100302 0.1493476
0.38782507 0.23042241 0.14972477
0.38634124 0.23044875 0.15027483
0.38435981 0.23043507 0.15032594
0.38237923 0.2304213 0.15037704
0.38037375 0.23059452 0.15045887
0.37835878 0.23083001 0.15055093
0.3763375 0.23106006 0.15013631
0.37433967 0.23117095 0.15020788
0.37219819 0.23116991 0.15060273
0.37039891 0.23108634 0.15080635
0.36844349 0.23094752 0.15083665
0.36651123 0.2306838 0.15084624
0.3645826 0.23041987 0.15085569
0.36266816 0.23009333 0.15085466
0.36068904 0.23014131 0.15091556
0.35865206 0.23050171 0.15102829
0.35660088 0.23092473 0.1511514
0.35457158 0.23122293 0.15125397
0.35257813 0.23133361 0.15132539
0.35066152 0.23106894 0.15133443
0.34924537 0.23077649 0.15132552
0.39489034 0.22975004 0.15195616
0.38622814 0.23024949 0.15210086
0.38440984 0.23027012 0.15232152
0.38241217 0.23038089 0.15239304
0.38056761 0.23056364 0.15230364
0.36990279 0.23119316 0.15235445
0.36842936 0.23115703 0.15289401
0.36650601 0.23083115 0.1528915
0.36459723 0.23044276 0.15287822
0.36268166 0.23011643 0.1528753
0.36070141 0.23016462 0.15293597
0.35869837 0.23033756 0.153018
0.35667101 0.23063549 0.15312117
0.35462973 0.23099601 0.15323517
0.35263622 0.23110664 0.15330657
0.35071957 0.23084217 0.15331398
0.34930342 0.23054999 0.15330347
0.39447585 0.22930193 0.15391657
0.38444537 0.23016173 0.15382107
0.382947 0.2302449 0.15387474
0.36797777 0.23101977 0.15490793
0.36654299 0.23072881 0.15489645
0.36461195 0.23046532 0.15490288
0.36268401 0.23020172 0.15490906
0.3607139 0.23018748 0.15495852
0.35870975 0.2303606 0.15504089
0.35669321 0.23059604 0.15513411
0.35468784 0.23076916 0.15521637
0.35269436 0.23087981 0.15528777
0.35075215 0.2307404 0.15531555
0.34883779 0.23047617 0.15532126
0.34688821 0.230405 0.15586503
0.34489802 0.23051548 0.15593633
0.34287941 0.23074511 0.15552416
0.34107378 0.23076487 0.15574332
0.33942497 0.23081923 0.1561324
0.39454079 0.22901243 0.15589023
0.39302352 0.22934934 0.15649515
0.36803603 0.23079237 0.15689346
0.36655888 0.23075083 0.15692487
0.36462677 0.23048759 0.15692973
0.3626866 0.23028666 0.15694539
0.36070359 0.230335 0.15700576
0.35870957 0.23044568 0.15707719
0.35670361 0.23061872 0.15715973
0.35469717 0.23079184 0.1572423
0.35271516 0.23084009 0.1573026
0.35073352 0.23088846 0.15736292
0.34879163 0.23074928 0.15738951
0.34683865 0.23067245 0.15742727
0.34486011 0.23072049 0.15748733
0.34286824 0.23083109 0.15755868
0.34089065 0.23087907 0.15761873
0.33895662 0.23073953 0.15764499
0.33749279 0.23070323 0.15818164
0.39458582 0.22890934 0.15789689
0.39306721 0.22917885 0.15798432
0.36642453 0.23067632 0.15877318
0.36461976 0.23063442 0.15898153
0.36266688 0.23049602 0.15900742
0.36069348 0.2304821 0.15905593
0.35870957 0.2305305 0.15911606
0.356738 0.23051655 0.15916464
0.35475531 0.23056492 0.1592246
0.35276076 0.23067558 0.15929607
0.35074073 0.23091117 0.15939058
0.34874561 0.23102179 0.15946205
0.3467772 0.2310077 0.15951054
0.34482327 0.23093101 0.1595474
0.3428849 0.23079184 0.15957277
0.3409346 0.23071498 0.15960947
0.33900031 0.2305755 0.15963468
0.33752179 0.23058996 0.1591706
0.39462388 0.22886828 0.15991615
0.39311093 0.22900832 0.15947345
0.3641423 0.23061627 0.16051127
0.36266965 0.23058027 0.16104974
0.36069486 0.23056647 0.16109787
0.35873267 0.23049039 0.16113436
0.35676035 0.2304765 0.16118228
0.35481349 0.23033792 0.16120684
0.35281891 0.2304486 0.16127831
0.35077339 0.23080882 0.16139676
0.34877777 0.23091957 0.16146827
0.34680882 0.23090553 0.1615162
0.34486791 0.23076659 0.16154058
0.34294295 0.23056507 0.161553
0.34100676 0.23042578 0.16157718
0.33924803 0.23023355 0.16141874
0.36221728 0.23044288 0.16306476
0.36071891 0.23052603 0.16311845
0.35875607 0.23045003 0.16315413
0.3568067 0.23031175 0.16317773
0.3548595 0.23017314 0.1632012
0.35287705 0.23022163 0.16326059
0.35084426 0.23051932 0.16336805
0.34883595 0.23069245 0.16345164
0.34688017 0.23061612 0.16348693
0.34496665 0.2303524 0.16348608
0.34304264 0.23015097 0.16349724
0.34112123 0.22994941 0.16350816
0.37227929 0.22960418 0.16518882
0.37078092 0.22968742 0.16524249
0.36428794 0.23004785 0.1654751
0.36277503 0.2301878 0.1650324
0.3607772 0.2302987 0.16510399
0.35860798 0.23043779 0.16501604
0.35681731 0.23033363 0.1652104
0.35490558 0.23000842 0.16519594
0.35293525 0.2299946 0.16524288
0.35094067 0.23010531 0.16531433
0.34894612 0.23021603 0.16538577
0.34699142 0.23013961 0.16542022
0.34505183 0.23000088 0.16544236
0.3431282 0.22979957 0.16545215
0.34119326 0.22966045 0.16547412
0.37283218 0.22934392 0.16664754
0.37084454 0.22939259 0.16670655
0.36883694 0.22956562 0.16679068
0.36682892 0.22973862 0.16687477
0.36483109 0.22984952 0.16694635
0.36283326 0.22996041 0.16701791
0.36132035 0.23010045 0.16657524
0.35666838 0.23032123 0.16707313
0.35491505 0.23003045 0.16722894
0.3529934 0.22976756 0.16722512
0.35104966 0.22962919 0.16724631
0.34906927 0.22967747 0.1673051
0.34710261 0.22966346 0.16735134
0.34516412 0.2295247 0.16737235
0.34318626 0.22957289 0.16743118
0.34125128 0.22943392 0.16745205
0.33977318 0.22946018 0.16800001
0.37290022 0.22905439 0.16862014
0.3709228 0.22904101 0.16866618
0.36892605 0.22915187 0.16873774
0.36689764 0.22944912 0.16884746
0.36488938 0.22962219 0.16893187
0.36337641 0.22976217 0.16848917
0.35639855 0.23009345 0.16923606
0.35493675 0.22998992 0.16925135
0.35302684 0.22966507 0.16923304
0.35110781 0.2294023 0.16922753
0.34916627 0.22926375 0.16924752
0.34721372 0.22918749 0.16928028
0.34524924 0.22917351 0.16932592
0.34324431 0.22934628 0.1694102
0.3412672 0.2293945 0.16946869
0.33948982 0.22928977 0.16966015
0.37294874 0.22888911 0.17061816
0.37098101 0.22881377 0.17065063
0.36898425 0.2289246 0.17072219
0.36696634 0.22915968 0.17081976
0.36510921 0.22940451 0.17074597
0.3567946 0.22982857 0.17137513
0.35499501 0.22976261 0.17123593
0.35308501 0.22943798 0.17121586
0.35119152 0.2290509 0.1711825
0.34925044 0.22891247 0.17120139
0.34728497 0.22889853 0.17124654
0.34530714 0.22894686 0.17130481
0.34328857 0.22918183 0.17140242
0.34128296 0.22935468 0.171487
0.33934858 0.22921607 0.17150553
0.37249774 0.22875157 0.17263453
0.37100941 0.22877267 0.17267501
0.36904249 0.2286973 0.17270662
0.36703518 0.22887027 0.17279138
0.36517715 0.22913915 0.17306243
0.35852745 0.22947097 0.17363194
0.35702643 0.22954887 0.17317584
0.35506526 0.22947317 0.17320734
0.35314316 0.22921088 0.17319869
0.35124958 0.22882408 0.17316313
0.34929547 0.22874814 0.17319442
0.34731659 0.22879633 0.17325248
0.34532475 0.2289069 0.17332383
0.34330535 0.22914201 0.17342189
0.34131294 0.22925261 0.17349327
0.33939227 0.22905168 0.17349753
0.33794254 0.22894773 0.17351064
0.37088627 0.22863546 0.17451425
0.36910069 0.22847009 0.17469107
0.36711439 0.22851884 0.17474897
0.36508548 0.22881594 0.17486131
0.36358032 0.22896636 0.17543852
0.35890895 0.22926295 0.1752746
0.35709661 0.22925934 0.1751475
0.35512349 0.22924593 0.1751918
0.35320136 0.22898385 0.17518149
0.35126963 0.2287837 0.17518482
0.34931463 0.22870788 0.17521532
0.34732175 0.22881848 0.17528673
0.34534234 0.22886688 0.17534435
0.34336346 0.22891521 0.17540199
0.34137106 0.22902581 0.17547336
0.33943594 0.22888744 0.17548992
0.33767375 0.22872072 0.17566527
0.39560395 0.22696465 0.17627886
0.37060183 0.22846457 0.17618077
0.36914879 0.22830483 0.1766894
0.36720419 0.22810563 0.17669165
0.36514378 0.22858855 0.1768463
0.36362401 0.22879577 0.17692766
0.35912889 0.2290453 0.17708871
0.35717845 0.22890779 0.17710471
0.35518172 0.22901863 0.17717624
0.35322225 0.22894311 0.1772061
0.35130239 0.22868103 0.17719409
0.34934682 0.22860545 0.17722368
0.34735334 0.22871602 0.1772951
0.34538707 0.22870225 0.1773386
0.34342155 0.22868851 0.17738208
0.34142914 0.22879907 0.17745347
0.33947977 0.22872296 0.17748296
0.33751735 0.22870901 0.17752637
0.33572182 0.22868776 0.17773327
0.39575318 0.22580585 0.17754413
0.36901864 0.22820905 0.17853816
0.36720985 0.22818837 0.17874564
0.3653565 0.22841236 0.17866936
0.35901576 0.2288461 0.17891473
0.35720122 0.22886676 0.17913172
0.3552157 0.2289156 0.17918918
0.35323089 0.22896433 0.17924646
0.35129729 0.22876456 0.17924713
0.34934035 0.22868904 0.17927596
0.3473984 0.22855124 0.17929058
0.3454316 0.22853759 0.17933357
0.3434521 0.22858605 0.17939083
0.34145918 0.22869664 0.17946219
0.33946624 0.22880733 0.1795336
0.33750251 0.2287935 0.17957634
0.33555478 0.22871736 0.17960498
0.33380938 0.22848865 0.17976375
0.39589041 0.22483808 0.17935467
0.36722219 0.22820383 0.18027708
0.35723299 0.22875831 0.18063495
0.35523516 0.2288692 0.1807065
0.35308048 0.22895139 0.18111496
0.35127938 0.22890994 0.18131725
0.34934676 0.22871044 0.18131641
0.34740368 0.22857273 0.18132995
0.34546277 0.22843498 0.18134345
0.3434827 0.22848359 0.18140033
0.34146118 0.22871849 0.1815009
0.33946714 0.22882923 0.18157233
0.33751693 0.2287533 0.18160012
0.33559802 0.22855294 0.18159874
0.33366662 0.22841468 0.18161188
0.4097957 0.22494707 0.18109421
0.39589581 0.22510517 0.18144898
0.3491604 0.22886312 0.18322408
0.34740907 0.22859398 0.18337151
0.34549397 0.22833219 0.1833543
0.34354082 0.22825664 0.1833815
0.34149131 0.22861582 0.18351206
0.33949673 0.22872651 0.18358351
0.33756039 0.22858864 0.18359576
0.33565608 0.22832623 0.18357831
0.33372468 0.22818813 0.18359037
0.39591444 0.22524861 0.18351741
0.34885868 0.22877485 0.18491018
0.34745416 0.22842887 0.18537009
0.34556562 0.22804326 0.18532136
0.34359893 0.22802982 0.1853627
0.34160545 0.22814044 0.18543412
0.33961201 0.2282511 0.18550552
0.33761853 0.22836176 0.18557695
0.33568442 0.22822377 0.18558802
0.33376759 0.22802365 0.18558401
0.33199331 0.22791955 0.18576884
0.39602512 0.22452843 0.18537867
0.34748614 0.22832569 0.18738458
0.34562376 0.22781628 0.18730307
0.34371203 0.22755468 0.18728261
0.34170553 0.22772741 0.18736924
0.33968437 0.22796214 0.18747133
0.33767664 0.22813484 0.18755814
0.33572772 0.2280592 0.18758355
0.33376524 0.22804561 0.1876242
0.3318193 0.22796974 0.18764953
0.32987493 0.2278938 0.18767466
0.32841229 0.22785789 0.18820718
0.34751779 0.22822243 0.1894002
0.34566858 0.22765127 0.18930045
0.34377009 0.22732791 0.1892627
0.3418057 0.2273145 0.18930277
0.33978534 0.22754914 0.18940547
0.33774924 0.22784591 0.18952365
0.33574131 0.22801861 0.18961073
0.33374786 0.22812927 0.18968214
0.33178514 0.22811559 0.18972242
0.32985482 0.22797784 0.18973106
0.32845581 0.22768801 0.18969062
0.34757611 0.22799513 0.19138518
0.34571335 0.22748634 0.19129823
0.3438282 0.22710112 0.19124281
0.34189174 0.22696379 0.19125074
0.33988616 0.22713634 0.19133788
0.33785105 0.22743294 0.19145694
0.3358438 0.22760561 0.19154418
0.333821 0.2278403 0.19164737
0.3318125 0.22801307 0.19173478
0.32988185 0.22787523 0.19174246
0.32851386 0.22746143 0.19166857
0.34763435 0.22776774 0.19337016
0.34575802 0.22732121 0.19329667
0.34387264 0.2269364 0.19323915
0.34194982 0.22673717 0.19322976
0.33997285 0.22678569 0.19328488
0.33799627 0.22683427 0.19333999
0.33600551 0.2269448 0.19341132
0.33396953 0.22724134 0.19353123
0.33190134 0.22766209 0.19368345
0.32997099 0.22752443 0.1936902
0.34769252 0.22754043 0.19535512
0.34580269 0.22715607 0.19529554
0.34391716 0.22677147 0.19523586
0.34199402 0.22657242 0.19522525
0.34023461 0.22638288 0.19504368
0.33393231 0.22673267 0.19526947
0.33203605 0.22712523 0.19558185
0.33006015 0.22717378 0.19563681
0.3283031 0.22700793 0.19580112
0.34775081 0.22731313 0.19734013
0.3458474 0.22699085 0.19729511
0.34393415 0.22673029 0.19726656
0.34203812 0.22640771 0.19722115
0.34028339 0.22620124 0.1973736
0.33818492 0.22608742 0.19874713
0.33619472 0.22619784 0.19881842
0.3341755 0.22642148 0.19790077
0.33210951 0.22683656 0.19754449
0.33010256 0.22700906 0.19763264
0.3280952 0.22718161 0.19772083
0.32616791 0.22704411 0.19772515
0.32423905 0.22691724 0.19875176
0.40937802 0.2219682 0.19768159
0.39633447 0.223537 0.19735685
0.35429019 0.22679225 0.19962269
0.34779587 0.22714764 0.19934207
0.34586537 0.22694936 0.19932891
0.34395128 0.22668898 0.19929893
0.34202641 0.22649035 0.19928554
0.34010428 0.22629151 0.1992722
0.33809799 0.22646925 0.19987239
0.33613527 0.22645599 0.1999097
0.33399776 0.22648972 0.19962303
0.33216757 0.22660995 0.19952351
0.33016062 0.22678241 0.1996118
0.32812154 0.22707886 0.19973426
0.3261292 0.22718945 0.19980563
0.32423341 0.22693336 0.20028639
0.40940258 0.2220436 0.19923288
0.40845546 0.22174025 0.20018966
0.39627388 0.2243498 0.19911242
0.35581771 0.22659531 0.20056178
0.35431933 0.22667852 0.20061545
0.34766954 0.22701028 0.20118497
0.34586987 0.22696936 0.20138177
0.34394103 0.22677115 0.20136721
0.34198686 0.22669637 0.20138708
0.34004858 0.22655973 0.20138963
0.33805457 0.22667044 0.20146108
0.33607545 0.22671914 0.2015152
0.33412674 0.22664413 0.20153493
0.33217975 0.22656906 0.20155442
0.33023432 0.22649378 0.20157388
0.32827872 0.22646511 0.20211664
0.32626626 0.22665825 0.20221095
0.32457304 0.22656906 0.20222147
0.40748939 0.22168222 0.2012143
0.39788243 0.22361422 0.20143691
0.34388894 0.22703335 0.20297673
0.34196159 0.22684005 0.20347486
0.34000736 0.22676551 0.20349383
0.33804038 0.22675261 0.20353033
0.33607453 0.22673967 0.20356674
0.33410975 0.22672659 0.20360313
0.33216143 0.22665173 0.20362203
0.33027694 0.22632903 0.20357051
0.32822287 0.2260448 0.20438406
0.32688636 0.2261562 0.20410196
0.31397909 0.22676104 0.20555437
0.31248647 0.22684389 0.20560785
0.34146446 0.22688773 0.20554812
0.34003717 0.22666189 0.20551302
0.33808407 0.2265873 0.20553109
0.33611789 0.22657448 0.20556688
0.33415282 0.22656149 0.20560288
0.33215824 0.22667223 0.20567434
0.33025721 0.2264117 0.20563886
0.32840547 0.22597069 0.20606206
0.31602734 0.2264241 0.20746101
0.31452018 0.22656357 0.20702
0.31252998 0.22667399 0.2070913
0.34005284 0.22662002 0.20755124
0.3381713 0.22623661 0.20747834
0.33620554 0.22622383 0.2075137
0.33421099 0.22633448 0.20758516
0.33221641 0.2264452 0.20765662
0.33031532 0.2261849 0.20761952
0.32846355 0.22574407 0.20804055
0.31656837 0.2262266 0.20892663
0.31456053 0.226399 0.20901617
0.31307104 0.22647655 0.20855694
0.34159556 0.22637612 0.21001557
0.34016782 0.22614577 0.20946297
0.33824387 0.22594783 0.20944279
0.336308 0.22581151 0.2094409
0.33432913 0.22586045 0.20949404
0.33233565 0.22597113 0.20956548
0.33031359 0.22580606 0.20986381
0.32862064 0.22551399 0.21022077
0.3161144 0.22608429 0.21042791
0.31511927 0.22613949 0.21046355
0.34163925 0.22620562 0.2115047
0.34022605 0.22591856 0.21144687
0.33831641 0.22565913 0.2114068
0.33638072 0.22552291 0.21140382
0.3344174 0.22551003 0.211438
0.33245492 0.22549707 0.21147214
0.33063218 0.22532526 0.21217291
0.32857829 0.22529602 0.21251112
0.32680616 0.22519311 0.21268488
0.32515731 0.22524747 0.21307397
0.34172541 0.2258549 0.21345241
0.34029835 0.22562978 0.21341184
0.33836025 0.2254937 0.21340799
0.33639482 0.225481 0.2134417
0.33446044 0.22534493 0.2134376
0.332513 0.22527033 0.21345222
0.33053508 0.2253243 0.21401864
0.32857448 0.22531137 0.21405207
0.32645836 0.22526985 0.21442123
0.32467055 0.22522873 0.21461351
0.32267982 0.2253392 0.21468484
0.32068908 0.22544971 0.21475615
0.31924474 0.22535238 0.21526581
0.34228313 0.22559988 0.21541965
0.34035656 0.22540253 0.2153956
0.33836049 0.22551334 0.21546711
0.33634996 0.22568572 0.21555786
0.33441365 0.22554988 0.21555269
0.3324644 0.22547543 0.21556672
0.33048552 0.22552449 0.21561894
0.32855475 0.22538817 0.21561363
0.32674345 0.22542962 0.21583124
0.32461607 0.22542927 0.21621288
0.3226237 0.22553986 0.21628426
0.32066521 0.2255269 0.21631706
0.31925407 0.22530603 0.21678811
0.34382641 0.22535571 0.21788609
0.3423413 0.22537252 0.21740463
0.34037223 0.22536018 0.21743736
0.33836102 0.22553265 0.21752839
0.33634931 0.22570512 0.21761942
0.33435202 0.22581598 0.21769097
0.33235475 0.22592688 0.21776253
0.33041957 0.22579101 0.21775629
0.3284865 0.22565499 0.21774995
0.32649142 0.22576576 0.21782142
0.32452899 0.22575304 0.21785407
0.32256761 0.22574028 0.21788642
0.32064128 0.22560388 0.21787973
0.31881458 0.22510707 0.21878429
0.31289268 0.22525835 0.21945339
0.3438701 0.22518513 0.21937524
0.34242725 0.22502205 0.21935028
0.34043047 0.22513291 0.2194218
0.33840474 0.22536701 0.21953273
0.33637825 0.22560105 0.21964365
0.33454198 0.22572166 0.21954378
0.33236799 0.22587967 0.21929042
0.33021331 0.22596186 0.21969888
0.32841837 0.22592118 0.21989062
0.32642114 0.22603211 0.21996218
0.32442385 0.226143 0.22003372
0.32249296 0.22600698 0.22002624
0.32061511 0.22568566 0.21995929
0.31864467 0.22511426 0.2206701
0.31708732 0.22483936 0.22095314
0.31490868 0.22503972 0.22088556
0.31290025 0.22521201 0.22097689
0.31144357 0.22517133 0.22099033
0.3439557 0.2248348 0.22132106
0.34248546 0.22479483 0.22133473
0.34048867 0.22490564 0.22140624
0.33847746 0.22507808 0.22149767
0.33643645 0.22537366 0.22162917
0.33460993 0.22545639 0.22186023
0.32230249 0.22609591 0.22194408
0.32062256 0.22564387 0.22200136
0.31884766 0.22495735 0.22232696
0.31690496 0.22488782 0.22285295
0.3150748 0.22500801 0.22275344
0.31275162 0.225137 0.22283664
0.31150159 0.22494483 0.22296825
0.34398663 0.2247304 0.22334629
0.34254369 0.22456759 0.22331916
0.34054691 0.22467843 0.2233907
0.33855018 0.22478926 0.22346224
0.33653873 0.22496164 0.22355393
0.33449692 0.22525716 0.22368626
0.32201043 0.22595021 0.2241336
0.32068077 0.22541672 0.22398415
0.31902766 0.2248826 0.22401148
0.31694856 0.22471783 0.22433722
0.31471086 0.22512224 0.22416614
0.31293023 0.22506234 0.22452061
0.31155962 0.22471833 0.2249462
0.3423937 0.22453249 0.22519879
0.3405911 0.22451264 0.22539569
0.33860844 0.22456196 0.22544667
0.33661169 0.22467282 0.2255182
0.33458486 0.22490677 0.22563076
0.33305678 0.22511294 0.22572549
0.32210195 0.22559968 0.22607785
0.32077277 0.22506642 0.22592582
0.31891492 0.22468391 0.22583252
0.31692252 0.22479448 0.22590391
0.31493014 0.2249051 0.22597528
0.31298828 0.22483566 0.22650017
0.3112908 0.22449127 0.22710083
0.34045449 0.22441596 0.22725554
0.33869553 0.22421181 0.22738957
0.33675784 0.22407669 0.22737785
0.33471787 0.22437194 0.22751176
0.33263072 0.22485179 0.22770804
0.3286345 0.22507823 0.22836843
0.32663661 0.22518909 0.22843999
0.32463878 0.22529995 0.22851159
0.32269278 0.22522143 0.22800323
0.32086444 0.22471625 0.22786638
0.31895593 0.22451881 0.22783357
0.31696314 0.22462943 0.22790495
0.31488323 0.2246992 0.22827274
0.31311581 0.224704 0.22871621
0.31112361 0.22447783 0.22898306
0.30920246 0.22434673 0.22948569
0.33872497 0.22410744 0.22941567
0.33683071 0.22378814 0.22933981
0.33480591 0.22402176 0.2294534
0.33285561 0.22461367 0.22951502
0.32867819 0.22490773 0.22985758
0.32669637 0.22495711 0.22990802
0.32473144 0.22494483 0.22993731
0.32278413 0.22487101 0.2299456
0.32088882 0.22461244 0.22989036
0.31896266 0.22447684 0.22987729
0.31696919 0.22458744 0.22994871
0.31517035 0.2245878 0.23015097
0.31306848 0.22450548 0.23050191
0.3110761 0.22461611 0.23057327
0.30895203 0.2246159 0.23095228
0.30716217 0.22459564 0.23114727
0.30522749 0.22452119 0.23115455
0.30323678 0.22463164 0.23122586
0.30179724 0.22453448 0.23173098
0.33821154 0.22421044 0.23100671
0.33677179 0.22405243 0.23149303
0.3349511 0.22411156 0.23137189
0.32823694 0.22470802 0.23186098
0.32680258 0.22454521 0.2318292
0.32483843 0.22453302 0.23185784
0.32287532 0.2245208 0.23188671
0.32091346 0.22450849 0.23191541
0.31898671 0.22437298 0.23190127
0.3170273 0.22436056 0.23192985
0.31503382 0.22447118 0.23200127
0.3130224 0.22464341 0.23209423
0.31101054 0.22481573 0.23218715
0.30919987 0.22485715 0.23240338
0.30707446 0.22485712 0.23278226
0.30515707 0.22472104 0.23276752
0.30300835 0.22480309 0.23317483
0.30124554 0.2247006 0.23334044
0.32865408 0.22436139 0.2339711
0.32689297 0.22419506 0.23377037
0.32490331 0.22390854 0.23401247
0.32298321 0.22410917 0.23380506
0.32100511 0.22415838 0.23385493
0.31906191 0.22408453 0.23386125
0.31706804 0.22419518 0.23393284
0.31500369 0.22455209 0.23409104
0.31297311 0.22478586 0.23420607
0.31099597 0.2248351 0.23425576
0.30903772 0.2248227 0.23428363
0.307062 0.22487172 0.23433343
0.30512458 0.22479761 0.23433959
0.30332795 0.22479787 0.23454104
0.30124491 0.22465879 0.2353854
0.3303659 0.22408551 0.23625685
0.32891592 0.22397989 0.2357264
0.32706317 0.22353777 0.23560068
0.32560128 0.22349325 0.23509343
0.32297519 0.22352096 0.23548953
0.32116413 0.22356257 0.23570542
0.31923121 0.22345248 0.23621297
0.31709135 0.22409123 0.23595822
0.31493843 0.22475567 0.23622742
0.31285566 0.2251696 0.23589039
0.31096348 0.2249158 0.23634845
0.30911443 0.22453406 0.23624381
0.30729952 0.22437125 0.23652519
0.30516374 0.22463226 0.23634285
0.30318928 0.22468132 0.23639216
0.3017866 0.22446108 0.23685259
0.33040959 0.22391498 0.23774597
0.32861561 0.22323245 0.23804703
0.32763559 0.22322181 0.23754272
0.31693783 0.22403595 0.23783287
0.31542578 0.22474667 0.23828278
0.31041661 0.22508076 0.23796533
0.309057 0.22415066 0.23799978
0.3072716 0.2241101 0.23818584
0.30573922 0.22431615 0.23828408
0.30319449 0.22463432 0.23792249
0.55991989 0.23965195 -0.0028929878
0.55894536 0.23959342 -0.001859352
0.55797082 0.23953488 -0.00082576275
0.55681199 0.23871815 0.00033047423
0.55553454 0.23739606 0.0015639532
0.55559283 0.23716855 0.003550563
0.54959601 0.23750144 0.0037654005
0.55573237 0.23727769 0.0054868702
0.55416739 0.23720738 0.0050751828
0.55216789 0.23731837 0.0051468089
0.55016845 0.23742935 0.0052184481
0.54815483 0.23747715 0.0052995943
0.55608994 0.23817062 0.0077999793
0.55441087 0.23763806 0.0074545238
0.55232942 0.23741251 0.0075754784
0.55028468 0.23745435 0.0071683731
0.54825568 0.2374391 0.0072585009
0.54621392 0.23736069 0.007358104
0.54421556 0.23735157 0.0079355426
0.54221666 0.23746249 0.0080071613
0.54032415 0.23795891 0.0085119363
0.53824461 0.23781079 0.0081320461
0.53671956 0.23776764 0.0082041044
0.55625588 0.23850381 0.0092225932
0.55468965 0.238215 0.0098201502
0.55256498 0.23782179 0.0099633224
0.55044466 0.23754832 0.0096001085
0.54841405 0.23753318 0.0096895602
0.54639375 0.23756012 0.009773476
0.54441983 0.2377975 0.0098273829
0.54246265 0.23811918 0.0098693557
0.54050082 0.23829976 0.010420432
0.53841436 0.23813093 0.010042176
0.53632659 0.23794076 0.0096672028
0.53443605 0.2377075 0.0099431649
0.55430675 0.23838672 0.011289818
0.55275661 0.23816109 0.011877265
0.55067742 0.23795712 0.011992335
0.54865789 0.23800537 0.012072746
0.54665297 0.23811665 0.012144562
0.54464805 0.23822796 0.012216397
0.54261625 0.238213 0.012305278
0.54054618 0.23800859 0.012419894
0.53864938 0.23785582 0.012357144
0.53639758 0.23777634 0.011646433
0.53434777 0.23763448 0.011752808
0.53283834 0.23753446 0.012320567
0.55235767 0.23826969 0.013357049
0.55085194 0.23835325 0.013410999
0.54883033 0.23828155 0.013998557
0.54679531 0.23826683 0.014086992
0.54473388 0.23812589 0.014192183
0.54264796 0.23785874 0.014313933
0.54057825 0.23765439 0.014427198
0.53832024 0.23755416 0.013717832
0.53644323 0.23748553 0.013643008
0.53441834 0.23747012 0.013731498
0.53238231 0.23739156 0.013828438
0.54840088 0.23826414 0.015496163
0.54688191 0.23816451 0.016065061
0.54479235 0.23789769 0.016185315
0.54270637 0.2376307 0.016305454
0.54063666 0.23742649 0.016417468
0.53857219 0.23736331 0.016021479
0.53650159 0.23725784 0.015631121
0.53446436 0.23717937 0.015727134
0.5324406 0.23716411 0.015815025
0.54679608 0.2380904 0.017883932
0.54489207 0.2378585 0.01815513
0.54280514 0.23759168 0.018273663
0.54076087 0.23751372 0.018368835
0.53873134 0.23749885 0.018456135
0.53665441 0.23737267 0.018066777
0.53468579 0.23718971 0.017974606
0.5324989 0.23693663 0.017801637
0.53051448 0.23699072 0.018369891
0.52851558 0.23710164 0.018441506
0.52651668 0.23721263 0.018513121
0.5250175 0.23729584 0.01856683
0.54500455 0.23800206 0.019612607
0.5429846 0.23793048 0.020198492
0.54092473 0.23778984 0.020300372
0.53888011 0.23771214 0.02039461
0.53681177 0.23750815 0.020503776
0.53469443 0.23717189 0.020138107
0.53259355 0.2368983 0.019765537
0.53058183 0.2369462 0.019844828
0.52867389 0.23742107 0.020363575
0.52668011 0.23757431 0.020430353
0.52464944 0.23751691 0.02052192
