# .PCD v0.7 - Point Cloud Data file format
VERSION 0.7
FIELDS x y z
SIZE 4 4 4
TYPE F F F
COUNT 1 1 1
WIDTH 1465
HEIGHT 1
VIEWPOINT 0 0 0 1 0 0 0
POINTS 1465
DATA ascii
0.57023245 0.22224793 0.13935813
0.57668275 0.22219433 0.1385698
0.58211905 0.22330472 0.13810238
0.58451575 0.22457045 0.1367283
0.5846926 0.22463515 0.13577257
0.39335826 0.23128766 0.14019002
0.39704937 0.22875784 0.14151572
0.40255335 0.22789104 0.14282194
0.40952408 0.22747305 0.14378835
0.41649276 0.2272789 0.14376895
0.42373371 0.2269572 0.14345984
0.4300923 0.22747153 0.14320663
0.43779689 0.22780555 0.14176393
0.44470844 0.22806868 0.14132942
0.45153099 0.22860868 0.14088787
0.45895061 0.2282027 0.14150305
0.46523598 0.22781506 0.14206973
0.47255608 0.22758807 0.14198552
0.47964603 0.22824407 0.14144644
0.48650783 0.22811946 0.14140624
0.49308676 0.22753319 0.14157577
0.50105339 0.22668564 0.14215246
0.5073151 0.22722068 0.14233731
0.51445723 0.22756626 0.1421324
0.52177566 0.22681078 0.14206214
0.52849442 0.22772212 0.14194974
0.53507406 0.22791682 0.14274502
0.54237938 0.22719066 0.14301464
0.54990506 0.22601381 0.14237334
0.55687129 0.22723809 0.14190854
0.56335247 0.22776635 0.14155203
0.56935257 0.22860874 0.14124285
0.57711786 0.22852175 0.14061362
0.58310997 0.22843401 0.13934048
0.58623415 0.22970621 0.13808887
0.39281073 0.23586747 0.1403818
0.39577556 0.2334605 0.14340793
0.4019011 0.23316291 0.1456912
0.40919474 0.23380448 0.14641903
0.41633576 0.23344323 0.14578593
0.42362455 0.23321976 0.14502971
0.42982152 0.23341089 0.14462264
0.43779132 0.23400964 0.14300366
0.44449219 0.23466232 0.14210549
0.45169452 0.23475477 0.14183249
0.4589152 0.23435731 0.14263767
0.46552771 0.23493487 0.14312324
0.47254294 0.2341174 0.14303361
0.47914156 0.23425865 0.1426262
0.48654291 0.23449612 0.142648
0.4935469 0.23437133 0.14303042
0.50112742 0.23410068 0.14373976
0.50636631 0.23400229 0.14383967
0.51468337 0.23474082 0.14300336
0.52140445 0.23510097 0.14271215
0.52875239 0.23428535 0.14315976
0.5351454 0.23415522 0.1433502
0.54260778 0.2340734 0.14369139
0.5499754 0.23414549 0.1439404
0.55669206 0.23424822 0.14358777
0.56398165 0.23485179 0.14292921
0.57012194 0.23434317 0.14220674
0.57760352 0.23445538 0.14152315
0.58377779 0.23520926 0.14028545
0.58730745 0.23527129 0.13813034
0.58824348 0.23293836 0.13566457
0.39075425 0.24102269 0.14171882
0.39485469 0.24105784 0.14509296
0.40138662 0.24018088 0.14747897
0.40892524 0.23987187 0.14829446
0.41632003 0.23917758 0.14765732
0.42413446 0.24005876 0.14653164
0.4305326 0.2403127 0.14559169
0.43778974 0.2422902 0.1441462
0.44431362 0.24163985 0.14333527
0.45177928 0.24075942 0.14343198
0.45872092 0.24102758 0.14377217
0.46528822 0.24145822 0.14405368
0.47274593 0.24058163 0.14417376
0.47947341 0.24148376 0.14419141
0.48681733 0.24112029 0.14419779
0.49358007 0.24051799 0.14460303
0.50057513 0.2406904 0.14495914
0.50693744 0.24078228 0.14510375
0.51480198 0.24115549 0.14442281
0.52162296 0.2413024 0.14349529
0.52832246 0.24110754 0.14380832
0.53591508 0.24063867 0.14427947
0.54294342 0.24081473 0.14485003
0.54953343 0.24069069 0.14517547
0.55634683 0.24053183 0.14467323
0.56405824 0.24110797 0.14348012
0.57063919 0.2413355 0.142627
0.57769936 0.24159634 0.14214379
0.58405966 0.24174382 0.14068401
0.5874846 0.24151054 0.13861516
0.38902137 0.24903822 0.14345239
0.39517596 0.24840218 0.14639869
0.40232494 0.2470151 0.14892645
0.40917709 0.24693373 0.15037388
0.41621986 0.24694175 0.15066114
0.42380974 0.24664119 0.14976968
0.43083492 0.24687167 0.14767268
0.43765542 0.24716648 0.14598444
0.44424039 0.24772942 0.14512196
0.45183393 0.24706328 0.14519677
0.45869514 0.24764381 0.14526919
0.46511984 0.24729893 0.14500284
0.47248489 0.24718012 0.14500833
0.47918043 0.24719681 0.14529181
0.48646304 0.24718826 0.14614993
0.49373335 0.24624702 0.14674591
0.50069743 0.24634956 0.14725135
0.50781518 0.24636368 0.14672355
0.5147357 0.24702175 0.1459122
0.52175552 0.24761844 0.14504513
0.52822894 0.2475109 0.14516941
0.53550363 0.24747792 0.14608945
0.54303205 0.24765526 0.1467191
0.54977125 0.24771099 0.14663421
0.55672061 0.24869576 0.14532757
0.56387198 0.24839851 0.14381178
0.57084429 0.2486921 0.14330545
0.5776788 0.24842949 0.14267239
0.58366698 0.24837756 0.14091524
0.58779103 0.24758738 0.13901109
0.38839105 0.25521836 0.1435973
0.39613017 0.25489962 0.14639252
0.40217844 0.2551446 0.14909789
0.40796146 0.25470886 0.1514957
0.41635081 0.25336272 0.15367241
0.42288783 0.25316963 0.15409766
0.43058443 0.25178084 0.15203874
0.43742898 0.25180626 0.15055069
0.44446066 0.25264648 0.14740998
0.45150951 0.25260103 0.14695521
0.4588435 0.25297374 0.14773104
0.46499404 0.25295344 0.14775029
0.47222075 0.25279319 0.14827685
0.47921732 0.25222078 0.14898925
0.48612761 0.25116104 0.14905648
0.49320179 0.2505267 0.14951472
0.50072199 0.24996112 0.1500968
0.50776321 0.25051653 0.15013033
0.51554519 0.25203755 0.14923505
0.52210414 0.25306782 0.14859752
0.52905548 0.2525126 0.14938132
0.53637636 0.25253946 0.14993046
0.5440644 0.25323641 0.14981541
0.55057377 0.25377178 0.14860518
0.55680543 0.25472653 0.1463476
0.56396657 0.25485474 0.14475636
0.57040036 0.25493202 0.14387761
0.57832557 0.25536707 0.14269949
0.58326679 0.25485396 0.14122094
0.58721846 0.25686249 0.13888782
0.3895835 0.26121914 0.14460899
0.39601767 0.26321256 0.1474551
0.40080813 0.26178122 0.14892177
0.40738425 0.26208225 0.15156868
0.41546145 0.26164657 0.15423551
0.42084327 0.25923622 0.15544719
0.47360301 0.25460979 0.15036249
0.52581072 0.25336441 0.14953035
0.53080976 0.25387439 0.15075713
0.53719884 0.2543461 0.15130046
0.54627848 0.25622913 0.1509618
0.55184042 0.25955164 0.15036674
0.55777413 0.26168329 0.14800163
0.564578 0.26292807 0.1456881
0.56942141 0.26185575 0.14453994
0.57943827 0.26241311 0.14270332
0.58325517 0.26270407 0.14114849
0.58701479 0.26183 0.13832164
0.58902031 0.2603544 0.13598178
0.39160591 0.26936209 0.14725068
0.39538753 0.26940691 0.14814587
0.40187076 0.26918873 0.14930116
0.40765598 0.2694613 0.15033519
0.41517231 0.2694087 0.15300359
0.4196085 0.26998547 0.15373293
0.55408508 0.2681233 0.15145649
0.55834377 0.26842299 0.14864655
0.56454641 0.26902464 0.14623207
0.57070786 0.27022687 0.14477241
0.57798696 0.26979825 0.14289661
0.58284926 0.269532 0.14093336
0.58634543 0.26920071 0.13799722
0.39008567 0.27664435 0.14842753
0.39512345 0.2750591 0.14891212
0.4029142 0.27676955 0.14935263
0.40837181 0.27682358 0.14970362
0.41491362 0.2772423 0.15217181
0.41873902 0.27615637 0.15363716
0.55431205 0.27576575 0.15121424
0.55801737 0.27634466 0.14833058
0.56448579 0.27640039 0.14621277
0.57068866 0.27618331 0.14460832
0.57692742 0.27593246 0.14279781
0.5828281 0.27649674 0.14045164
0.58575255 0.27551991 0.13769333
0.39616179 0.28102264 0.14933363
0.40337932 0.28362086 0.14898734
0.40881756 0.28340778 0.1494364
0.41461906 0.28357184 0.1508548
0.41640359 0.28375626 0.15154132
0.55358118 0.28298751 0.1495588
0.55806941 0.2834194 0.14712606
0.56408185 0.28361896 0.14622852
0.57068563 0.28363162 0.14494631
0.57701975 0.28351435 0.14280787
0.58231223 0.28360152 0.14052509
0.40427741 0.29055071 0.14787944
0.40894899 0.29021251 0.1484105
0.41511783 0.29038155 0.14923219
0.41641802 0.28902179 0.15028434
0.55009162 0.29303297 0.15014824
0.55331635 0.29053134 0.14865057
0.55763972 0.29005778 0.14686826
0.56431907 0.29000166 0.14643356
0.57061589 0.29014093 0.14541064
0.57739753 0.29020268 0.14317605
0.58262491 0.29080302 0.14146191
0.58645183 0.28832775 0.13699363
0.58793598 0.29217982 0.1359832
0.40322661 0.29719669 0.14818974
0.4100056 0.29757172 0.14841007
0.41609919 0.29727802 0.14966854
0.54956162 0.29636356 0.15141052
0.55291313 0.29719132 0.14890844
0.5575822 0.29743212 0.14743511
0.56423438 0.2975485 0.14670292
0.57044834 0.29737368 0.14570931
0.57736337 0.29738373 0.14447834
0.58322853 0.29749548 0.14191569
0.58683842 0.29844749 0.13882637
0.4033424 0.3040266 0.14924882
0.40996647 0.30385533 0.14864063
0.41560176 0.30338115 0.1489422
0.55342185 0.3042011 0.14936353
0.55745852 0.30450335 0.14749776
0.5643537 0.30430579 0.1474991
0.57149082 0.30421698 0.14640918
0.57800329 0.30322775 0.1448929
0.58357537 0.30455291 0.14339462
0.5868367 0.30423874 0.1406433
0.40531614 0.30813521 0.15004635
0.41069636 0.30829856 0.14955552
0.41605976 0.30999145 0.150267
0.5536263 0.31159765 0.14941254
0.55775142 0.31172836 0.1480823
0.56427431 0.31149912 0.14784117
0.57157743 0.31099826 0.1465797
0.57825941 0.3113814 0.14529732
0.58392721 0.31142262 0.14358595
0.58654058 0.30963647 0.14091329
0.58683723 0.31136578 0.14001636
0.4172574 0.3163287 0.15173572
0.41844696 0.31993437 0.15322381
0.55353552 0.31845769 0.14927763
0.55732965 0.3180604 0.14819081
0.56395572 0.31846359 0.14779289
0.57137686 0.3181549 0.14674759
0.57849509 0.31859598 0.14588666
0.58445656 0.31852809 0.14363343
0.58691829 0.31935841 0.14058831
0.41861528 0.32054904 0.15342897
0.55293226 0.32553181 0.14899063
0.55747437 0.32506362 0.14769796
0.56391954 0.32542107 0.14774728
0.57189542 0.32593206 0.14730361
0.5781666 0.32555228 0.14678301
0.58439356 0.32558078 0.14429459
0.58666205 0.32584012 0.14114419
0.55219972 0.3330296 0.14879875
0.5567224 0.33096978 0.14727023
0.56425458 0.33206531 0.1478789
0.57108617 0.33131394 0.14783166
0.57729393 0.33176318 0.14735506
0.58511382 0.33214554 0.14411953
0.58715582 0.3329863 0.14076245
0.55226654 0.33980396 0.14918062
0.55626291 0.33967194 0.14825916
0.56460834 0.34000483 0.14818779
0.57202685 0.33921519 0.14820825
0.57899606 0.33998272 0.14822257
0.58553392 0.33910269 0.14422369
0.58690548 0.33919212 0.14170507
0.5524624 0.34611112 0.14878689
0.55645925 0.34700036 0.14859101
0.56418711 0.34510854 0.14854364
0.57329357 0.34401259 0.1490473
0.57839274 0.34527043 0.14892635
0.58614659 0.34681606 0.14538294
0.5876413 0.34652567 0.14166854
0.55256832 0.3520532 0.14801431
0.55550355 0.35258597 0.14770816
0.57051176 0.35508004 0.14956388
0.57799011 0.35384774 0.14916575
0.58584505 0.35309431 0.14620297
0.58789504 0.35309449 0.14114983
0.54586756 0.36207151 0.15131487
0.5573408 0.36060894 0.14905366
0.56358069 0.36186284 0.1496778
0.56980997 0.35793182 0.14922874
0.57828778 0.36028945 0.14932805
0.58631819 0.36089775 0.1456369
0.58786142 0.36088291 0.14218755
0.5574497 0.36725974 0.14958905
0.56235582 0.36550704 0.14981055
0.58024156 0.36882877 0.14955059
0.58684856 0.36799464 0.14567643
0.58782899 0.36720073 0.14259467
0.58753496 0.37125403 0.14257942
0.55869675 0.37098533 0.15027197
0.58179772 0.37367398 0.1495163
0.58656126 0.37438905 0.14552151
0.58827913 0.37276521 0.14136317
0.58857316 0.37786901 0.14253315
0.58175552 0.38106939 0.14801012
0.58558005 0.38138106 0.14584889
0.59148902 0.38529623 0.13962033
0.59078336 0.38339174 0.13961387
0.39399201 0.38984248 0.14410514
0.55524695 0.39178988 0.15475349
0.55755907 0.39052191 0.15342508
0.58144116 0.38794926 0.14779367
0.58512568 0.38879523 0.14546569
0.59125686 0.38946596 0.14051788
0.59227455 0.38831523 0.13860302
0.39640355 0.39305592 0.14366207
0.5562951 0.39281937 0.15383808
0.57156652 0.39650294 0.15129596
0.58038783 0.3955366 0.14823733
0.58570462 0.395742 0.14490867
0.58835763 0.39522365 0.14305152
0.56487072 0.40403417 0.15223786
0.5752908 0.40540519 0.15063661
0.57604462 0.40552267 0.15044655
0.58520621 0.40221849 0.14512655
0.58913839 0.40334457 0.14274222
0.59298712 0.4056007 0.13853195
0.57320064 0.4063789 0.15113421
0.57770854 0.40763843 0.14916258
0.58578581 0.40934864 0.14613093
0.58973145 0.40921381 0.14352943
0.59267545 0.40837985 0.14010862
0.55889356 0.41701832 0.1505971
0.56080759 0.41834572 0.15031242
0.57276046 0.41747263 0.15018159
0.57850528 0.41695598 0.14951344
0.58484459 0.41814926 0.14804158
0.58954549 0.41638315 0.14491758
0.55234963 0.42673263 0.14817534
0.55435777 0.42502114 0.14842619
0.56688303 0.42249525 0.14914958
0.57099551 0.43014461 0.14453952
0.58784598 0.42112815 0.14634553
0.58960658 0.42153844 0.14421658
0.46258518 0.43786541 0.14248691
0.46462518 0.43758923 0.14225712
0.47267309 0.43646315 0.14397445
0.4930433 0.43518296 0.14126182
0.5023421 0.4360438 0.14113827
0.5248962 0.43614289 0.14868908
0.57303476 0.43032035 0.14381313
0.57422912 0.4311125 0.14266267
0.58782732 0.42706624 0.14059003
0.5878557 0.42595342 0.14091264
0.40854362 0.43283352 0.14482394
0.40899542 0.43459773 0.1448373
0.46773946 0.43673217 0.14302425
0.470532 0.43698558 0.1414919
0.47944185 0.43600023 0.14208853
0.48707372 0.43492413 0.14259024
0.4937318 0.43450546 0.14383303
0.49972412 0.4349227 0.14356646
0.50772047 0.43605641 0.14359665
0.51275998 0.43702385 0.14170021
0.52351981 0.43753794 0.14385362
0.52606893 0.43702385 0.1439075
0.55119085 0.43349093 0.14418505
0.55561596 0.43185622 0.14249477
0.56121701 0.43321151 0.1391443
0.57569176 0.43118694 0.14248495
0.58668286 0.42733389 0.1416353
0.41369462 0.43745774 0.14170213
0.41572285 0.43965596 0.14081706
0.42664874 0.44691339 0.14618126
0.42885572 0.4473488 0.14545989
0.44025287 0.44694486 0.14710073
0.44486234 0.44626442 0.14375794
0.44915482 0.44459844 0.14303415
0.52102745 0.4373005 0.14532691
0.4266538 0.44748247 0.14599778
0.42957363 0.44776493 0.14399029
0.40476823 0.22431192 0.14225118
0.41241789 0.22340122 0.14195694
0.4160234 0.22307836 0.14252739
0.42288807 0.2227464 0.14184164
0.42581415 0.22197822 0.14086525
0.50415367 0.22128238 0.1381541
0.50721622 0.22147304 0.13857275
0.53090125 0.22042887 0.13858454
0.53418285 0.21987352 0.13846403
0.54234111 0.21982554 0.13885798
0.55666447 0.21976507 0.13834514
0.56052768 0.21950883 0.13858841
0.57828772 0.22059813 0.13852836
0.57973921 0.2200484 0.13784336
0.40053299 0.22685257 0.14206421
0.40474078 0.22658779 0.14228693
0.41073367 0.22652607 0.14265196
0.41505751 0.22500198 0.14272106
0.42461976 0.22399801 0.14189529
0.42723918 0.22528335 0.1422428
0.43774626 0.22515982 0.14099467
0.44147807 0.22479457 0.14042446
0.45414466 0.22487269 0.13851111
0.4575409 0.22494315 0.13963605
0.46875724 0.22367267 0.13968527
0.47310516 0.22304384 0.13942429
0.47675151 0.22241864 0.13861066
0.49639043 0.22240038 0.13881974
0.50232708 0.22214568 0.13867413
0.52382869 0.22597572 0.14088328
0.53078109 0.22145368 0.13922091
0.53248447 0.22146463 0.13952138
0.55424309 0.22086097 0.13902229
0.56636071 0.22603445 0.14096864
0.5771907 0.22197148 0.13925128
0.58081084 0.22335 0.13881889
0.39513558 0.23413357 0.14133872
0.39966613 0.22959097 0.14305454
0.40247464 0.23019779 0.14439592
0.41025224 0.2297463 0.1446645
0.4148111 0.2302191 0.1442804
0.42598024 0.22964171 0.14290987
0.42786238 0.22994706 0.14298347
0.4374294 0.2325561 0.14192829
0.46528178 0.22973676 0.14207573
0.48218352 0.23227997 0.1412645
0.5093044 0.23139907 0.14235455
0.51374674 0.23134257 0.1419002
0.52347666 0.22773832 0.14166033
0.53919202 0.23216155 0.14269352
0.54237282 0.23028542 0.14290507
0.54914582 0.2310653 0.14316155
0.55788237 0.2310681 0.14238413
0.56393272 0.23020799 0.14156364
0.56880915 0.22941396 0.14135863
0.57618254 0.2275921 0.14053541
0.58203518 0.22820626 0.1393884
0.39469177 0.2359641 0.14142406
0.39935607 0.23722002 0.14553219
0.40296024 0.2360211 0.14590324
0.409612 0.23607415 0.14617407
0.41402796 0.23553638 0.14525022
0.42563063 0.23385073 0.14364837
0.42670158 0.23463672 0.14377341
0.43764105 0.23549327 0.1422929
0.44207004 0.23765606 0.14263061
0.46186846 0.23468991 0.14246021
0.46439716 0.235957 0.14286448
0.47192532 0.23803675 0.1429732
0.48167074 0.23618676 0.14211547
0.48501471 0.23606977 0.14208563
0.49522308 0.23954205 0.14412118
0.50159556 0.23709384 0.1436253
0.50690114 0.23608097 0.14335246
0.51547891 0.23606297 0.14214891
0.51864332 0.23793942 0.14222507
0.54225171 0.23561244 0.14303076
0.55032265 0.23271844 0.14327317
0.5566228 0.23389851 0.14306991
0.56324482 0.23421368 0.1425021
0.5674032 0.23403074 0.14202927
0.58275735 0.23554705 0.14002742
0.58613718 0.23588733 0.13915157
0.39951578 0.24318478 0.146083
0.40254852 0.24155161 0.14688258
0.4094353 0.24122155 0.14799775
0.4166244 0.24425422 0.14844455
0.42139697 0.24367477 0.14690095
0.4421069 0.24589309 0.14443007
0.46770459 0.24238287 0.14392227
0.47121605 0.24295472 0.14384846
0.49520048 0.24348219 0.1451371
0.49911067 0.24398376 0.14560062
0.50760508 0.2447806 0.14561728
0.51449728 0.2455411 0.144934
0.51964426 0.24419251 0.14395417
0.54397672 0.24404831 0.14476542
0.54696047 0.2450417 0.14527385
0.57808429 0.24335247 0.14178947
0.58291107 0.24176075 0.14083806
0.5855028 0.24082093 0.1400528
0.39861006 0.24875066 0.14652479
0.40200746 0.24905512 0.14812313
0.40950805 0.25026062 0.15119635
0.41662404 0.24874061 0.15228686
0.42081159 0.24939626 0.15185589
0.43099108 0.25003999 0.15056115
0.44051009 0.24758878 0.14489558
0.44176048 0.24763912 0.14432812
0.45353147 0.25239691 0.1464494
0.45596623 0.2512618 0.14624478
0.46678352 0.25054914 0.14551552
0.47200763 0.25016099 0.14572921
0.47939014 0.25048175 0.14696532
0.48948425 0.24983239 0.14811017
0.49323937 0.2491767 0.14799127
0.49981341 0.24725093 0.14757454
0.50856471 0.24955973 0.1481349
0.51358998 0.24985632 0.14783657
0.5199939 0.24882403 0.1454411
0.53341311 0.25030446 0.1472095
0.54344136 0.25127369 0.14803073
0.54714525 0.24920063 0.14716469
0.55366164 0.25470582 0.14539823
0.57108951 0.2519311 0.14302197
0.57394302 0.25181764 0.14266868
0.58294255 0.2489486 0.14093924
0.5850364 0.24508832 0.14013381
0.39119703 0.25753802 0.14447747
0.39625534 0.25466979 0.14626665
0.4025262 0.25526461 0.14804614
0.40998283 0.25606263 0.15212969
0.41583723 0.25386515 0.15481745
0.42313656 0.25312796 0.15577959
0.43010566 0.25294527 0.15510112
0.43722275 0.25347716 0.15260269
0.44447809 0.25518125 0.15063247
0.45192173 0.2552689 0.15070845
0.45841041 0.25509721 0.15087663
0.46570164 0.25480285 0.15032275
0.47213942 0.25467291 0.150593
0.47937316 0.25428498 0.15182562
0.48651212 0.25307691 0.15201549
0.49340191 0.25228053 0.15192293
0.50050628 0.25207859 0.15276614
0.50796908 0.25264549 0.15262233
0.51487225 0.2536661 0.15195128
0.52185339 0.25482804 0.15171751
0.52914214 0.25431862 0.15311736
0.53689367 0.25462136 0.15341108
0.54358298 0.25604463 0.15223786
0.54887158 0.25544021 0.14965604
0.55526471 0.25760239 0.14665872
0.55987686 0.25824907 0.14529979
0.57058239 0.25318116 0.14312162
0.57624078 0.25462547 0.14258327
0.5805667 0.2560342 0.14181808
0.39140177 0.26165667 0.14480288
0.39504242 0.26392809 0.1467053
0.40351468 0.26304904 0.14864455
0.40809265 0.26121131 0.14995104
0.41418907 0.26214656 0.15465678
0.42324147 0.25798926 0.15575859
0.45457593 0.25582948 0.15474465
0.45664799 0.25540781 0.15344767
0.47351789 0.25545359 0.151787
0.47580492 0.25566372 0.15196221
0.54602474 0.25792667 0.15252283
0.55005074 0.26169434 0.15157871
0.55569398 0.26183036 0.14829969
0.56177562 0.26354277 0.14590977
0.56608868 0.26371366 0.14466365
0.5761382 0.26177099 0.14268266
0.57941341 0.26198244 0.14215545
0.39692557 0.26961175 0.14784124
0.40411851 0.26935881 0.14771909
0.41047886 0.26975712 0.14983225
0.41443461 0.26921034 0.15266161
0.55019337 0.26848376 0.15478989
0.55197722 0.26835424 0.15220813
0.55507118 0.2687526 0.15044248
0.56309301 0.27098671 0.14640234
0.56694698 0.26859316 0.14479725
0.57654256 0.27081347 0.14257082
0.57998371 0.2681537 0.14204077
0.38983306 0.27879754 0.14872539
0.39636812 0.27668503 0.14855713
0.40330622 0.27626806 0.14773437
0.41224888 0.27563977 0.15002422
0.4143407 0.27453873 0.15270118
0.41612685 0.27768156 0.15398306
0.55112219 0.27202782 0.15515663
0.55169547 0.27558321 0.15288807
0.55563611 0.27645385 0.14920153
0.56273019 0.27329192 0.14666563
0.5700202 0.27748796 0.14443877
0.57528007 0.27590626 0.14285642
0.58133733 0.2773262 0.14086553
0.39084059 0.281032 0.14913857
0.39469165 0.28293818 0.14942046
0.40752399 0.28321379 0.14674817
0.40989462 0.28383356 0.1472778
0.41607603 0.28465533 0.1513188
0.41693306 0.28398022 0.15253803
0.55110621 0.28339416 0.15191478
0.55437648 0.28367537 0.14868601
0.56367385 0.28514317 0.14584476
0.57080305 0.28300899 0.14453791
0.57494122 0.28557119 0.14348412
0.58003813 0.2849181 0.14140604
0.39376447 0.29100311 0.14969757
0.40685526 0.29011828 0.14603096
0.41135809 0.29037714 0.14659338
0.41646186 0.29169858 0.14909442
0.41854954 0.29102656 0.1524269
0.54994428 0.29136556 0.15201198
0.55070609 0.2904034 0.15139978
0.55481744 0.29093927 0.1479816
0.56180668 0.29194638 0.14632624
0.57190591 0.29184863 0.14461471
0.57534236 0.29047671 0.14345939
0.57891709 0.28815109 0.14235705
0.39164746 0.29881862 0.15152234
0.39306703 0.2982797 0.15061492
0.40353963 0.29857755 0.14818898
0.40962413 0.29823333 0.14832643
0.41739878 0.29670748 0.14936134
0.41875648 0.29766026 0.15251112
0.55005044 0.29907143 0.15158093
0.55122042 0.29774603 0.15104578
0.55562353 0.29727 0.14782605
0.56248164 0.29854101 0.14669648
0.57024509 0.29693976 0.14559624
0.57552844 0.29540053 0.14396277
0.58056498 0.29903868 0.14357276
0.39157054 0.30328703 0.15404263
0.39261883 0.30257383 0.15258105
0.40234363 0.30307338 0.14928104
0.40854043 0.30229545 0.14831887
0.41852319 0.30479324 0.15160255
0.41996607 0.30428562 0.15285008
0.54953152 0.30457729 0.15397175
0.55147493 0.30453545 0.15178692
0.55609518 0.30464417 0.14811996
0.56317902 0.30424684 0.14733545
0.56951338 0.30566415 0.14637882
0.57616097 0.30557057 0.14489077
0.58108836 0.30473286 0.14421766
0.41071746 0.30829418 0.14955446
0.41825297 0.31073731 0.15101857
0.41942629 0.31016588 0.15357015
0.54962909 0.31111181 0.15459754
0.55151242 0.31160846 0.15217356
0.554618 0.31020343 0.14881417
0.56499165 0.31103787 0.14729853
0.56904507 0.31227681 0.14656369
0.57640809 0.31175208 0.14513913
0.58021212 0.31183311 0.14500578
0.58577591 0.31129792 0.14150245
0.58633995 0.31119567 0.14056748
0.40730312 0.31965503 0.15516545
0.4183751 0.31660488 0.15243499
0.42025471 0.31789702 0.15438782
0.54952699 0.31980577 0.15368085
0.55121338 0.31846437 0.15149459
0.55477118 0.31951657 0.14870861
0.56542265 0.31861082 0.14716052
0.56981856 0.31847164 0.14658342
0.57647187 0.31893867 0.14576979
0.58048552 0.31908572 0.14554012
0.40671206 0.32199898 0.15810485
0.40756747 0.32133082 0.15602203
0.42004371 0.32602438 0.15708032
0.42103297 0.32176149 0.15644479
0.54901785 0.32529956 0.15326497
0.55035454 0.3253673 0.15074936
0.55652428 0.32615238 0.14778312
0.56381059 0.32597691 0.14750455
0.57000554 0.32554048 0.14645584
0.57709223 0.32509345 0.14662026
0.58144665 0.32566097 0.14603461
0.41673219 0.32863683 0.15609372
0.41778544 0.32962933 0.15748437
0.5483191 0.33228937 0.15205932
0.54950553 0.33235997 0.15061007
0.55664796 0.33246613 0.14738864
0.5624159 0.33295107 0.14750685
0.57056314 0.33275896 0.14780386
0.57781857 0.33259156 0.14737561
0.58154732 0.33300307 0.14695878
0.41249439 0.33804831 0.15871787
0.54725027 0.34062913 0.15216446
0.5493598 0.33953184 0.15075999
0.55699337 0.3391172 0.14808299
0.56311458 0.33900616 0.14801903
0.5704996 0.33993429 0.14798589
0.57761866 0.33969945 0.14836374
0.58225697 0.3394725 0.14715627
0.5860458 0.34238049 0.14443071
0.4107126 0.34118703 0.15835288
0.54718274 0.34620443 0.15230373
0.54883331 0.34647465 0.14986703
0.55734295 0.34641096 0.14833927
0.56331509 0.34714055 0.14838018
0.57097828 0.34625483 0.14888963
0.5771451 0.34664428 0.14885986
0.58269167 0.34666288 0.14782983
0.58579534 0.34436291 0.14525272
0.40094918 0.35534325 0.15662128
0.54613513 0.35384601 0.15283175
0.54939616 0.35356817 0.14961535
0.5568279 0.35390314 0.14802469
0.56362611 0.35345608 0.14872885
0.57024366 0.35317704 0.1490017
0.57749361 0.3535912 0.14923687
0.58172667 0.35377634 0.14858949
0.58584476 0.35420403 0.14451374
0.40061152 0.3579213 0.1570227
0.54579622 0.36271176 0.15185845
0.54594755 0.36054531 0.15279722
0.54913956 0.36048362 0.14926571
0.55641359 0.36007351 0.14871651
0.56341189 0.36043453 0.14889015
0.57032847 0.36091158 0.14880723
0.5767771 0.36055312 0.14901267
0.58293569 0.3602618 0.14775179
0.58602059 0.35876453 0.1460045
0.40066427 0.36928204 0.15489544
0.54599839 0.36650425 0.15291412
0.54669428 0.36783603 0.15278317
0.54933763 0.3676171 0.1497876
0.55658072 0.36776772 0.14973208
0.56373304 0.36734495 0.14981276
0.57072979 0.36792886 0.14944175
0.57677335 0.36761922 0.14894065
0.58292806 0.36729455 0.14778827
0.58662522 0.36980405 0.14497674
0.58711725 0.37109798 0.1432611
0.39935714 0.37538722 0.15102366
0.40178084 0.375337 0.15452507
0.54743677 0.37369132 0.15311603
0.54936457 0.37426552 0.15063955
0.55696309 0.37424183 0.15034795
0.56378329 0.37457058 0.15030208
0.57035589 0.37430781 0.14941013
0.57659304 0.37487936 0.14949143
0.58295882 0.37527546 0.1484648
0.58623958 0.37488776 0.14545414
0.58779335 0.37515801 0.14313543
0.39820361 0.38068333 0.15036762
0.40125778 0.38211432 0.15503219
0.4024305 0.37854105 0.15598045
0.54721814 0.38047075 0.15421079
0.55022669 0.38145676 0.15238166
0.55709773 0.38132647 0.15138492
0.56340253 0.38097516 0.15052889
0.57024211 0.38057774 0.14948444
0.5770427 0.38130519 0.14914754
0.58224845 0.38153771 0.14757243
0.58696342 0.38208234 0.14437987
0.58834308 0.38266519 0.14331673
0.40061173 0.38694632 0.15450072
0.54849404 0.38974145 0.15952794
0.55144811 0.38824835 0.15660635
0.55753839 0.38834697 0.15295604
0.56287229 0.38916785 0.15155379
0.57077175 0.39031878 0.1501943
0.57745039 0.38869727 0.14889176
0.58249927 0.38861865 0.14708295
0.58734316 0.38899037 0.14382865
0.58888859 0.38834354 0.14247978
0.54767877 0.39553022 0.15894581
0.55135304 0.3949576 0.15584892
0.55739373 0.39515698 0.15320294
0.56415635 0.39604294 0.151895
0.57071871 0.39540192 0.15113151
0.57776976 0.39566156 0.14908652
0.58298224 0.39582404 0.14612065
0.58670056 0.39506841 0.14388457
0.40223658 0.40451294 0.15846592
0.41671816 0.40633547 0.16346379
0.42285591 0.40665832 0.16509819
0.42898679 0.40878853 0.16544849
0.43612 0.40811446 0.16481125
0.44514862 0.4114269 0.15547793
0.45185173 0.4102433 0.15560843
0.45850515 0.40929657 0.15595903
0.46272084 0.40903804 0.15525068
0.48156926 0.40729439 0.1573524
0.4866246 0.40743741 0.15681556
0.49430913 0.40698582 0.15841468
0.50035244 0.40771976 0.15928543
0.50789845 0.40921268 0.16032389
0.51519412 0.40849712 0.16364212
0.52312052 0.40945533 0.16432044
0.53213674 0.40909991 0.16485022
0.53711885 0.4081127 0.16349258
0.54702628 0.40415218 0.1587375
0.55101109 0.40272751 0.1566229
0.5570671 0.4026587 0.15343228
0.56468642 0.40186799 0.15192592
0.57039392 0.40256628 0.15113045
0.57726097 0.40307263 0.14921996
0.58314693 0.40302661 0.14603871
0.58742946 0.4034858 0.14359282
0.5907017 0.40420845 0.14211209
0.40271071 0.40842825 0.15955128
0.40675265 0.41248626 0.16077128
0.41341478 0.41209954 0.16137648
0.47566476 0.40948245 0.15649304
0.47670126 0.40967607 0.15642798
0.50983673 0.40995952 0.15900882
0.52325684 0.41064221 0.16380572
0.53010297 0.40997839 0.16450827
0.53889394 0.41401309 0.15934478
0.54556531 0.41150174 0.15736596
0.54984021 0.41200089 0.1541816
0.55660725 0.40935612 0.15235904
0.56394094 0.40952945 0.15138142
0.57049757 0.40994588 0.15064944
0.57735479 0.40928924 0.14914462
0.58372289 0.40949512 0.14711285
0.58899885 0.40934077 0.14409307
0.59280413 0.41043815 0.14235997
0.59562981 0.41360867 0.13863611
0.40520045 0.41857502 0.16066961
0.40880454 0.41786787 0.16008587
0.41398099 0.41829795 0.15954879
0.53242654 0.41928732 0.15768068
0.53649306 0.41906735 0.15756987
0.54465556 0.41768643 0.15501218
0.55016035 0.4155362 0.15341789
0.55723834 0.414942 0.15072881
0.56364846 0.41604087 0.1502317
0.57032156 0.41553092 0.15014298
0.5775615 0.41573066 0.1493202
0.58401757 0.41608465 0.14784101
0.58953279 0.41572261 0.14524439
0.59281659 0.41605988 0.14300147
0.59524876 0.41544017 0.13944064
0.40307957 0.42943785 0.15926553
0.40426937 0.42519253 0.15912004
0.41117775 0.42690152 0.15717192
0.41717401 0.42443645 0.15850529
0.42272449 0.42815557 0.15832633
0.42745712 0.42886147 0.15891975
0.48091343 0.42671746 0.15371437
0.48659924 0.42711118 0.15340573
0.49362135 0.42647114 0.15313484
0.49773923 0.42682368 0.15252541
0.51703072 0.42627454 0.15397288
0.52005988 0.42659009 0.15372063
0.54427069 0.42326435 0.15227512
0.54868656 0.42493567 0.15002529
0.55414605 0.42558235 0.14829277
0.56610078 0.42159796 0.14905049
0.56973428 0.4215894 0.14936733
0.57645595 0.42363292 0.14905325
0.585464 0.42128539 0.14742203
0.58877647 0.422369 0.14536203
0.59090638 0.42313907 0.14439833
0.4023239 0.4311789 0.15885985
0.40317348 0.43316531 0.15295409
0.42399034 0.43068701 0.15788819
0.4279398 0.4312931 0.1583889
0.44775212 0.43507019 0.15514196
0.45243683 0.43261573 0.15468051
0.45863193 0.43179321 0.15230334
0.46651211 0.43126291 0.1513992
0.47236487 0.43105301 0.15104906
0.4796012 0.42994931 0.15191446
0.48660719 0.42945784 0.15176933
0.49340007 0.42999259 0.15074033
0.50068784 0.42898771 0.15084851
0.50744271 0.43003729 0.15109953
0.51435614 0.4306919 0.15175378
0.52177781 0.43104285 0.1517631
0.52825594 0.43100464 0.15124138
0.53537196 0.4301337 0.1508788
0.54123855 0.42831403 0.15034595
0.54867399 0.4282726 0.1479793
0.55546373 0.4273102 0.14671555
0.56282842 0.42917034 0.14572346
0.57061958 0.42912313 0.14559518
0.57625389 0.42868108 0.14584692
0.58248252 0.42783228 0.1451757
0.58680326 0.4265548 0.14415869
0.58951592 0.42520198 0.14377327
0.39825395 0.43499577 0.15165895
0.40303189 0.43587154 0.1490972
0.40745544 0.43682265 0.15024363
0.42135286 0.44075108 0.15215082
0.43866548 0.43707412 0.15544263
0.4442791 0.43605566 0.15481862
0.46091637 0.43321466 0.15087235
0.46454006 0.43313092 0.15034324
0.47136116 0.43339783 0.14868633
0.47939944 0.43316075 0.14895284
0.48593277 0.43326819 0.14831027
0.49309 0.43300804 0.14813063
0.50075626 0.43358058 0.14797345
0.50796723 0.43418255 0.14833353
0.51551878 0.43362045 0.15034291
0.51987356 0.43547463 0.15095037
0.52957737 0.4344914 0.15008274
0.53529 0.43335658 0.14908385
0.54112285 0.43274412 0.14741227
0.54846853 0.43184021 0.14621417
0.55583453 0.43052763 0.14561616
0.56194502 0.43048617 0.14442746
0.56923097 0.43077698 0.14407538
0.57691646 0.43063608 0.14402984
0.58109254 0.43000078 0.14416844
0.58584589 0.42786232 0.14331025
0.58817375 0.42663386 0.14438522
0.42386568 0.4447504 0.14951631
0.4283548 0.44710943 0.14841609
0.44004494 0.44579577 0.14848991
0.44315335 0.44510782 0.1471439
0.44781336 0.44351298 0.14597651
0.47982252 0.43369681 0.14781663
0.51754171 0.43684122 0.14788093
0.519261 0.43698969 0.14754395
0.53135735 0.43777266 0.14979669
0.53430563 0.43803611 0.14842352
0.54549122 0.43524796 0.14736445
0.4204075 0.44463643 0.14661621
0.42295873 0.44636405 0.14628129
0.42933545 0.44710055 0.1486977
0.43940729 0.44495818 0.14956343
0.44352967 0.44461817 0.14726621
0.42634919 0.44791946 0.14497927
0.40242374 0.23972133 0.14558786
0.54295218 0.24093483 0.14343847
0.54457951 0.24320254 0.14386198
0.55517298 0.24048959 0.14287408
0.40224174 0.24162446 0.14585948
0.42078698 0.24637751 0.14825511
0.49615985 0.24805576 0.14733486
0.49782795 0.24790129 0.14759681
0.50781184 0.24882904 0.14758791
0.54316229 0.24491504 0.14439431
0.54454935 0.24397185 0.14402086
0.41934964 0.2541782 0.15452254
0.4229821 0.25377235 0.15468758
0.41677618 0.25772882 0.15244886
0.41813093 0.25585836 0.15630935
0.42348516 0.25444257 0.15731251
0.42990494 0.253196 0.15852761
0.43704277 0.25359404 0.15805033
0.44458443 0.25528091 0.15767948
0.4507328 0.25541529 0.15756999
0.46017969 0.25547948 0.15760864
0.46519771 0.25593662 0.15789239
0.47159904 0.25629881 0.15908353
0.47974005 0.25563037 0.15697953
0.4868992 0.25445926 0.15753852
0.49333176 0.25399232 0.15766455
0.50029153 0.25386161 0.15795222
0.50754136 0.2542541 0.15792964
0.5146293 0.25517565 0.15802303
0.52167177 0.25543436 0.15815113
0.52891314 0.25496072 0.15820061
0.53600925 0.25566265 0.15796641
0.54219562 0.25804362 0.15691608
0.54482847 0.26020977 0.15611883
0.55169833 0.25897473 0.14800563
0.4109433 0.26283479 0.14850146
0.41346315 0.26179805 0.15027791
0.41821662 0.26355034 0.15709332
0.45557204 0.2557908 0.15559435
0.50384045 0.25357884 0.1614726
0.50482589 0.25395417 0.16152599
0.54455835 0.25984269 0.15725271
0.54718375 0.26318562 0.15639645
0.55079263 0.26451907 0.15170677
0.56138229 0.26450032 0.14554626
0.57391387 0.26180503 0.14278495
0.40079367 0.26983345 0.14739192
0.40553948 0.2712594 0.14778981
0.41743585 0.2686989 0.15698196
0.54907483 0.27071461 0.16085291
0.5492537 0.26908886 0.15752883
0.5504688 0.27010131 0.1552605
0.40718624 0.2755973 0.14753208
0.4134773 0.27674043 0.15055469
0.41663128 0.27526104 0.15568712
0.54963821 0.2738106 0.15978475
0.54920751 0.27692121 0.1580499
0.41035888 0.28138018 0.14797899
0.41188934 0.28257957 0.14841457
0.54789269 0.28349236 0.15731145
0.41936362 0.29423648 0.15523171
0.54751509 0.29087237 0.15844384
0.54749888 0.28991574 0.15715928
0.41948783 0.29796267 0.15567495
0.54853404 0.3002755 0.15607749
0.54860425 0.29735449 0.15481789
0.54964483 0.30077657 0.15432374
0.39154774 0.30366048 0.15397245
0.39231545 0.30354032 0.153117
0.42033508 0.30690554 0.15404867
0.42035052 0.30540529 0.15630129
0.54867756 0.30418125 0.15765887
0.54894239 0.30494574 0.15689342
0.54939151 0.30481347 0.15560825
0.41963017 0.31240207 0.15564735
0.41863784 0.31161952 0.15850355
0.54883832 0.31160074 0.15948741
0.54890323 0.3114402 0.15742105
0.54936689 0.30899057 0.15678307
0.57473916 0.30901098 0.14479168
0.4012942 0.32158673 0.15857123
0.41945478 0.3180126 0.15614358
0.419406 0.31882182 0.1588392
0.54872733 0.31521517 0.16164637
0.54871023 0.3182897 0.15725017
0.40187639 0.32345378 0.15965533
0.41903424 0.32393271 0.15566747
0.4208774 0.32599869 0.15712671
0.54696977 0.32888708 0.16003741
0.54778934 0.32555541 0.15695705
0.40269074 0.32980174 0.15756761
0.41914049 0.33121207 0.16018125
0.5467177 0.33300075 0.15870033
0.54713327 0.3321718 0.15671448
0.57857466 0.3358697 0.14700519
0.57941496 0.33625662 0.14666374
0.41742289 0.33625594 0.1620958
0.54668003 0.33913326 0.15799011
0.54639554 0.33943421 0.15699725
0.57998908 0.33765152 0.1469451
0.5460819 0.34484875 0.15635696
0.57922256 0.35010257 0.14869219
0.39565176 0.35610604 0.15582821
0.40170577 0.35542595 0.15682197
0.54478425 0.35670683 0.15621318
0.54562199 0.3517774 0.15414226
0.57869929 0.35359374 0.14867921
0.57985103 0.35523847 0.14867097
0.39725381 0.35941264 0.15374611
0.40203106 0.35780263 0.15746026
0.54557198 0.36019364 0.15619625
0.54611623 0.36205119 0.15285261
0.57821906 0.36282966 0.1486849
0.58115637 0.36133263 0.14755385
0.39963543 0.36442688 0.15329745
0.40598392 0.36689189 0.16092297
0.4082619 0.36999333 0.16398241
0.54562622 0.36752138 0.15638413
0.54621601 0.36857432 0.15647477
0.57757896 0.36494729 0.14863847
0.58031851 0.36492777 0.14801224
0.40280318 0.37633082 0.15610197
0.40588251 0.37454176 0.16137056
0.40847033 0.37163651 0.16434322
0.54670757 0.37572575 0.15683609
0.54635102 0.37383413 0.15684259
0.40248185 0.38333735 0.15577513
0.54678625 0.38192812 0.15668702
0.54771876 0.38205126 0.15610255
0.57125163 0.38373992 0.1493203
0.57628238 0.38303924 0.1485417
0.57921666 0.38246787 0.14812677
0.40145636 0.38918105 0.15526249
0.54627687 0.38936231 0.16032401
0.54738772 0.38907766 0.15853837
0.57059258 0.38809362 0.14955485
0.57624847 0.38671017 0.14867654
0.40170842 0.39234945 0.15415379
0.40848556 0.39818329 0.16305441
0.41194674 0.39924812 0.16418043
0.5453884 0.39643386 0.16154325
0.548702 0.3957544 0.15783782
0.55405676 0.39818165 0.15401542
0.56114703 0.39667237 0.15156442
0.4024533 0.40515381 0.158838
0.40911859 0.4037731 0.16238067
0.41511765 0.40398961 0.16385615
0.42209208 0.40552548 0.16557826
0.42866403 0.40793169 0.16644488
0.43588233 0.40680754 0.16692798
0.44534871 0.4056322 0.15625089
0.45184264 0.40782896 0.1579551
0.45817897 0.40849802 0.15789838
0.46263784 0.40567473 0.15427724
0.48079813 0.40670884 0.15843004
0.48653051 0.40696687 0.15859784
0.49413854 0.40630764 0.1599544
0.50002521 0.40670502 0.15987058
0.5071997 0.40784305 0.16004933
0.5141927 0.40656018 0.16252095
0.52288234 0.40878114 0.16574012
0.53062022 0.40867877 0.16523659
0.53723699 0.40783617 0.16399671
0.54577971 0.40294087 0.16014145
0.54941356 0.40198332 0.1572298
0.55348593 0.40184596 0.15444647
0.56300706 0.40136763 0.15160781
0.56804025 0.40498632 0.15103981
0.57358754 0.40579626 0.15038142
0.40228572 0.41068125 0.15977138
0.40935203 0.41048342 0.16150664
0.41317675 0.41081217 0.16160117
0.4690488 0.40666318 0.15919058
0.47333711 0.40822572 0.15801388
0.47692457 0.40850285 0.15702286
0.50777596 0.40829223 0.15904821
0.52291119 0.40996242 0.1650001
0.53886509 0.41098177 0.15980874
0.54318935 0.40980119 0.15922184
0.54801822 0.40902519 0.15709892
0.5648644 0.40916041 0.15118472
0.5691663 0.40823376 0.15077902
0.57503694 0.40977636 0.14986001
0.58014297 0.41276813 0.1486439
0.40168062 0.41637838 0.15936206
0.41124552 0.41469789 0.16054571
0.41348457 0.41484672 0.16043209
0.50414973 0.4179523 0.15746115
0.53819275 0.41831866 0.15673344
0.54159999 0.4184911 0.15560023
0.54910678 0.41370982 0.15455724
0.57139546 0.41495845 0.14972645
0.5770936 0.41619763 0.14878258
0.57996494 0.41781136 0.14847609
0.39757344 0.42692989 0.16085467
0.40233839 0.42518333 0.15940039
0.41942254 0.42334515 0.15893304
0.4239507 0.42588115 0.15902889
0.42970377 0.42677692 0.15957575
0.43410027 0.42643207 0.1594625
0.44968575 0.42646292 0.157195
0.48044771 0.42552611 0.15410291
0.48661271 0.42529309 0.15359296
0.49279597 0.42406499 0.15355447
0.49881059 0.42494974 0.15310055
0.50853127 0.42597607 0.15416929
0.51491612 0.42564839 0.15423465
0.51892424 0.42606965 0.15368709
0.52840984 0.42476416 0.1532549
0.535748 0.4219467 0.15469415
0.54182416 0.42154068 0.1537928
0.57886618 0.42132911 0.14859666
0.58046359 0.42100617 0.14843112
0.39880288 0.43093875 0.1580516
0.4003762 0.43225041 0.15493803
0.41327435 0.4299036 0.1560889
0.41789553 0.43005654 0.15650357
0.42389873 0.43046901 0.15736535
0.43048269 0.42979601 0.15842938
0.4360843 0.43090481 0.15728818
0.44499609 0.43286631 0.15715423
0.45125711 0.43085641 0.15564527
0.45801547 0.43028021 0.15364602
0.46450171 0.43008366 0.15257868
0.47173774 0.42868155 0.1530164
0.47704968 0.42720717 0.15370268
0.4865703 0.42668703 0.153384
0.50169063 0.42603502 0.1528168
0.50816518 0.42685804 0.1527669
0.5143612 0.42762697 0.1531788
0.5217787 0.42773527 0.15306732
0.5284121 0.42698348 0.15259229
0.53442359 0.42719913 0.15180498
0.53904796 0.42568594 0.15199541
0.57827884 0.42577717 0.14838408
0.39799619 0.43439195 0.15371688
0.40006286 0.43402892 0.15296298
0.43825972 0.43448395 0.15599808
0.44349179 0.43543094 0.15554953
0.45737559 0.43235967 0.15303628
0.46412492 0.43080977 0.1521975
0.50700527 0.42962316 0.15140884
0.54186988 0.43321797 0.14749607
0.54430139 0.43299502 0.14726408
0.4413707 0.44304764 0.15030578
0.4201473 0.44261563 0.14908423
0.43919298 0.44441149 0.1500998
0.44100481 0.44411311 0.14943533
0.41754967 0.24607988 0.15363282
0.41901281 0.24522883 0.15693289
0.41791543 0.24829702 0.15560231
0.4188309 0.24817783 0.15769753
0.42404106 0.25547472 0.16283782
0.41967967 0.25857788 0.16037183
0.419543 0.25659528 0.16277617
0.42265925 0.25343025 0.16465354
0.43051946 0.2539686 0.16452678
0.43742359 0.25349596 0.16479613
0.44484991 0.25446892 0.16458221
0.45118961 0.25491077 0.1646276
0.45850319 0.25506151 0.16485444
0.46536976 0.25515777 0.16461512
0.47166535 0.25513783 0.16487463
0.48114148 0.25398198 0.16435394
0.48740518 0.25425696 0.16419391
0.49332917 0.25407374 0.16447781
0.49932283 0.25404218 0.1644123
0.50842947 0.25462943 0.16472515
0.51410234 0.25515917 0.16418704
0.52188873 0.25520325 0.16437545
0.52888823 0.25426844 0.16472943
0.53617907 0.25447735 0.164682
0.54213107 0.25783598 0.1641143
0.5432114 0.26018319 0.16423243
0.41714686 0.26185822 0.16503538
0.41702405 0.25609607 0.16731626
0.50388461 0.25422436 0.16345333
0.5054701 0.25427213 0.16344231
0.5174762 0.25546941 0.16393739
0.51981938 0.25525174 0.16396292
0.5441708 0.26089373 0.16463849
0.54552227 0.26361111 0.16335721
0.54805368 0.268408 0.15885051
0.41831237 0.26762807 0.16301578
0.54866916 0.27071041 0.1657484
0.54837376 0.26944193 0.16438669
0.54848689 0.26984623 0.1614601
0.54862374 0.27570316 0.16513811
0.54810065 0.27691174 0.16408126
0.54741538 0.28447798 0.16511717
0.54737288 0.28293598 0.16417983
0.54721397 0.28972298 0.16547729
0.54701918 0.28966764 0.16398066
0.54767925 0.29871592 0.16517606
0.54854697 0.3062928 0.16492309
0.54809672 0.3054029 0.1646519
0.54817271 0.30617991 0.15983093
0.39726853 0.3125695 0.153974
0.41928172 0.31226858 0.16249341
0.54875547 0.31037468 0.16454057
0.54832357 0.31155145 0.16383551
0.54814696 0.31087211 0.16311501
0.40430194 0.3207826 0.1566304
0.40595227 0.32092464 0.15663669
0.41997588 0.32125944 0.15747164
0.4180297 0.32102332 0.16269501
0.54820549 0.31843784 0.16430986
0.41612864 0.32669508 0.16394229
0.54730552 0.32531685 0.16436042
0.41773301 0.33202302 0.16503799
0.546359 0.3344256 0.16167898
0.54645658 0.33250329 0.1643551
0.40401688 0.34002841 0.15506591
0.40960541 0.34294921 0.15752633
0.41727978 0.34158942 0.16661304
0.4178589 0.33862263 0.16563359
0.54657078 0.34007716 0.16467366
0.54595286 0.33971962 0.16387674
0.4157092 0.34707287 0.16567239
0.41653678 0.34405768 0.16665584
0.41666949 0.34466705 0.16748169
0.54663056 0.34439126 0.1677915
0.5460186 0.34599763 0.16455832
0.41041484 0.35596627 0.16396236
0.54558563 0.35319498 0.1657791
0.54637158 0.36190888 0.16789444
0.54585767 0.36011451 0.16643488
0.40534362 0.36940402 0.1597548
0.40733686 0.36880684 0.16181777
0.40804696 0.36947632 0.16353409
0.40981305 0.36975753 0.16616873
0.54613787 0.36781067 0.16661648
0.5459097 0.36820081 0.1643896
0.40687487 0.37404981 0.16119754
0.40811864 0.37347856 0.16378166
0.41014415 0.37234122 0.16650379
0.54605764 0.37307623 0.16517942
0.54596484 0.37309375 0.16407014
0.40746257 0.37948969 0.16218603
0.41069198 0.38371369 0.16798824
0.54670948 0.38307038 0.16631807
0.40824112 0.39016077 0.1620566
0.41085559 0.3882072 0.16802047
0.41235638 0.39072582 0.16846299
0.54485565 0.39146155 0.16421863
0.54522187 0.38823354 0.16376969
0.40904033 0.39517966 0.16179191
0.41257963 0.3926169 0.16749933
0.41290382 0.39252079 0.1685704
0.54343516 0.39592454 0.16471265
0.54459727 0.39404559 0.16229096
0.55848032 0.39483249 0.15165189
0.40830177 0.40210742 0.15982442
0.41708526 0.40254602 0.16577363
0.43286639 0.40736592 0.16827528
0.43364492 0.40743339 0.16826834
0.44611648 0.40737882 0.16447116
0.451222 0.40727344 0.16432002
0.4751395 0.40701273 0.1681082
0.47910073 0.40732753 0.16700038
0.51217049 0.40966427 0.16259645
0.5242824 0.4109405 0.16489947
0.52915603 0.4102973 0.16513829
0.5393759 0.40655887 0.16233382
0.54436737 0.39824167 0.16172589
0.4015182 0.41056871 0.15651508
0.40538368 0.40888774 0.15901291
0.412191 0.40765896 0.16192284
0.41737527 0.40937987 0.16236503
0.42248696 0.40996197 0.1620397
0.43051341 0.40724066 0.16654159
0.43906888 0.40766591 0.16632733
0.44292352 0.40636519 0.16637461
0.46029761 0.40525588 0.16552907
0.466115 0.40536705 0.16335569
0.47296491 0.40605527 0.16323671
0.47707877 0.40688634 0.16457802
0.48784655 0.40663856 0.16610251
0.49142429 0.40650123 0.16662373
0.49845582 0.40743646 0.16771302
0.51953965 0.40991226 0.16586491
0.5310666 0.40934572 0.16592473
0.53608102 0.40857899 0.16155566
0.537027 0.40746015 0.16326079
0.39941356 0.41499093 0.15818326
0.40278858 0.41474813 0.15976742
0.4131678 0.41512489 0.16002773
0.41787425 0.41456631 0.1605991
0.42177913 0.41153252 0.16149853
0.43843341 0.4149037 0.15757921
0.53349048 0.41001189 0.16290049
0.5350309 0.40965775 0.16228142
0.39842945 0.42165402 0.1597022
0.40261671 0.42178866 0.15937322
0.40759379 0.42290083 0.158408
0.43383718 0.42416909 0.16003078
0.43676692 0.42178503 0.15953374
0.39877483 0.42774284 0.15739383
0.40395808 0.42713428 0.15694903
0.40835166 0.42705092 0.15694705
0.41612458 0.43020847 0.15618911
0.42396513 0.43096647 0.1567788
0.43112287 0.43048269 0.15754469
0.43556175 0.42766866 0.15834989
0.57888329 0.42637008 0.14861268
0.39862391 0.43045831 0.15644763
0.40394336 0.4305768 0.15568618
0.41148022 0.4314073 0.155017
0.41692242 0.43145961 0.1556969
0.42363769 0.43204418 0.15637529
0.429986 0.4322401 0.1569342
0.43374708 0.43111095 0.15728515
0.41152021 0.25416318 0.17351331
0.41347346 0.2555508 0.1721049
0.4233714 0.25563431 0.17136605
0.48848161 0.25352219 0.17236018
0.49107271 0.25340712 0.17270431
0.50633001 0.25437257 0.17322056
0.5365392 0.25380677 0.17397641
0.53789806 0.254042 0.17266729
0.41834798 0.25554854 0.17067644
0.42318711 0.25448751 0.1714727
0.43066227 0.25464407 0.17138496
0.4377414 0.25340632 0.17143017
0.44480544 0.25339484 0.1713458
0.45157671 0.25398713 0.1714655
0.45851749 0.25382376 0.17156476
0.46533993 0.25365129 0.17145593
0.47245914 0.25345793 0.17158885
0.47917131 0.25337651 0.17139757
0.48719156 0.2533699 0.17129004
0.49377546 0.25352469 0.17144151
0.50022346 0.25404283 0.17174786
0.50771368 0.25451839 0.17169297
0.51448351 0.25494745 0.1719165
0.52163094 0.25407317 0.17166226
0.52878642 0.25316349 0.17152934
0.53585225 0.25386792 0.17140992
0.54164439 0.25685829 0.17155534
0.54347444 0.25997156 0.16990331
0.41618711 0.26318127 0.16969721
0.41715291 0.25602192 0.17074592
0.54386806 0.26074997 0.1716387
0.54557806 0.26382485 0.17128843
0.54704875 0.26564455 0.1708245
0.41776901 0.26666743 0.16890372
0.54856771 0.26896697 0.16980368
0.54814261 0.26898557 0.17142104
0.41818857 0.27979702 0.17313392
0.54854906 0.27501327 0.17056701
0.54832512 0.27713963 0.1718969
0.54803562 0.27796015 0.17367482
0.41838372 0.28192461 0.17267187
0.41812178 0.28687987 0.17454661
0.54770964 0.28388229 0.1720137
0.54773343 0.28332415 0.17160067
0.54751128 0.28544062 0.1739067
0.4186908 0.29091969 0.17362028
0.41843429 0.28931323 0.17465405
0.54723024 0.29043779 0.17197579
0.54719359 0.29025817 0.17185928
0.54733294 0.28726462 0.1745228
0.54754674 0.29731992 0.17362851
0.54732937 0.29725152 0.17132792
0.54789072 0.30317801 0.17286152
0.54796922 0.30495912 0.17156363
0.54721802 0.30608264 0.17132138
0.54857951 0.31216648 0.17215949
0.54829741 0.31107891 0.17176156
0.54773545 0.31195852 0.17056395
0.54860574 0.3162367 0.17085433
0.54801476 0.31880492 0.17156737
0.54788214 0.3158026 0.17143787
0.4172307 0.32840404 0.16904475
0.54734462 0.32551584 0.17152996
0.41881654 0.33525005 0.17164744
0.41804278 0.33282363 0.16914488
0.54663289 0.3322421 0.17164429
0.41967028 0.3392486 0.17205475
0.4193742 0.33976483 0.17126314
0.5467512 0.34068808 0.17235211
0.54629475 0.33923551 0.17138143
0.41555151 0.3483929 0.16644841
0.41743726 0.3464238 0.17206007
0.41745815 0.34592834 0.17201224
0.54645449 0.34369907 0.17174847
0.54619402 0.34683257 0.17117879
0.41126242 0.35672963 0.16540322
0.41621587 0.3525387 0.17345805
0.41619107 0.35224551 0.17322628
0.5471223 0.35296622 0.17366169
0.54677385 0.3527782 0.1717734
0.41159558 0.36309299 0.16746393
0.41351989 0.36112422 0.17052251
0.41587141 0.35649741 0.17415731
0.41610229 0.35733569 0.17534256
0.54698938 0.36132327 0.17159492
0.54681534 0.36094007 0.1716018
0.40959305 0.36636111 0.16422352
0.54692161 0.3656795 0.17121799
0.54690051 0.36532345 0.17133716
0.41267908 0.37475538 0.17102474
0.5473296 0.37700182 0.17348477
0.54670703 0.37638327 0.17160326
0.40925586 0.3824237 0.16441973
0.41108334 0.38367698 0.16873831
0.41185164 0.38236046 0.17017753
0.54706442 0.37794581 0.17193483
0.54724109 0.38029808 0.17152441
0.41043931 0.38836652 0.16570245
0.41103515 0.38797426 0.16846834
0.41225606 0.38867393 0.17015852
0.5463475 0.38961717 0.17132872
0.54639387 0.38806424 0.17008209
0.41073748 0.39509484 0.16361861
0.41373816 0.39541459 0.16706258
0.41358951 0.39343312 0.16872345
0.41751638 0.39935267 0.17258236
0.54509568 0.39395684 0.17194521
0.54447234 0.39509839 0.17020819
0.41061187 0.40161458 0.16175754
0.41409898 0.40149677 0.1650794
0.41694653 0.40220082 0.16686693
0.43225297 0.4069196 0.17348056
0.43533489 0.4080632 0.17281727
0.45203441 0.40667778 0.17101426
0.4589068 0.40642983 0.17232859
0.46335614 0.40625462 0.17139418
0.47442004 0.40702608 0.16984874
0.47826442 0.40768039 0.16976611
0.51292783 0.41037238 0.16928101
0.52332276 0.41143373 0.17042212
0.53041762 0.41128421 0.17169215
0.53441012 0.41089234 0.17213868
0.54311198 0.39822298 0.16771433
0.40828961 0.40773624 0.16040117
0.41232467 0.40625578 0.16200459
