# .PCD v0.7 - Point Cloud Data file format
VERSION 0.7
FIELDS x y z
SIZE 4 4 4
TYPE F F F
COUNT 1 1 1
WIDTH 357
HEIGHT 1
VIEWPOINT 0 0 0 1 0 0 0
POINTS 357
DATA ascii
-0.081798285 -0.012604779 0.86831248
-0.075140066 -0.01251118 0.86727077
-0.084029466 -0.004756337 0.86842388
-0.074473284 -0.0053111464 0.86615384
-0.06724406 -0.0043810164 0.86681819
-0.08376722 0.00098454696 0.86939287
-0.073567271 0.00098254741 0.86760712
-0.067220956 0.0012004154 0.86830008
-0.081698254 0.015557174 0.86475003
-0.075907297 0.015530729 0.86339295
-0.090346895 -0.01103159 0.87525004
-0.085489504 -0.013896331 0.87456256
-0.074571311 -0.015532375 0.87729174
-0.068731152 -0.011683032 0.87625003
-0.091758735 -0.0059193154 0.87350005
-0.089079812 -0.0064054891 0.87035006
-0.065866143 -0.0076801097 0.87425005
-0.092458703 0.001405946 0.87712502
-0.086490713 0.0036182143 0.87185425
-0.075121909 0.0053942287 0.87491179
-0.067541406 0.0042512054 0.87118757
-0.075011224 0.01127913 0.87502789
-0.081191391 0.02543965 0.87975001
-0.077314265 0.023508398 0.8794167
-0.092659831 -0.012166264 0.88825005
-0.087682985 -0.016348122 0.88700002
-0.070122384 -0.015035204 0.88575006
-0.066931576 -0.012079841 0.88200009
-0.09230049 0.0062534474 0.88481253
-0.084667064 0.0069663571 0.88337505
-0.07938002 0.0081484951 0.88100004
-0.067080781 0.004785087 0.88406253
-0.07938002 0.01007375 0.88100004
-0.083139017 0.023523809 0.88000005
-0.075539798 -0.022027345 0.89900017
-0.083578162 -0.019103918 0.89500004
-0.074229285 -0.01841994 0.89737505
-0.068487003 -0.015247792 0.89816666
-0.064757541 -0.0054001193 0.89190006
-0.084390827 0.008261797 0.89325005
-0.066225 0.0053284476 0.89193755
-0.09073133 0.010268136 0.89800006
-0.084829077 0.010608281 0.8937
-0.072710708 0.012173022 0.89375001
-0.083797611 -0.021940239 0.90437508
-0.092945248 -0.015283617 0.90041667
-0.089088678 -0.019237326 0.90125006
-0.067348503 -0.015371501 0.90580004
-0.097085759 -0.0054599592 0.90230006
-0.096899174 0.0044181831 0.90425003
-0.066855043 0.0073990915 0.90712506
-0.093185559 0.010322449 0.90275002
-0.086693615 0.015327114 0.90712506
-0.072967455 0.013375831 0.90912509
-0.069878824 0.010379622 0.90775007
-0.087323055 0.021187296 0.90337503
-0.078508519 0.025160082 0.90425003
-0.091620483 -0.02282354 0.91337508
-0.085047089 -0.024885032 0.9122858
-0.073700354 -0.024173679 0.91412503
-0.068641521 -0.021595087 0.91775006
-0.095293552 -0.016831657 0.91345841
-0.066806316 -0.017999811 0.91325009
-0.091140337 0.013132184 0.91525006
-0.088362187 0.013449939 0.91412503
-0.074174926 0.015688043 0.91675007
-0.085654154 0.027025836 0.91725004
-0.077403098 0.023217389 0.91850001
-0.072407819 0.1584395 0.91970003
-0.072294101 -0.025836401 0.926
-0.06839174 -0.022848617 0.92800003
-0.064997002 -0.0055866828 0.92300004
-0.099420622 0.008546208 0.92400002
-0.065273091 0.0044938815 0.92119998
-0.096363381 0.011571912 0.92375004
-0.068828508 0.010522552 0.92025006
-0.081519365 0.028839529 0.92725003
-0.077166282 0.02750784 0.92775005
-0.08172816 0.031960808 0.92962503
-0.077651486 0.035003606 0.92949992
-0.081731826 0.047198977 0.9296667
-0.075762488 0.045312587 0.92918772
-0.06953904 0.048219286 0.92975003
-0.08173915 0.051266968 0.92975003
-0.075759016 0.052756954 0.92914587
-0.071418427 0.069403462 0.92775005
-0.069295958 0.06930995 0.92650002
-0.072621278 0.07565511 0.92368752
-0.067223474 0.075456321 0.92389292
-0.082711324 0.089822643 0.92925006
-0.074351646 0.086075969 0.92564481
-0.066109069 0.085329436 0.92451257
-0.081916988 0.096080393 0.92600006
-0.075320311 0.09555731 0.92583001
-0.067152999 0.093037546 0.9284063
-0.081118256 0.1043098 0.92268753
-0.074993119 0.10521626 0.92180008
-0.066083618 0.10654003 0.92234373
-0.081717171 0.11015923 0.92950004
-0.073738903 0.11469689 0.92152786
-0.064940155 0.11534057 0.9222101
-0.081420459 0.12696281 0.92612505
-0.074743956 0.12553306 0.92304355
-0.065757737 0.12483251 0.92233753
-0.081712775 0.13452791 0.92945004
-0.075612858 0.13494726 0.92701197
-0.066524401 0.13545571 0.92745
-0.075309888 0.14462453 0.9275865
-0.065834634 0.14491911 0.92772931
-0.058683854 0.14808893 0.92958337
-0.082194038 0.15493886 0.92832142
-0.075575814 0.15375629 0.92246741
-0.06508404 0.15462267 0.92325014
-0.057935908 0.15354735 0.92847228
-0.063370749 0.16081046 0.92875004
-0.080155872 -0.030174036 0.93500006
-0.076106511 -0.030190172 0.93550009
-0.0935103 -0.026616314 0.93562502
-0.084167317 -0.028105199 0.93415004
-0.074043699 -0.027730713 0.93530005
-0.066900484 -0.023035202 0.93550003
-0.100658 -0.013835332 0.93550003
-0.098401248 -0.019925708 0.93350005
-0.065658942 -0.015831219 0.93240005
-0.063521914 0.0051703244 0.93957144
-0.092733778 0.017902128 0.93812501
-0.072079167 0.016843166 0.93637502
-0.068202712 0.014846268 0.93935001
-0.092808731 0.025922658 0.93511373
-0.088099018 0.029002817 0.93250006
-0.073424406 0.024425732 0.93142319
-0.067213759 0.025564883 0.93402946
-0.092124559 0.034859367 0.9334287
-0.085246816 0.035399649 0.93102783
-0.072625913 0.035030436 0.93022507
-0.066765741 0.03516195 0.93369991
-0.090897292 0.044537455 0.93243754
-0.085443527 0.044873301 0.93100005
-0.071591638 0.041119076 0.93000007
-0.066324539 0.044954348 0.93226391
-0.084461644 0.055791147 0.93380255
-0.074845977 0.057649847 0.93138653
-0.068425544 0.055110492 0.93222737
-0.082583547 0.065217108 0.93496877
-0.074998759 0.065462083 0.9324342
-0.067160718 0.065389961 0.93559384
-0.082438722 0.074733913 0.93590391
-0.077118039 0.075090207 0.93225008
-0.06469734 0.071672715 0.93620002
-0.082858756 0.083781198 0.9340229
-0.078795098 0.083886869 0.93099999
-0.065618761 0.095440261 0.93596441
-0.08453837 0.10811988 0.93825006
-0.070043899 0.10075615 0.93650007
-0.066869259 0.10264064 0.93506253
-0.082209669 0.11286274 0.93508339
-0.078048386 0.11786787 0.93425006
-0.082666449 0.12606576 0.93450004
-0.078090154 0.12099501 0.93475002
-0.062559836 0.12878199 0.93691665
-0.083822049 0.1346505 0.93030006
-0.06191821 0.13411465 0.93368757
-0.058828276 0.13764048 0.93405008
-0.083963998 0.1453028 0.93560416
-0.061446913 0.14177671 0.93037504
-0.05766752 0.14453559 0.93141675
-0.084781736 0.15119909 0.93525004
-0.056490369 0.15587032 0.93256253
-0.07503026 0.1635821 0.93491673
-0.064921916 0.16315615 0.93637502
-0.057893969 0.16049047 0.93875003
-0.084524736 -0.030646009 0.94962502
-0.071016207 -0.028567027 0.94950002
-0.067848027 -0.02543477 0.94875002
-0.064650103 -0.011942225 0.94750005
-0.063398242 -0.0057179639 0.94430006
-0.063122861 0.004587004 0.94018757
-0.10159948 0.010796979 0.94425005
-0.096623018 0.015748786 0.94405001
-0.064509533 0.014618034 0.94333929
-0.095404297 0.021114362 0.94425005
-0.063400932 0.0239571 0.94437498
-0.095101178 0.039559562 0.94125003
-0.062495381 0.031498317 0.94625002
-0.09501487 0.044901792 0.94550002
-0.091996014 0.052085072 0.94458342
-0.089728728 0.058596268 0.94975007
-0.066305637 0.056035858 0.9415834
-0.065217428 0.061125562 0.94075006
-0.08759395 0.078261256 0.94912505
-0.064769514 0.078272253 0.94925004
-0.087605491 0.082421333 0.94925004
-0.064769514 0.081383854 0.94925004
-0.084868737 0.10339583 0.9419167
-0.063252471 0.10753918 0.94212508
-0.08204788 0.12283919 0.94900006
-0.087360911 0.13493423 0.94660008
-0.086901784 0.14143276 0.94162506
-0.055802893 0.14504126 0.94505006
-0.086994067 0.15600668 0.94262505
-0.0540572 0.15511154 0.94345009
-0.08144179 -0.032734152 0.95000005
-0.075330302 -0.031956024 0.95160007
-0.10111558 -0.022571601 0.95925003
-0.068482295 -0.027764991 0.95762503
-0.10326726 -0.01629132 0.95975006
-0.06443245 -0.014118877 0.95450002
-0.10185417 0.016159577 0.9563334
-0.098643526 0.018235806 0.95562506
-0.062743053 0.019166896 0.95000005
-0.098377742 0.02547732 0.95305002
-0.098604828 0.03388615 0.95525002
-0.063342966 0.036118019 0.95908338
-0.096970372 0.048726492 0.95975006
-0.09370055 0.054945238 0.95850003
-0.065042444 0.052562773 0.95325005
-0.090142056 0.061993636 0.95412505
-0.08799772 0.068203963 0.95350003
-0.087874658 0.073309533 0.95216674
-0.087759294 0.087761424 0.95091671
-0.062858634 0.08991766 0.95175004
-0.087813139 0.091973357 0.95150006
-0.064193234 0.09764412 0.95612502
-0.066704981 0.10158522 0.95716673
-0.083198339 0.11865298 0.95425004
-0.084846705 0.12442879 0.95324999
-0.060773969 0.12527066 0.95170003
-0.060912862 0.13285102 0.95387506
-0.058017474 0.13778895 0.95200008
-0.054461144 0.14795934 0.95050007
-0.0872299 -0.032300998 0.96812505
-0.074632354 -0.033406064 0.96950006
-0.066048868 -0.020662116 0.96800005
-0.063236699 -0.014252615 0.96390009
-0.06139978 -0.0047666226 0.96149999
-0.061444484 0.004697944 0.96220005
-0.10579085 0.016363088 0.96843755
-0.10210381 0.022719011 0.96862507
-0.063439831 0.044569895 0.96055001
-0.065134548 0.055690456 0.96231258
-0.091204919 0.06694416 0.96537507
-0.065622412 0.061438344 0.96175003
-0.091110438 0.077411816 0.96437502
-0.091222644 0.083840504 0.96556258
-0.064030938 0.089475952 0.96950006
-0.063601643 0.099398322 0.96300006
-0.064560719 0.10503312 0.96162504
-0.088537753 0.11331812 0.96506256
-0.089451268 0.12969695 0.96925002
-0.066287681 -0.022859849 0.97150004
-0.063246563 -0.016528416 0.97375005
-0.1074213 0.016074752 0.97200006
-0.062437478 0.011180033 0.97775006
-0.10437013 0.021690156 0.97000003
-0.062066302 0.024918158 0.97193754
-0.1002306 0.038687985 0.97100008
-0.062022399 0.030208027 0.97125006
-0.097357169 0.053714652 0.97412503
-0.094439879 0.061346382 0.977
-0.064691387 0.073274791 0.97950006
-0.090028077 0.10921559 0.97550005
-0.064625345 0.10527483 0.97850007
-0.087511741 0.11935218 0.97125006
-0.087466694 0.12353297 0.97075003
-0.06199047 0.12141212 0.97075003
-0.089520484 0.13191706 0.97000003
-0.093011774 -0.031771485 0.98450005
-0.10139187 -0.027405838 0.98225003
-0.099243701 -0.029552357 0.98225003
-0.066383228 -0.023265203 0.98875004
-0.1063338 -0.018934723 0.98825002
-0.063203774 -0.016800556 0.98975003
-0.1083487 -0.0038148963 0.98691672
-0.10821514 0.0048099672 0.98570001
-0.11039045 0.014504461 0.98587501
-0.10525397 0.025336869 0.98825002
-0.062820628 0.032746602 0.98375005
-0.10170155 0.041408829 0.98525006
-0.10000148 0.054575402 0.98975003
-0.097836912 0.058901221 0.98975003
-0.064939059 0.054216988 0.98325002
-0.095019862 0.066018343 0.98300004
-0.093383342 0.075127125 0.98275006
-0.094907083 0.084177576 0.9818334
-0.065302305 0.08909183 0.98875004
-0.09282282 0.090675734 0.98250008
-0.090870216 0.1070098 0.98462504
-0.081911817 -0.036404137 0.99350005
-0.071334004 -0.031101096 0.99750006
-0.1092087 -0.011451116 0.99475002
-0.1090989 -0.0081818569 0.99375004
-0.063693352 0.015765328 0.99741673
-0.11107628 0.020014275 0.99200004
-0.10663079 0.025406558 0.99100006
-0.063714646 0.020130284 0.99775004
-0.063507102 0.035277728 0.99450004
-0.10317249 0.044191953 0.99950004
-0.09639731 0.074601546 0.99725008
-0.065591253 0.074286953 0.99312502
-0.095913999 0.089407198 0.99225003
-0.093743958 0.093743935 0.99225003
-0.063714646 0.098624341 0.99775004
-0.063531056 0.10377365 0.99487507
-0.093513116 -0.033409543 1.0013751
-0.10633343 -0.025940789 1.0087501
-0.06214929 -0.0049928026 1.00775
-0.062210966 0.00051235745 1.0087501
-0.10609625 0.031304378 1.0065
-0.064305335 0.037921745 1.0070001
-0.10156756 0.057626866 1.0052501
-0.066160895 0.057426218 1.00175
-0.099369086 0.064221211 1.0052501
-0.066557169 0.088601589 1.00775
-0.064081833 0.094802797 1.0035
-0.086885534 -0.037136983 1.0135001
-0.066936933 -0.023848129 1.0135001
-0.11162397 -0.015036959 1.0167501
-0.063796893 -0.015019055 1.0165
-0.11625671 0.017208351 1.0183752
-0.11414563 0.022795709 1.0194167
-0.10451441 0.04697936 1.0125
-0.10001162 0.06905441 1.0117501
-0.066738792 0.068969093 1.0105001
-0.10067886 0.071740851 1.0185001
-0.066804834 0.08229997 1.0115
-0.10144494 -0.033118825 1.02625
-0.076307833 -0.03515476 1.0202501
-0.10991143 -0.021804079 1.0215
-0.063413553 0.0027693042 1.0282501
-0.11471537 0.011714593 1.0245
-0.10977694 0.027272915 1.0202501
-0.10751931 0.033953276 1.0200001
-0.10572729 0.049762852 1.02425
-0.065381348 0.04527206 1.0238501
-0.065574519 0.053256854 1.026875
-0.10341149 0.060909726 1.0235001
-0.067807905 0.064470798 1.0266876
-0.10105779 0.076479442 1.0223334
-0.095634639 -0.035706069 1.03625
-0.081799559 -0.037860669 1.0332501
-0.070518084 -0.02883577 1.0335001
-0.063922346 -0.013063975 1.0365001
-0.10907413 0.036705513 1.0347501
-0.10714663 0.053833418 1.0380001
-0.066221088 0.057180796 1.0370001
-0.064477384 0.0051005008 1.0455
-0.11049718 0.039475143 1.0482501
-0.067099132 -0.022428427 1.05075
-0.065340787 -0.015669199 1.0595001
-0.12124567 0.016626928 1.052
-0.12124567 0.022374287 1.052
-0.11660281 0.026962422 1.051625
-0.11313938 0.03040613 1.0515001
-0.11953016 0.0098734591 1.0675
-0.12212163 0.0262584 1.0697501
-0.12449025 0.016911419 1.0700001
-0.12454842 0.023937436 1.0705
