# .PCD v0.7 - Point Cloud Data file format
VERSION 0.7
FIELDS x y z
SIZE 4 4 4
TYPE F F F
COUNT 1 1 1
WIDTH 649
HEIGHT 1
VIEWPOINT 0 0 0 1 0 0 0
POINTS 649
DATA ascii
-0.074168503 0.054698251 0.77311897
-0.069137305 0.053644206 0.77358341
-0.080966413 0.056107067 0.78437507
-0.07862509 0.054643273 0.78383332
-0.069387063 0.057317745 0.78925002
-0.090975247 0.057872158 0.79691666
-0.085769571 0.056759953 0.79351395
-0.075525276 0.055662338 0.79025006
-0.084492981 0.06107844 0.79329175
-0.076677494 0.061075229 0.79325008
-0.15326607 0.058702122 0.80831254
-0.14502847 0.058588654 0.80675
-0.13911076 0.058697585 0.80825007
-0.094660081 0.058534183 0.80599999
-0.082630895 0.052886739 0.80050004
-0.16145603 0.068517901 0.80950004
-0.15492098 0.064745978 0.80697584
-0.14501369 0.064772315 0.8039999
-0.13816448 0.06414903 0.8058334
-0.094103709 0.061333109 0.80575007
-0.16148096 0.072067171 0.80962503
-0.15499181 0.075208977 0.80697429
-0.14485216 0.074720085 0.80231631
-0.13715047 0.075462997 0.80359215
-0.15164915 0.081747562 0.80912507
-0.14416209 0.082051024 0.80559385
-0.13838753 0.081935182 0.80662501
-0.1544538 0.05793478 0.81745005
-0.14906718 0.057706125 0.81925005
-0.13679753 0.05884283 0.81025004
-0.10396075 0.059314881 0.81675005
-0.096377857 0.057391409 0.81058335
-0.086252622 0.054059431 0.81825006
-0.16434373 0.065725088 0.81566077
-0.15983361 0.062384121 0.81025004
-0.13557664 0.064594224 0.81357497
-0.10352412 0.063060224 0.81644446
-0.098887593 0.062503919 0.81179172
-0.17222629 0.075550325 0.81861365
-0.16584954 0.0750558 0.81326139
-0.15988292 0.078344092 0.81050003
-0.13479476 0.075512081 0.81602788
-0.1712288 0.080868997 0.81812501
-0.16412336 0.081343904 0.81392509
-0.15484391 0.082797132 0.81358337
-0.14549868 0.08571329 0.81599998
-0.13714604 0.08302173 0.81583339
-0.16206945 0.059066936 0.82158345
-0.15826672 0.057794169 0.82050002
-0.14404914 0.057850521 0.82130003
-0.1370803 0.059139561 0.82258338
-0.10487848 0.05894576 0.82412505
-0.070382856 0.056932323 0.82100004
-0.1717122 0.06674014 0.82475007
-0.16768743 0.063336842 0.82271433
-0.13491222 0.065842986 0.82400006
-0.11307874 0.064648256 0.82793754
-0.10767604 0.064399458 0.820889
-0.097582303 0.065184094 0.82325006
-0.075723253 0.063173302 0.82050002
-0.18235502 0.076857023 0.82884997
-0.17725635 0.074727021 0.82534999
-0.13512458 0.072995029 0.82345837
-0.18253289 0.081927925 0.8288334
-0.17602895 0.082662866 0.82487512
-0.16218552 0.085334957 0.82675004
-0.15558589 0.085622601 0.82370847
-0.16491318 0.058885954 0.83600003
-0.1836914 0.066756018 0.83343428
-0.17587548 0.064654134 0.83232903
-0.16978668 0.060495008 0.83300006
-0.13288148 0.066713452 0.83213639
-0.12871081 0.067864619 0.83690631
-0.1165695 0.063923992 0.83025002
-0.10247371 0.067837477 0.83375007
-0.093583182 0.066177785 0.83579999
-0.19242647 0.076039299 0.83525002
-0.18616723 0.074394889 0.83170003
-0.13279454 0.074104883 0.83159101
-0.12844896 0.071731769 0.83670008
-0.19252723 0.082039304 0.83364999
-0.18663336 0.083672777 0.83176666
-0.16458589 0.087516651 0.83900005
-0.15468916 0.089056633 0.8334167
-0.14567672 0.089218952 0.83265007
-0.13608478 0.083250202 0.83300006
-0.16948396 0.059854478 0.84975004
-0.14119145 0.059678383 0.84725004
-0.10532913 0.059308585 0.84200007
-0.09438774 0.056609627 0.842875
-0.19383095 0.068412945 0.84650004
-0.18566711 0.063384116 0.84724998
-0.17827928 0.061221235 0.84300005
-0.13314931 0.063991778 0.84716672
-0.12407521 0.066460021 0.84172499
-0.11908323 0.066166416 0.84030008
-0.089309543 0.067084387 0.84725004
-0.20309596 0.077316068 0.84577501
-0.19702929 0.074387819 0.84364706
-0.13207009 0.077733584 0.84225005
-0.12484072 0.071844973 0.84410721
-0.11887479 0.070192099 0.84012502
-0.20461597 0.083892301 0.84735721
-0.19657128 0.085756175 0.84453845
-0.18492375 0.088934802 0.84666663
-0.17589425 0.088124014 0.84482509
-0.16748235 0.08833383 0.84155005
-0.18362118 0.094663367 0.84827781
-0.17459586 0.094455533 0.84549087
-0.16417697 0.095060199 0.84224141
-0.15615508 0.094323121 0.84247226
-0.14417046 0.090696663 0.84300005
-0.18192546 0.10468042 0.84883332
-0.17442946 0.10497169 0.8466835
-0.16578071 0.10468172 0.84507501
-0.15830129 0.10102224 0.84462506
-0.084838122 0.054826576 0.85825002
-0.20279241 0.069103472 0.85700005
-0.19602154 0.067255765 0.85337502
-0.18845519 0.06369932 0.85150003
-0.12241341 0.064222984 0.85850006
-0.11633874 0.062110871 0.85525006
-0.10309488 0.069485098 0.85400003
-0.21202488 0.077637263 0.85643756
-0.20614837 0.074169524 0.85324997
-0.11814004 0.071414016 0.85475004
-0.21361439 0.085090607 0.85644233
-0.2059285 0.088594712 0.8515625
-0.19872671 0.089763544 0.85162503
-0.21348371 0.093709178 0.85853577
-0.20484708 0.095550545 0.85533655
-0.19457467 0.095347397 0.85288465
-0.1875786 0.097497299 0.85090005
-0.1551625 0.097336024 0.85275006
-0.14926088 0.093417056 0.85100001
-0.20363374 0.10292251 0.85737503
-0.19483942 0.10499585 0.85567707
-0.18723448 0.10520085 0.85229176
-0.16226123 0.10744823 0.85412496
-0.15784478 0.10670376 0.85720462
-0.18558903 0.11170807 0.85720003
-0.17453119 0.11270507 0.85624999
-0.16403341 0.11217802 0.85481817
-0.15520155 0.11482862 0.85813385
-0.14888646 0.11690054 0.85958338
-0.15258664 0.12108056 0.85925007
-0.1218255 0.13795003 0.85965002
-0.12259164 0.14134803 0.85975003
-0.15140946 0.058918916 0.86325002
-0.14857759 0.058918916 0.86325002
-0.094524942 0.056883801 0.86100006
-0.20220466 0.067348093 0.86250007
-0.19599903 0.065596357 0.86425006
-0.18733414 0.06271001 0.86350006
-0.17522389 0.061210401 0.86900002
-0.1105117 0.061157573 0.86825001
-0.089727551 0.068826325 0.86925006
-0.074753486 0.063469231 0.86100006
-0.22267368 0.078391515 0.86580002
-0.21585098 0.075510427 0.86426568
-0.20938064 0.07131125 0.86487502
-0.13300313 0.078060865 0.86633331
-0.12341154 0.074203558 0.86550003
-0.23053695 0.084071286 0.86975002
-0.22481267 0.085162982 0.86636257
-0.21823786 0.084288284 0.86089289
-0.14094369 0.088107541 0.86275005
-0.22279017 0.091226012 0.86550003
-0.21680659 0.095152684 0.86243749
-0.15312314 0.097910188 0.86440003
-0.14771412 0.094814651 0.86370832
-0.21215883 0.10200213 0.86462504
-0.20590204 0.10627916 0.86483335
-0.15399788 0.10442775 0.86237508
-0.14600304 0.10619765 0.86479622
-0.13907452 0.10865493 0.86875004
-0.19439644 0.11258134 0.86975002
-0.18480247 0.11326449 0.86050004
-0.17480537 0.11600132 0.86690009
-0.16510156 0.11774109 0.86575001
-0.15088329 0.11135166 0.86025006
-0.14393388 0.11495606 0.86211604
-0.13655257 0.11579365 0.86615294
-0.16197839 0.12392377 0.86931258
-0.15535517 0.12591353 0.86746877
-0.14474963 0.12490527 0.86295003
-0.13458091 0.12509488 0.86430007
-0.12889118 0.12696385 0.86416674
-0.15110806 0.13207014 0.8687501
-0.14465502 0.13178621 0.86550003
-0.1329037 0.13374984 0.8627795
-0.12674601 0.13573799 0.8607167
-0.1313234 0.14266327 0.86775005
-0.12580682 0.1430032 0.86406255
-0.20777108 0.068885714 0.87000006
-0.19838627 0.065756552 0.87900007
-0.15613869 0.060010958 0.87925005
-0.12736745 0.065812655 0.87975001
-0.078861929 0.067388713 0.87525004
-0.22424965 0.075774863 0.87490004
-0.21695811 0.072262242 0.87637502
-0.11919534 0.073210329 0.87625003
-0.23153707 0.085963838 0.87250006
-0.22876628 0.089824907 0.87025005
-0.23216927 0.093660034 0.87350005
-0.22569469 0.0962855 0.87133336
-0.21934462 0.098425642 0.87062502
-0.14945072 0.098791972 0.87387502
-0.22449906 0.10238317 0.87462503
-0.21641974 0.1044713 0.87342513
-0.2079218 0.10938972 0.87462503
-0.14678557 0.10156968 0.87316674
-0.20446281 0.1119782 0.8761875
-0.19467859 0.11589596 0.87221426
-0.18509842 0.11746816 0.87075007
-0.17551273 0.11902568 0.87520838
-0.13552624 0.11536394 0.87650001
-0.19206655 0.12146528 0.87212509
-0.18510197 0.12246786 0.87246883
-0.17859702 0.12108222 0.87625003
-0.16504946 0.12422226 0.87145007
-0.13126659 0.12294281 0.87583333
-0.15365873 0.13542184 0.87608337
-0.14558157 0.13653916 0.87590009
-0.13708895 0.13704324 0.87425005
-0.12600431 0.13556913 0.87830001
-0.15032721 0.14067107 0.87900007
-0.13372669 0.1449066 0.87639296
-0.12341963 0.14602183 0.87767506
-0.13164003 0.15154436 0.87745011
-0.12479329 0.15348272 0.87631255
-0.11530863 0.15502024 0.87642717
-0.10711903 0.15558781 0.87648696
-0.1118809 0.1615169 0.87400007
-0.10644058 0.16329935 0.87380356
-0.09889932 0.058353797 0.88325006
-0.20453426 0.067157589 0.88487506
-0.1935505 0.064144313 0.88325006
-0.23194645 0.078227006 0.88975006
-0.10445721 0.071702272 0.88125002
-0.24092883 0.088644609 0.88700002
-0.2370467 0.084903441 0.88700002
-0.14131571 0.087256961 0.88275003
-0.24280177 0.095624492 0.88542193
-0.23720446 0.095730111 0.88306254
-0.15005097 0.097560994 0.88875002
-0.14962889 0.099223293 0.88625002
-0.24168898 0.10194058 0.88741666
-0.23567082 0.10199533 0.88389289
-0.22622162 0.10601638 0.88637507
-0.21766773 0.10852292 0.88312507
-0.14409822 0.10550202 0.88206255
-0.21336751 0.11137643 0.88533336
-0.2050055 0.11623503 0.88600004
-0.13633688 0.11461228 0.88175011
-0.20024824 0.12163386 0.88725007
-0.19461988 0.12624657 0.88560724
-0.18417871 0.12761778 0.88616675
-0.17413519 0.12463445 0.88275015
-0.16788931 0.12791385 0.88375002
-0.17080462 0.13010076 0.88550001
-0.16516422 0.13275352 0.88640004
-0.15824136 0.13317665 0.88025004
-0.14354725 0.13898958 0.88458329
-0.13914831 0.13910533 0.88125002
-0.12394077 0.13546959 0.88268757
-0.11934656 0.13768546 0.88450003
-0.15292375 0.14316195 0.88850003
-0.14802033 0.14361413 0.88678128
-0.13774656 0.14447527 0.88462508
-0.12036519 0.14547625 0.88485003
-0.11891855 0.14024976 0.88850003
-0.10542059 0.14873436 0.88125002
-0.13164189 0.15880662 0.88912499
-0.11808204 0.15083112 0.88225007
-0.10252677 0.15382031 0.88123214
-0.098208494 0.15575355 0.88283342
-0.12429527 0.16101673 0.88524997
-0.11495954 0.16539024 0.88795006
-0.10205787 0.16486363 0.88322729
-0.098216251 0.16530906 0.88362503
-0.11109387 0.17317684 0.8880834
-0.10484063 0.17451495 0.88584369
-0.099431187 0.17801189 0.88800001
-0.10311093 0.18056589 0.88625002
-0.085157067 0.18538764 0.88835526
-0.075334623 0.18582197 0.88763046
-0.064094149 0.18617484 0.88747066
-0.057059586 0.18627025 0.88677782
-0.082557797 0.19212757 0.8885358
-0.07417988 0.19397584 0.88698995
-0.064291246 0.19491909 0.88546669
-0.057057045 0.19301924 0.88522726
-0.071589343 0.20160295 0.88791674
-0.065982014 0.20257299 0.88650006
-0.1823729 0.063024178 0.89475006
-0.17048903 0.061017681 0.89400005
-0.16853385 0.061017681 0.89400005
-0.14379328 0.064788029 0.89212501
-0.12325403 0.064761609 0.89175004
-0.10632411 0.061222438 0.89700001
-0.23051758 0.076454096 0.89175004
-0.22413151 0.073675551 0.89350009
-0.21503611 0.070647441 0.89225006
-0.12559038 0.076689869 0.89450002
-0.09073133 0.071102723 0.89800006
-0.24428698 0.086754702 0.89756256
-0.23829001 0.081004858 0.89900005
-0.25154749 0.094714403 0.89859998
-0.24796155 0.092364728 0.89487505
-0.25008664 0.10065077 0.89900005
-0.2429278 0.10562229 0.89675003
-0.23375329 0.1072099 0.89145005
-0.22630261 0.10893881 0.89179176
-0.14602602 0.10496346 0.89387506
-0.23425868 0.11141021 0.89862502
-0.21416117 0.11493193 0.89165634
-0.20766243 0.11887349 0.89200008
-0.14143784 0.11007435 0.89575005
-0.13665494 0.11800247 0.89650005
-0.21267153 0.12026323 0.89875007
-0.20374851 0.1235472 0.89408344
-0.19824867 0.12964925 0.89575005
-0.18172324 0.1297397 0.89637506
-0.17780335 0.12973972 0.89637506
-0.13360186 0.12377677 0.89575005
-0.18287365 0.13371539 0.89840627
-0.17519264 0.13565361 0.89593428
-0.16477825 0.13760661 0.89195448
-0.15822527 0.13869728 0.89100003
-0.13098153 0.13289322 0.89125001
-0.12628071 0.13607645 0.89941669
-0.16487518 0.14133103 0.8953501
-0.15594789 0.1434027 0.89359999
-0.13866137 0.14834952 0.89050007
-0.10706545 0.14909917 0.89500004
-0.13668217 0.15522055 0.89454174
-0.11417638 0.15296164 0.89700001
-0.10415878 0.15109722 0.89525002
-0.13312221 0.16255787 0.89912504
-0.12408475 0.16525218 0.89775008
-0.11703216 0.16793725 0.89637506
-0.097752668 0.16521384 0.89754999
-0.1125606 0.17393479 0.89200008
-0.10282365 0.17629011 0.89656252
-0.097821653 0.17686526 0.89700001
-0.088199027 0.17983851 0.89225006
-0.073989779 0.17826462 0.89741677
-0.069109023 0.17898521 0.89775002
-0.10344003 0.18394344 0.89325005
-0.094826013 0.1838121 0.89339572
-0.086137421 0.18389991 0.89115012
-0.074477151 0.18178746 0.89575011
-0.06609863 0.18248811 0.89570463
-0.055194389 0.18626179 0.89499998
-0.091790974 0.19376536 0.89739287
-0.084875271 0.19647694 0.89283347
-0.07831046 0.1990018 0.89075005
-0.054046437 0.1933362 0.89758331
-0.09090814 0.20101249 0.89975005
-0.084563233 0.20429441 0.89736122
-0.075863138 0.20547323 0.89469659
-0.067181408 0.20787449 0.8982501
-0.078356579 0.058639467 0.90250003
-0.21349974 0.069467537 0.90225005
-0.20804024 0.06764546 0.90425003
-0.17548221 0.062092658 0.90975004
-0.15237243 0.061597828 0.90250003
-0.13325948 0.067832485 0.90675002
-0.22696237 0.073939793 0.90875006
-0.12052465 0.07523641 0.90050006
-0.11380424 0.076009244 0.90975004
-0.2505039 0.089011498 0.90050006
-0.24584928 0.084320903 0.90515006
-0.14277998 0.087406106 0.90425003
-0.25501013 0.093523122 0.90600002
-0.15071115 0.098288178 0.90437508
-0.25163332 0.10428004 0.90315008
-0.24667042 0.10722987 0.90268755
-0.15073198 0.10126654 0.90450007
-0.14879496 0.10327169 0.90475005
-0.24357028 0.11108815 0.90400004
-0.23459934 0.11352128 0.90500003
-0.22473557 0.11509361 0.90312511
-0.21858013 0.11800448 0.90150005
-0.14138632 0.11356395 0.90800005
-0.21453713 0.12123214 0.90108341
-0.20681898 0.12739857 0.90758342
-0.18533531 0.13587114 0.90450001
-0.13029918 0.13419792 0.90000004
-0.17161635 0.14386751 0.90512502
-0.16501009 0.14512804 0.90685004
-0.1582422 0.14826956 0.90787506
-0.14493495 0.14632502 0.9031136
-0.12070311 0.14629599 0.90183336
-0.10747981 0.14907511 0.90675002
-0.15140584 0.15036944 0.90262508
-0.14399289 0.15275939 0.90509093
-0.12055811 0.15104102 0.90075004
-0.11675732 0.15234014 0.90495002
-0.10316208 0.15251739 0.90366673
-0.098270625 0.15753473 0.90412503
-0.13163836 0.16736904 0.90925002
-0.12563935 0.16930947 0.90900004
-0.095162287 0.16518544 0.90276796
-0.12364414 0.17327259 0.90894997
-0.11783736 0.17582558 0.90760422
-0.09518899 0.17610207 0.90309215
-0.086745769 0.17810534 0.90883327
-0.075920418 0.17820561 0.90878129
-0.11435628 0.18265091 0.90620834
-0.10617986 0.18702252 0.90244997
-0.092439465 0.18045557 0.90512502
-0.085412882 0.18206091 0.90875012
-0.079892933 0.1811783 0.90875006
-0.065945745 0.18207046 0.90825009
-0.056754142 0.18571597 0.90425003
-0.10337033 0.19239867 0.90547514
-0.096451946 0.19566233 0.90292871
-0.05433245 0.19764733 0.90233344
-0.094621904 0.20180921 0.90510005
-0.058545813 0.20236027 0.90137506
-0.20250911 0.066450097 0.91500002
-0.18937701 0.064749904 0.91925007
-0.17123692 0.062723994 0.91900003
-0.16430855 0.062382728 0.91400003
-0.11826898 0.064344883 0.91350007
-0.11782681 0.076037087 0.91008335
-0.10636935 0.074387297 0.91425002
-0.25346801 0.08742182 0.91475004
-0.23947841 0.080095313 0.91100007
-0.13636115 0.080381051 0.91425002
-0.26206616 0.097180597 0.91566676
-0.25764504 0.095052704 0.91325009
-0.26312506 0.10414995 0.91571873
-0.25690591 0.10623787 0.91324997
-0.14827673 0.10629581 0.91375005
-0.2556195 0.11221922 0.91785717
-0.24614052 0.11386025 0.91355008
-0.23506314 0.11720595 0.9131875
-0.22951667 0.11792079 0.91100007
-0.23128024 0.12083299 0.91800004
-0.22516055 0.12278764 0.91760719
-0.21534215 0.12480635 0.91283339
-0.13551071 0.12587152 0.91665
-0.2021196 0.13318112 0.91325003
-0.19442816 0.1347847 0.91464996
-0.18937701 0.13907713 0.91925007
-0.13252971 0.13315947 0.91541672
-0.12704681 0.13651761 0.91556251
-0.18155079 0.14169383 0.91025007
-0.17658606 0.143693 0.91031259
-0.12010222 0.14599188 0.91225004
-0.11498231 0.14729291 0.91208339
-0.10988539 0.14965053 0.91025007
-0.15220824 0.15415822 0.91337502
-0.14619875 0.15712881 0.91325009
-0.11490988 0.15170217 0.9106251
-0.14201249 0.16196105 0.91460007
-0.1365688 0.1665528 0.91566676
-0.093209527 0.16659409 0.91591674
-0.13315853 0.17131175 0.91975003
-0.092204787 0.17196827 0.91258335
-0.11187609 0.18744488 0.91025007
-0.1098552 0.18938202 0.91000003
-0.063004822 0.18350856 0.91375011
-0.055520143 0.18772995 0.91650009
-0.09345933 0.059090689 0.92500007
-0.10528317 0.060930412 0.92225003
-0.23638487 0.077053614 0.92225003
-0.22483036 0.073200963 0.92450005
-0.11402696 0.077513136 0.92775005
-0.26032364 0.089750148 0.92850006
-0.25250643 0.084779963 0.92962503
-0.26559478 0.095540203 0.92565
-0.27125999 0.10448664 0.92425001
-0.26807925 0.10675481 0.92200005
-0.14823943 0.10974444 0.92600006
-0.27054954 0.11209995 0.92875004
-0.26313251 0.11273357 0.92207152
-0.25424555 0.11602116 0.92119998
-0.24445093 0.11776567 0.92225009
-0.23807871 0.11921521 0.92100006
-0.14143474 0.11723436 0.92125005
-0.24027596 0.1223467 0.92950004
-0.23506638 0.12275596 0.9234001
-0.22983453 0.12314018 0.92025006
-0.21744621 0.12816407 0.92750007
-0.21327431 0.13012075 0.92700005
-0.20527562 0.13627155 0.92750007
-0.18400612 0.14586632 0.92403567
-0.17498192 0.1487025 0.92287505
-0.16683477 0.14963841 0.92243749
-0.10913927 0.14936467 0.92075002
-0.18294099 0.15158859 0.92945004
-0.17691211 0.15048669 0.92766672
-0.16092277 0.1527974 0.92325002
-0.1562134 0.15616053 0.92525005
-0.14994003 0.159988 0.92400002
-0.10721286 0.15150009 0.92150003
-0.14503559 0.16524798 0.92708331
-0.13547194 0.17253231 0.92633343
-0.12735426 0.17766309 0.9214167
-0.073011987 0.179839 0.92225003
-0.12231122 0.18268847 0.92137504
-0.21669519 0.069796205 0.93300003
-0.14566839 0.069983222 0.93550003
-0.2347444 0.075811177 0.93175006
-0.22389126 0.072181568 0.93750006
-0.13979162 0.070114136 0.93725002
-0.14488983 0.087910041 0.93050003
-0.12898999 0.080012098 0.93325007
-0.27764261 0.10718074 0.93900007
-0.15418102 0.10496117 0.93750006
-0.27410862 0.11347759 0.93675005
-0.2664018 0.1176968 0.93558341
-0.25821385 0.11858645 0.93187505
-0.14838539 0.11342765 0.93975002
-0.26086622 0.12138334 0.93775004
-0.2543759 0.12073614 0.93275011
-0.24501757 0.12333028 0.93500006
-0.23578961 0.12727956 0.93590003
-0.22516486 0.12807435 0.93425006
-0.1389713 0.12467901 0.93175006
-0.19718474 0.13975222 0.93725002
-0.1321398 0.13414712 0.93387502
-0.19284618 0.14366825 0.93608338
-0.18757425 0.14683999 0.93025005
-0.18243644 0.15732707 0.93518752
-0.17527607 0.15602918 0.93413752
-0.16514719 0.15552272 0.93766671
-0.17574708 0.16202065 0.93770838
-0.15532953 0.16143098 0.93825006
-0.1458241 0.16829197 0.93650007
-0.13201381 0.068283826 0.94025004
-0.10816569 0.077092662 0.94750005
-0.26281351 0.089256324 0.94475007
-0.24736518 0.081705004 0.94100004
-0.14397165 0.086136952 0.94450009
-0.13869713 0.082974695 0.94375002
-0.15512668 0.099421069 0.94325006
-0.26637381 0.12249977 0.94637501
-0.25515443 0.12485993 0.94545001
-0.24772397 0.12630117 0.94080007
-0.14259806 0.12196583 0.94225007
-0.13895433 0.12858513 0.94550002
-0.24395812 0.13040952 0.94375008
-0.22668588 0.13056497 0.94487506
-0.21455951 0.13557644 0.94381249
-0.13380294 0.13480103 0.94562507
-0.19327755 0.1496813 0.94825006
-0.12864935 0.14101966 0.94575006
-0.11559402 0.14845796 0.94050002
-0.19115335 0.15378518 0.94800007
-0.18871263 0.15265018 0.94100004
-0.16837721 0.1583975 0.94585001
-0.10632388 0.15768591 0.94037503
-0.15296195 0.069391333 0.95550007
-0.11561958 0.065368772 0.95775002
-0.27538493 0.098314539 0.95250005
-0.28266913 0.10494325 0.95600003
-0.27876556 0.10153012 0.95337504
-0.28096899 0.114695 0.95025003
-0.27785197 0.11780961 0.95025003
-0.14827657 0.11701736 0.95225006
-0.27301273 0.12177859 0.95150012
-0.26390854 0.12690817 0.95620841
-0.25784943 0.12805775 0.95700002
-0.26073077 0.1308919 0.95733339
-0.25503781 0.1324527 0.95715904
-0.24580207 0.13356398 0.95900005
-0.23615324 0.13239589 0.95812505
-0.22276261 0.13567819 0.95912504
-0.13670805 0.13457742 0.95875007
-0.21174927 0.14265984 0.95675004
-0.20521536 0.14289853 0.95555001
-0.19807032 0.14782955 0.956375
-0.16052248 0.065744162 0.96325004
-0.12744199 0.068183742 0.96800005
-0.24580359 0.078699604 0.96725005
-0.2378329 0.076744221 0.96925002
-0.14633407 0.071816027 0.96000004
-0.26357579 0.087789774 0.96262503
-0.25003436 0.080813341 0.96725005
-0.13538629 0.083730638 0.96437502
-0.1158912 0.080207609 0.96000004
-0.27617115 0.097243354 0.96250004
-0.2863237 0.10972082 0.96125007
-0.15750916 0.1063021 0.96200007
-0.28670928 0.11506758 0.96491671
-0.27406454 0.1256395 0.96250004
-0.14568239 0.12355015 0.96262503
-0.24606068 0.13475288 0.96000004
-0.23153341 0.13608637 0.96950006
-0.22473872 0.13793692 0.96762502
-0.11364099 0.064531073 0.97675008
-0.22869949 0.072975561 0.97550005
-0.1393816 0.085942 0.97750002
-0.277839 0.09644971 0.97575003
-0.28997257 0.10899168 0.97350007
-0.15841877 0.10076595 0.97625005
-0.15648384 0.11371179 0.97750002
-0.28275916 0.12352381 0.97066671
-0.27540445 0.12867007 0.97216672
-0.14751655 0.12404253 0.97475004
-0.27411377 0.13084728 0.97387505
-0.26511115 0.13592635 0.97267866
-0.10162413 0.062891655 0.98450005
-0.23618422 0.075453795 0.98000002
-0.14084315 0.071733423 0.98775005
-0.2624377 0.086337648 0.98200005
-0.25820819 0.084213108 0.98225003
-0.14683901 0.088708878 0.98450005
-0.13240312 0.084813252 0.98925006
-0.11705136 0.082505226 0.98750007
-0.10216606 0.080530301 0.98975003
-0.2791664 0.095501497 0.98800004
-0.29242995 0.11849704 0.98175007
-0.2929517 0.12238142 0.98712504
-0.27285078 0.089790151 0.99650007
-0.13931477 0.087238826 0.99225003
-0.28008974 0.09438166 0.99900007
-0.15432705 0.095388226 0.99812508
-0.29355448 0.10612258 0.99650007
-0.15968557 0.10077947 0.99750006
-0.16077174 0.11092297 0.99075007
-0.12342934 0.06854251 1.00425
-0.22778308 0.073294818 1.00925
-0.16340868 0.070930816 1.0070001
-0.15900409 0.07313142 1.0070001
-0.25701809 0.081588037 1.00275
-0.13549489 0.087186664 1.004125
-0.1269549 0.086260028 1.006125
-0.1168405 0.083904676 1.00425
-0.10154229 0.081771106 1.005
-0.14696385 0.090105511 1
-0.24356946 0.077058509 1.0152501
-0.2172302 0.071247779 1.0115
-0.14752764 0.074002892 1.0190001
-0.13534763 0.071230173 1.01125
-0.27313989 0.089129113 1.0137501
-0.26655442 0.085827239 1.0140001
-0.25134066 0.08038646 1.0152501
-0.28152132 0.093398318 1.0120001
-0.20344061 0.069617495 1.0200001
-0.12122963 0.067570157 1.02275
-0.10762472 0.065223344 1.021
-0.22329317 0.072498053 1.02925
-0.12869042 0.070214696 1.0287501
