# .PCD v0.7 - Point Cloud Data file format
VERSION 0.7
FIELDS x y z
SIZE 4 4 4
TYPE F F F
COUNT 1 1 1
WIDTH 502
HEIGHT 1
VIEWPOINT 0 0 0 1 0 0 0
POINTS 502
DATA ascii
-0.095485561 0.038455177 0.86975002
-0.10327935 0.047103513 0.8690179
-0.095407151 0.045069285 0.86904162
-0.089123704 0.047630087 0.8695417
-0.10338134 0.055140018 0.86839712
-0.095287502 0.055445533 0.86795014
-0.085814625 0.056141164 0.86893743
-0.078343846 0.059345495 0.86950004
-0.10184304 0.064313583 0.86921877
-0.095288642 0.06492994 0.86794007
-0.084934585 0.064739808 0.86717266
-0.076351359 0.065917529 0.86848438
-0.094736569 0.074024156 0.86867851
-0.085442305 0.074889041 0.86640197
-0.07605461 0.075114347 0.86729175
-0.093269311 0.084951937 0.86903131
-0.085902028 0.085265733 0.8668611
-0.075004041 0.085172541 0.86690152
-0.068821073 0.086877681 0.86931252
-0.092592694 0.092584506 0.86937499
-0.084727898 0.095118448 0.86787009
-0.074752063 0.094970994 0.86706477
-0.067354158 0.095844276 0.86879182
-0.081276104 0.10386036 0.86922228
-0.074412979 0.10476767 0.86800003
-0.066062219 0.10503695 0.86857909
-0.080251195 0.11350741 0.86956251
-0.074195586 0.11483897 0.86783046
-0.066064179 0.11480939 0.86830693
-0.073181398 0.12445468 0.86887509
-0.065896735 0.12504952 0.86896425
-0.070737503 0.13155024 0.86950004
-0.066942416 0.13292399 0.86960727
-0.11361356 -0.013000985 0.87902498
-0.10674881 -0.013384371 0.87896651
-0.11531985 -0.0054666866 0.87712508
-0.10511419 -0.0051757391 0.87732768
-0.097155303 -0.0027557758 0.87912506
-0.11402091 0.0043657478 0.87550008
-0.10515095 0.004975718 0.874008
-0.095375426 0.0051640486 0.87635845
-0.088293418 0.0066855908 0.87862504
-0.1133755 0.015063912 0.87482351
-0.10527788 0.015688665 0.87206995
-0.094692193 0.015193701 0.87364393
-0.086171634 0.015233125 0.8772977
-0.11235414 0.025310541 0.87519997
-0.10532579 0.025229372 0.87246001
-0.095073216 0.024997978 0.8715893
-0.084962517 0.025499847 0.87461114
-0.078985818 0.028222417 0.87662506
-0.11187647 0.033367984 0.87595004
-0.10530363 0.034753397 0.87226999
-0.095550746 0.034157995 0.87034094
-0.085246392 0.034745254 0.87207514
-0.077291802 0.035336431 0.8758269
-0.10646417 0.042969935 0.87136668
-0.08430019 0.0446539 0.87080848
-0.075454772 0.045055661 0.87397003
-0.10802913 0.054537792 0.87375003
-0.081575491 0.053052243 0.87016678
-0.07441067 0.054936364 0.87214822
-0.067834474 0.055952687 0.875875
-0.10465141 0.065319933 0.87320006
-0.072198279 0.064020731 0.87107503
-0.066208534 0.065679349 0.87553579
-0.10126758 0.074624643 0.87040007
-0.098849826 0.076971516 0.87006259
-0.070784956 0.072694927 0.87008339
-0.065347694 0.074911959 0.87379998
-0.059278 0.078487188 0.87816668
-0.10189003 0.08082369 0.87575006
-0.097671106 0.08377035 0.87057507
-0.06488625 0.084401719 0.87316316
-0.058860205 0.084744111 0.87670004
-0.093810692 0.095919043 0.87380564
-0.088904694 0.098411098 0.87050003
-0.063123494 0.094364174 0.87270314
-0.057641197 0.095431112 0.87581575
-0.090645142 0.10497897 0.87504166
-0.085797176 0.10579093 0.87154692
-0.061614171 0.10442969 0.87045836
-0.056472972 0.1055523 0.87299991
-0.0907856 0.11192142 0.87950003
-0.084533505 0.11471183 0.87229168
-0.061264791 0.11451493 0.87000006
-0.05572924 0.1148795 0.87277007
-0.0822955 0.12417717 0.87417316
-0.077018432 0.126311 0.8712222
-0.061554201 0.12568736 0.87025011
-0.054951821 0.12465512 0.87316132
-0.048285875 0.12681168 0.87616676
-0.081324667 0.13205492 0.87600005
-0.075056419 0.13540486 0.87278998
-0.064356528 0.13643548 0.87036109
-0.05461923 0.13498937 0.87243569
-0.047546726 0.13610353 0.87433344
-0.073356852 0.1444951 0.87348342
-0.065185525 0.14519103 0.87153
-0.05475606 0.1453435 0.87244993
-0.046610609 0.14623863 0.87517315
-0.071664587 0.15293762 0.87500006
-0.065172322 0.15490228 0.87348956
-0.05518562 0.1546711 0.87459624
-0.046989944 0.15292411 0.87583345
-0.12028357 -0.020806815 0.88425004
-0.11376955 -0.023279743 0.88311768
-0.10505575 -0.023236791 0.88151479
-0.098787345 -0.020759756 0.88225007
-0.12150638 -0.014972473 0.88190001
-0.11634385 -0.016278245 0.88095307
-0.10273171 -0.01627739 0.88044232
-0.097407006 -0.014103143 0.88247734
-0.12163851 -0.0058208737 0.88356251
-0.10045996 -0.0091683883 0.88000005
-0.094488218 -0.0059048133 0.8824265
-0.12075967 0.00045089994 0.88775003
-0.11784781 0.0081438702 0.88050002
-0.090863019 0.0004470906 0.88025004
-0.087810256 0.0043114014 0.88440001
-0.11868432 0.012079324 0.88675004
-0.082650647 0.015918097 0.88506252
-0.11690959 0.021797111 0.88800007
-0.078804836 0.026569989 0.88537502
-0.11393316 0.036181238 0.88375002
-0.074559353 0.036536083 0.88475007
-0.11307853 0.043164711 0.88841671
-0.071191549 0.045032427 0.88700008
-0.069746338 0.048578866 0.88100004
-0.11064561 0.053605758 0.88450003
-0.067142174 0.052649811 0.88475001
-0.10775585 0.06425783 0.88462508
-0.062924065 0.06487444 0.88441676
-0.10498321 0.074973889 0.88568753
-0.060044426 0.07544671 0.88000005
-0.1012266 0.086448826 0.88108343
-0.097919211 0.095980212 0.88312507
-0.054270778 0.098523557 0.88000005
-0.093903244 0.10471074 0.8835001
-0.052628782 0.10678516 0.88475007
-0.092441022 0.11275929 0.88612503
-0.089114733 0.11706035 0.88200009
-0.050751138 0.11754891 0.88575006
-0.086797655 0.12480858 0.88458341
-0.048793349 0.12330794 0.88537502
-0.082968056 0.13582729 0.88500005
-0.046764433 0.13271523 0.88362503
-0.08195278 0.14017084 0.88800007
-0.077850819 0.14654739 0.88550001
-0.044736825 0.14496496 0.88175005
-0.07459949 0.15574579 0.88830006
-0.046766482 0.15734664 0.88362503
-0.070122384 0.16110767 0.88575006
-0.062796921 0.16453029 0.88427275
-0.054457162 0.16513099 0.8856771
-0.048915975 0.16532615 0.88760006
-0.055100661 0.17196107 0.88896424
-0.049020682 0.17150889 0.88950002
-0.11155407 -0.029032424 0.89962506
-0.12384145 -0.0034609805 0.89600003
-0.089948289 -0.0014933001 0.89025003
-0.12177988 0.0043716901 0.89525002
-0.087259054 0.0043566083 0.89262503
-0.11942046 0.016051909 0.89225006
-0.11784764 0.026864357 0.89512509
-0.11752463 0.035218194 0.89637506
-0.075408429 0.033555586 0.89100003
-0.11339144 0.048150368 0.89087504
-0.0717116 0.04341314 0.89350009
-0.068935819 0.049378403 0.89550006
-0.11225513 0.055693161 0.89216667
-0.065816358 0.056063354 0.89300001
-0.10957158 0.062795252 0.89150006
-0.10744081 0.07046929 0.89000005
-0.060982618 0.073695615 0.89375007
-0.058978468 0.078512751 0.89300007
-0.10430422 0.08665698 0.89650005
-0.057033464 0.087306216 0.89312506
-0.10146178 0.095567465 0.89737499
-0.055594482 0.094673097 0.89356256
-0.09748289 0.10433248 0.89687502
-0.05300799 0.10269003 0.89112502
-0.092820428 0.11688397 0.89291674
-0.051247716 0.11186034 0.89441675
-0.090327173 0.12255976 0.89400005
-0.088594429 0.12776303 0.89625007
-0.048034888 0.12633428 0.89533335
-0.086610168 0.13164346 0.89600003
-0.045582429 0.13788684 0.8984167
-0.081324287 0.14465918 0.89175004
-0.045354117 0.14305626 0.89391679
-0.078244522 0.15021116 0.89000005
-0.04537103 0.1587453 0.89425004
-0.053760063 0.17562898 0.89067507
-0.049130902 0.17481793 0.89150006
-0.12169529 -0.024177443 0.90187502
-0.11659759 -0.028406849 0.90058345
-0.10248019 -0.024298899 0.90637505
-0.12484352 -0.019280016 0.90325004
-0.097304888 -0.015351376 0.90433341
-0.12532727 -0.0015209771 0.90675002
-0.092542142 -0.0054783397 0.90612507
-0.12354827 0.0084005343 0.90825003
-0.088848144 0.0024486203 0.90887499
-0.12201973 0.014274247 0.90425003
-0.084373966 0.013284467 0.90350002
-0.081384793 0.022171441 0.90325004
-0.079453357 0.026133657 0.90375006
-0.11848944 0.037825879 0.90000004
-0.076771662 0.032183483 0.90712506
-0.11731415 0.045021247 0.90612507
-0.072926775 0.0421599 0.90862501
-0.069975048 0.048136357 0.90900004
-0.11464833 0.053604722 0.90075004
-0.066856951 0.054969132 0.90712506
-0.11200425 0.063621253 0.90325004
-0.063465387 0.065451533 0.90125006
-0.10897998 0.073451608 0.90275002
-0.061886698 0.071815334 0.90700006
-0.10641119 0.085621938 0.90612507
-0.057951428 0.085737087 0.90750003
-0.097187966 0.1090221 0.90325004
-0.053907692 0.10146247 0.90625006
-0.095344335 0.11707943 0.90450007
-0.049819782 0.11899023 0.90400004
-0.04965445 0.1205643 0.90100002
-0.088848963 0.13353428 0.90887499
-0.084500313 0.14382121 0.90487504
-0.081429847 0.15055686 0.90375006
-0.07835713 0.15626425 0.90250003
-0.04384255 0.15438922 0.90305007
-0.073300339 0.16388129 0.90100002
-0.067407064 0.16852264 0.90125006
-0.047325067 0.16597512 0.90170002
-0.062219966 0.17396802 0.90225005
-0.059671942 0.17815717 0.90350002
-0.048076078 0.17568822 0.90095007
-0.054751217 0.18167527 0.90381253
-0.14499345 -0.10485129 0.91906244
-0.14345305 -0.099291809 0.91912508
-0.1391173 -0.099975295 0.91925007
-0.12410685 -0.026666988 0.91975003
-0.12839845 -0.012525527 0.91450006
-0.12838089 -0.0085275695 0.91437507
-0.12695131 0.00046651828 0.91850007
-0.12203037 0.020387629 0.91175002
-0.082871474 0.020566517 0.91975003
-0.12003639 0.040312167 0.91175002
-0.11627117 0.056359772 0.91350007
-0.066707015 0.056683674 0.91875005
-0.11245989 0.068449654 0.91500002
-0.064416051 0.064432926 0.91475004
-0.11048899 0.076468766 0.91525006
-0.060299374 0.078275964 0.91300005
-0.10872441 0.084653758 0.91725004
-0.10442698 0.096417092 0.91475004
-0.056198008 0.094056822 0.91125005
-0.10138471 0.10437004 0.91437507
-0.052154925 0.10986701 0.91025007
-0.098559842 0.11256278 0.91600007
-0.050481107 0.118568 0.91600007
-0.09414202 0.12402596 0.912
-0.048160285 0.1277345 0.91000003
-0.046284284 0.1360245 0.91225004
-0.044192106 0.14965053 0.91025007
-0.082601167 0.15472592 0.91675001
-0.076551788 0.16600263 0.91633338
-0.045653 0.16525975 0.91962504
-0.072556779 0.17070641 0.91650003
-0.066616446 0.17490251 0.91750002
-0.046639439 0.17523521 0.91925001
-0.061474107 0.18154836 0.91562504
-0.047816999 0.18396536 0.9187001
-0.15067026 -0.11315564 0.92850006
-0.14635184 -0.11083991 0.92050004
-0.14325486 -0.10809878 0.92000002
-0.14303043 -0.093537174 0.92115003
-0.1383996 -0.09309914 0.92191672
-0.14215021 -0.086732663 0.92262506
-0.13707215 -0.08395882 0.92354178
-0.13456565 -0.074343413 0.92528743
-0.13300009 -0.064935237 0.92564589
-0.1280698 -0.063400239 0.92537504
-0.13185999 -0.058135331 0.92475003
-0.12726679 -0.054436684 0.92370003
-0.12457813 -0.045751601 0.9219265
-0.12282625 -0.036282975 0.92145842
-0.11808477 -0.033747196 0.92096424
-0.1221782 -0.029702064 0.92037505
-0.12569073 0.012584656 0.92400002
-0.085367478 0.014619685 0.92500007
-0.12412166 0.025804609 0.92737508
-0.081717171 0.024847023 0.92950004
-0.12436146 0.032961082 0.92916673
-0.075578079 0.039044712 0.92900002
-0.12155042 0.042838216 0.92325002
-0.071399182 0.047089159 0.92750007
-0.11863118 0.055007271 0.92412508
-0.069408149 0.051170472 0.92800003
-0.11561811 0.065102093 0.92425007
-0.063029587 0.0711229 0.92375004
-0.059052985 0.085345939 0.92475003
-0.057308093 0.093884036 0.92925006
-0.05377027 0.10511389 0.92087507
-0.051032212 0.11783882 0.92600006
-0.096911319 0.12634063 0.92900002
-0.048689518 0.12712769 0.92000002
-0.092512369 0.13396919 0.92562509
-0.089171737 0.13956882 0.92250001
-0.04685507 0.13568386 0.92350006
-0.087036155 0.14541934 0.92125005
-0.044780768 0.14861812 0.92237508
-0.046677489 0.16934782 0.92000002
-0.14165221 -0.077251606 0.93600005
-0.13915773 -0.072926216 0.93300003
-0.13302447 -0.054569315 0.9329167
-0.12423389 -0.053715631 0.93587506
-0.13089059 -0.048420563 0.93225002
-0.12470705 -0.043884087 0.93683338
-0.12766315 -0.036439721 0.93850005
-0.11721251 -0.0343333 0.93700004
-0.10028141 -0.017856982 0.93200004
-0.098295838 -0.013790965 0.93250006
-0.1313118 -0.0056564002 0.93525004
-0.094417728 -0.0056489506 0.93450004
-0.088146247 0.0086294496 0.93300003
-0.079727232 0.028925061 0.93000007
-0.12457337 0.037084289 0.93075007
-0.078090154 0.033158228 0.93475002
-0.12157042 0.053829025 0.93900007
-0.067759812 0.055538837 0.93325007
-0.065859646 0.063833095 0.93525004
-0.11201267 0.084382936 0.93637502
-0.10825998 0.094010323 0.93050003
-0.10606839 0.10400979 0.93812501
-0.054729562 0.10492225 0.93725002
-0.10125883 0.11346778 0.93162507
-0.051597092 0.11709718 0.93625003
-0.049231984 0.12651119 0.93025005
-0.092597857 0.13967767 0.93675005
-0.047540009 0.1356197 0.93700004
-0.090549193 0.14377184 0.93675005
-0.088406064 0.14975308 0.93575007
-0.045339085 0.14638785 0.93387508
-0.084880099 0.15708935 0.93075001
-0.081892997 0.16332221 0.93150002
-0.079941548 0.16757315 0.93250006
-0.045369428 0.16793256 0.93450004
-0.13260999 -0.075888023 0.94450009
-0.13814603 -0.066283703 0.94000006
-0.13595903 -0.055345796 0.94625008
-0.12644716 -0.059392653 0.94475007
-0.13299663 -0.047129627 0.94725007
-0.12296219 -0.043103021 0.94975007
-0.13078679 -0.022265704 0.94625002
-0.12868336 -0.028461725 0.94600004
-0.10336264 -0.022153936 0.94150007
-0.13268073 -0.016040945 0.94500005
-0.13009572 0.0025349939 0.94125003
-0.091056675 0.0025370137 0.94200003
-0.12844531 0.014923932 0.94425005
-0.12385438 0.045706034 0.94075006
-0.12021688 0.062400404 0.94450003
-0.11553257 0.072374053 0.94000006
-0.062231202 0.078724608 0.94225007
-0.052161973 0.11631077 0.94650006
-0.10008783 0.12912913 0.94950002
-0.049787682 0.12588333 0.94075006
-0.096832991 0.13515714 0.948125
-0.091805816 0.14784259 0.94975007
-0.045939885 0.14522989 0.94625002
-0.08714404 0.15936729 0.94425005
-0.043731362 0.15713593 0.94325
-0.14314529 -0.074469939 0.95275003
-0.13038372 -0.033027038 0.95850009
-0.12091693 -0.038962279 0.95000005
-0.085934952 0.019242555 0.95375007
-0.12731713 0.039979849 0.95125002
-0.07144627 0.050585538 0.95525002
-0.069375299 0.054774899 0.95550007
-0.11902691 0.069100834 0.95150006
-0.064837746 0.071086645 0.95025003
-0.11564977 0.084227562 0.95800006
-0.060809091 0.08580298 0.95225006
-0.11134315 0.098779008 0.95700002
-0.058711112 0.0941021 0.95200002
-0.1095356 0.10532746 0.95950007
-0.054432496 0.1084367 0.95000005
-0.10437815 0.11475535 0.95075005
-0.05274063 0.11550972 0.95700002
-0.10229887 0.1209884 0.95075005
-0.050396301 0.12534121 0.95225006
-0.048237637 0.13553216 0.95075005
-0.095375851 0.14227781 0.95425004
-0.046206906 0.14399418 0.95175004
-0.14226101 -0.065085039 0.96800005
-0.1312339 -0.069083072 0.96475005
-0.12932476 -0.062855825 0.96625006
-0.13974588 -0.058572039 0.96525007
-0.12731034 -0.054451849 0.96700007
-0.13306735 -0.0415891 0.96275002
-0.13157398 0.017401187 0.96725005
-0.089358978 0.013187329 0.96825004
-0.078710213 0.038548533 0.96750003
-0.12734324 0.049107268 0.96725005
-0.076178677 0.044647794 0.96225005
-0.12496895 0.057443198 0.96525007
-0.12333526 0.066136613 0.96900004
-0.067813776 0.063622646 0.96300006
-0.11432509 0.093229957 0.96450007
-0.056264021 0.10473597 0.96362507
-0.10706314 0.11550754 0.96562505
-0.05333307 0.11469242 0.96775007
-0.10410114 0.1252342 0.96750003
-0.051018149 0.12478117 0.96400005
-0.048833787 0.13510381 0.96250004
-0.15037757 -0.082982332 0.97950006
-0.13541703 -0.076580346 0.97975004
-0.13920337 -0.050705902 0.97625005
-0.13706832 -0.046439089 0.97625005
-0.13657692 -0.003757443 0.97275007
-0.092303202 0.0069013671 0.97700006
-0.084260181 0.025943566 0.97050005
-0.081139408 0.032330506 0.97125006
-0.12999398 0.042942908 0.97125006
-0.11931196 0.076862991 0.97075003
-0.064493254 0.079452224 0.97650003
-0.060144972 0.094269067 0.97525007
-0.11164754 0.1094955 0.97800004
-0.058250051 0.1010756 0.97925007
-0.10967663 0.11608496 0.97950006
-0.053925507 0.11382812 0.97850007
-0.14819738 -0.074942917 0.98637503
-0.12599954 -0.044543944 0.98150003
-0.11687355 -0.031819891 0.98600006
-0.10275283 -0.014567399 0.98500007
-0.098481536 -0.0059587369 0.98537505
-0.13558981 0.0047858357 0.98100007
-0.13409051 0.019888176 0.98575002
-0.12299865 0.073555321 0.98325002
-0.066952944 0.071261376 0.98125005
-0.11848668 0.088438563 0.98150003
-0.062852561 0.086535469 0.98425007
-0.11716989 0.097710006 0.98850006
-0.11410636 0.10337366 0.98075002
-0.05646655 0.10818157 0.98550004
-0.054325055 0.11251733 0.98575002
-0.10757118 -0.021339823 0.99975002
-0.095793173 0.00050334202 0.99100006
-0.13575687 0.022316264 0.99800003
-0.13320617 0.04617897 0.99525005
-0.13139163 0.052849375 0.99800003
-0.072025426 0.054699469 0.99200004
-0.12852931 0.061249219 0.99275005
-0.069855936 0.063370772 0.99200004
-0.1268355 0.070191219 0.99650007
-0.12244608 0.081059165 0.99625003
-0.12053893 0.092152387 0.99850005
-0.061378401 0.09402737 0.99525005
-0.090124711 0.017994871 1.0002501
-0.078786314 0.046822488 1.009125
-0.12631363 0.077744357 1.00975
-0.067544647 0.075245194 1.006
-0.064464979 0.086549379 1.0095
-0.1377973 0.027080206 1.013
-0.088395476 0.024990924 1.0181251
-0.13817137 0.033812895 1.0157501
-0.083656937 0.034872741 1.0146251
-0.13635147 0.049495641 1.0187501
-0.13134524 0.064808108 1.0145
-0.071440369 0.062591113 1.0145
-0.12963568 0.073966585 1.0185001
-0.097239576 0.0050212247 1.02925
-0.094250299 0.011677431 1.02125
-0.13484757 0.056477752 1.02425
-0.13315779 0.067950048 1.0285001
-0.072461449 0.061237033 1.029
-0.14065391 0.038938515 1.034
-0.13876061 0.052635781 1.0367501
-0.077598013 0.052673858 1.0375
-0.10689285 -0.013192409 1.0466251
-0.10220456 -0.004038454 1.0455
-0.14443563 0.01879994 1.0450001
-0.094156779 0.016516292 1.0450001
-0.14442699 0.024507793 1.0449376
-0.1446775 0.0325577 1.0467501
-0.085055843 0.037086844 1.0455
-0.14270568 0.044091661 1.0490834
-0.08157745 0.046197895 1.0448751
-0.14879197 0.00053826103 1.0597501
-0.14858137 0.025975389 1.0582501
-0.091792509 0.023640607 1.05725
-0.14763686 0.035569619 1.057
-0.088261299 0.030550715 1.0565001
-0.14283037 0.048719339 1.0500001
-0.11205199 -0.020366924 1.0630001
-0.14681984 0.0098249018 1.06225
-0.098218732 0.0098433997 1.06425
-0.1468544 0.014470992 1.0625
-0.14900257 0.021411441 1.0612501
-0.11542584 -0.02524231 1.0727501
-0.10127843 0.0028871323 1.072
