# .PCD v0.7 - Point Cloud Data file format
VERSION 0.7
FIELDS x y z
SIZE 4 4 4
TYPE F F F
COUNT 1 1 1
WIDTH 658
HEIGHT 1
VIEWPOINT 0 0 0 1 0 0 0
POINTS 658
DATA ascii
-0.21528283 -0.02178512 0.84715003
-0.22187042 -0.018476769 0.84825009
-0.21553282 -0.018213509 0.84708935
-0.21141089 -0.020183258 0.85775006
-0.20787081 -0.020203847 0.85862505
-0.22036529 -0.014593865 0.85975003
-0.21379471 -0.016219921 0.85884374
-0.20803733 -0.017403027 0.85931253
-0.21224234 -0.014617205 0.86112505
-0.20371038 -0.015308345 0.86276478
-0.19767191 -0.015399157 0.86668187
-0.1354073 -0.0014586619 0.86960012
-0.12972394 -0.0014589136 0.86975002
-0.13405669 0.0019618815 0.86947507
-0.12968665 0.001391693 0.86950004
-0.22534758 -0.01479756 0.87175006
-0.20013772 -0.011069402 0.87825006
-0.19299516 -0.013727806 0.87507355
-0.18772686 -0.012979968 0.87770003
-0.1336406 -0.01185489 0.87325013
-0.125453 -0.011004807 0.87312508
-0.13514687 -0.0063966368 0.87127286
-0.12470101 -0.0052027297 0.87158322
-0.11498224 -0.004477655 0.87548816
-0.10863388 -0.0027543695 0.87866664
-0.14208938 0.0031169308 0.87325001
-0.13648629 0.0057719727 0.87081665
-0.12465132 0.0049920995 0.87162906
-0.11532722 0.004691198 0.87438899
-0.10791275 0.0042837565 0.87801671
-0.13542022 0.010413552 0.87709999
-0.1270055 0.01003087 0.87725002
-0.11339108 0.010014672 0.87583333
-0.10898805 0.011010882 0.87893754
-0.21292731 -0.013066292 0.88350004
-0.20584621 -0.011118243 0.88212502
-0.18279359 -0.012088674 0.88262504
-0.17493971 -0.011177796 0.88685006
-0.14131571 -0.01112612 0.88275003
-0.12487404 -0.012543553 0.88546431
-0.11626246 -0.011130321 0.88308334
-0.19383895 -0.0092621557 0.88900006
-0.18388875 -0.0085582519 0.88325006
-0.17498848 -0.0082730679 0.88710004
-0.14418685 -0.0049169222 0.88325
-0.11505317 -0.009180977 0.88120842
-0.10516085 -0.0054577147 0.8833971
-0.14474452 0.0047967345 0.88306254
-0.10260125 0.0043028384 0.88188338
-0.098002046 0.0052125929 0.88786376
-0.14171593 0.010122347 0.88525003
-0.13400532 0.01348151 0.88333338
-0.12630443 0.013172358 0.88583934
-0.11426462 0.012553464 0.88625002
-0.10413916 0.012184749 0.88363469
-0.098125882 0.011827416 0.88875002
-0.21698745 -0.013195698 0.89225006
-0.18654676 -0.015209192 0.89600003
-0.17913604 -0.013210488 0.89325005
-0.16741955 -0.011259248 0.89331257
-0.14462559 -0.011233253 0.89125001
-0.12133779 -0.013192 0.89200002
-0.11559089 -0.012228824 0.89281261
-0.19035955 -0.0073729344 0.89550006
-0.18745436 -0.007335884 0.89100003
-0.17529638 -0.005404274 0.89356256
-0.16520147 -0.0069685676 0.89400017
-0.15484662 -0.0047660437 0.89586109
-0.14831699 -0.0060444274 0.89195842
-0.10207085 -0.0069448664 0.89070004
-0.095786437 -0.0047077448 0.89466006
-0.088866264 -0.0015079773 0.89900005
-0.15174493 0.00110649 0.89491671
-0.14885721 0.0024057191 0.89325005
-0.093117297 0.003841592 0.89315784
-0.085634626 0.0052038198 0.89769733
-0.11283901 0.015815148 0.89687508
-0.10586883 0.016995627 0.89789295
-0.092723712 0.013138987 0.8928929
-0.085176855 0.012979897 0.89700001
-0.10861783 0.020119298 0.89975005
-0.22249676 -0.013410142 0.90675002
-0.21547294 -0.011371897 0.90225005
-0.18731686 -0.015434105 0.90925002
-0.14301683 -0.013395352 0.90575004
-0.1143228 -0.012411628 0.90587509
-0.10843897 -0.011425463 0.90650004
-0.19985326 -0.0094080167 0.90300006
-0.17131448 -0.00351023 0.90875006
-0.16787161 -0.0035005733 0.90625
-0.091009177 -0.0074161589 0.90075004
-0.085473955 -0.0041077333 0.90345311
-0.077262156 -0.0023732909 0.90789288
-0.15060699 0.006383941 0.90375006
-0.14863051 0.0083589125 0.90375006
-0.082552113 0.0017706795 0.9016251
-0.075559117 0.004407018 0.90451014
-0.067593083 0.0068440479 0.90669441
-0.14564575 0.011319667 0.90362501
-0.13401963 0.017699707 0.90181255
-0.12788063 0.017249562 0.90375006
-0.11541202 0.016312769 0.90675002
-0.10158116 0.017529057 0.90133339
-0.0960446 0.017659038 0.90314287
-0.084095828 0.01735653 0.90207154
-0.07547158 0.014282555 0.90344
-0.066301353 0.013886362 0.90700001
-0.12406839 0.025014749 0.90620005
-0.11454932 0.024457222 0.90198904
-0.10496709 0.024324371 0.90363544
-0.095613383 0.024251174 0.90708017
-0.086137004 0.022957338 0.90822232
-0.07676015 0.021749072 0.9080227
-0.12207922 0.030859662 0.90716672
-0.11459233 0.03303723 0.90638894
-0.1056213 0.034190353 0.90783
-0.098250933 0.032467414 0.90902781
-0.10684061 0.04022374 0.90975004
-0.19559309 -0.017449835 0.91075003
-0.17990528 -0.013487786 0.91200006
-0.14493656 -0.01348415 0.91162503
-0.13692933 -0.015470176 0.91137505
-0.10557078 -0.0115452 0.91600001
-0.20518072 -0.0095642963 0.91800004
-0.19543202 -0.0074923174 0.91000003
-0.18578772 -0.0055127605 0.91150004
-0.17607056 -0.0035459599 0.91800004
-0.16120031 -0.0055230069 0.91337502
-0.15601419 -0.009504389 0.91225004
-0.095473975 -0.0095362961 0.91531253
-0.083658695 -0.0068583544 0.91366673
-0.071802728 -0.0027267602 0.91205007
-0.067433372 -0.0015348156 0.91500002
-0.070080891 0.0014567063 0.910375
-0.063497491 0.0036144939 0.91371065
-0.057020981 0.0062568965 0.91738892
-0.14487214 0.014501146 0.91750002
-0.12341055 0.01676468 0.91339606
-0.11812392 0.016984796 0.91625005
-0.061204802 0.01565419 0.91162503
-0.055886142 0.014161095 0.91709733
-0.13245897 0.021019012 0.9103334
-0.12649237 0.021945409 0.91202778
-0.11872212 0.020505026 0.91700006
-0.084048823 0.027662359 0.91072232
-0.073495641 0.025714844 0.91354424
-0.064660363 0.024321802 0.91588527
-0.057316367 0.021878092 0.91854173
-0.12274257 0.034776133 0.91458338
-0.1171939 0.037108965 0.91135007
-0.09363433 0.035094392 0.91171438
-0.084572449 0.03405989 0.91357613
-0.074912086 0.033188939 0.91675007
-0.068077169 0.031266578 0.91916674
-0.1210238 0.040643778 0.91925007
-0.11419494 0.041358121 0.91284382
-0.10511589 0.040991399 0.91204172
-0.094307639 0.040396176 0.91365004
-0.088809259 0.040621668 0.91875005
-0.22905979 -0.013683743 0.92525005
-0.20549695 -0.019818982 0.92850006
-0.18465354 -0.014701232 0.92587507
-0.2002425 -0.0075993505 0.92300004
-0.19364835 -0.0055959201 0.92525005
-0.16673544 -0.0015557831 0.92750007
-0.078998536 -0.0055732396 0.92150003
-0.16030373 0.00047007366 0.92550004
-0.15726765 0.0035038264 0.92550004
-0.054060902 0.0040436327 0.92457706
-0.048331868 0.0069641965 0.92860001
-0.051351283 0.01542273 0.92135721
-0.045440588 0.01510362 0.92659086
-0.039038762 0.018758338 0.92975003
-0.060778204 0.028621815 0.92025006
-0.053995527 0.025498316 0.92205268
-0.044996161 0.024780188 0.92689997
-0.039030895 0.023833208 0.92956257
-0.12554723 0.036373816 0.92295009
-0.082187444 0.038808301 0.92337501
-0.075175136 0.038029063 0.92400008
-0.064642094 0.033573769 0.92203575
-0.055911142 0.031383961 0.92546427
-0.046318132 0.031328693 0.92895001
-0.13050449 0.045159455 0.92950004
-0.12503955 0.045463923 0.92739999
-0.11660124 0.04614171 0.92537498
-0.10479316 0.044166487 0.92462492
-0.095425412 0.042893894 0.92445004
-0.087453783 0.041602924 0.92566675
-0.12330765 0.05189589 0.92887503
-0.11830766 0.051253181 0.92950004
-0.22419426 -0.011724806 0.93025005
-0.1703105 -0.011797279 0.93600005
-0.13671313 -0.015790571 0.93025005
-0.11894406 -0.013820543 0.93450004
-0.1045539 -0.01176892 0.93375003
-0.21209724 -0.0097909011 0.93975002
-0.18317784 -0.0036270767 0.93900007
-0.092375442 -0.0097362036 0.93450004
-0.07781864 -0.0056337197 0.93150002
-0.066351496 -0.002242259 0.93266678
-0.051693533 0.0025262409 0.93800002
-0.044707317 0.007963541 0.93491673
-0.14093335 0.018788602 0.93125004
-0.041853521 0.011335853 0.93208337
-0.036529463 0.016139714 0.93506247
-0.13278683 0.02692887 0.93125004
-0.03486979 0.024688676 0.93630558
-0.1315005 0.035861157 0.93416667
-0.12909366 0.037213232 0.93400007
-0.071989946 0.039307389 0.93525004
-0.064775042 0.037738957 0.93431252
-0.055376928 0.03533943 0.93383336
-0.045331556 0.033634089 0.93368763
-0.039322186 0.031173766 0.93650007
-0.13447385 0.045931466 0.93234384
-0.11226614 0.04861179 0.93334997
-0.10533374 0.047655549 0.93289292
-0.094166256 0.045280918 0.93200004
-0.08549086 0.043277003 0.93264294
-0.07790073 0.041229609 0.93250006
-0.14222716 0.055321157 0.93529171
-0.13526243 0.055604149 0.93426996
-0.12612921 0.056272976 0.93476564
-0.11828594 0.052712597 0.93737507
-0.14294247 0.062979363 0.93775004
-0.13583262 0.063011512 0.93822509
-0.12907736 0.062710568 0.9388333
-0.23595347 -0.013972133 0.94475007
-0.19105253 -0.016083382 0.94750005
-0.18223339 -0.013972133 0.94475007
-0.20669857 -0.007766075 0.94325006
-0.17144772 -0.0015805246 0.94225007
-0.08471857 -0.0077413749 0.94025004
-0.076737374 -0.0057047843 0.94325006
-0.065691993 -0.0026240104 0.94762504
-0.052168589 0.0015152732 0.94662505
-0.044868149 0.0061575975 0.94537508
-0.039710581 0.0087473765 0.94575006
-0.033932496 0.01338724 0.94195467
-0.027208999 0.016957192 0.94262505
-0.14154415 0.021220578 0.94900006
-0.13846716 0.024338044 0.94925004
-0.031951081 0.028569313 0.94058341
-0.025493998 0.025457932 0.9422608
-0.13489002 0.037691899 0.94600004
-0.063508943 0.0397592 0.94600004
-0.054607462 0.039337091 0.94575006
-0.04524821 0.038073242 0.94260424
-0.035455629 0.034882195 0.94261247
-0.026375385 0.033797696 0.9444108
-0.10359565 0.048938744 0.94362503
-0.095343992 0.047909092 0.94365007
-0.083952144 0.046559967 0.94552505
-0.074957713 0.045224901 0.94838244
-0.065234356 0.043490589 0.94845843
-0.055007767 0.042256981 0.94791675
-0.045881789 0.04178597 0.94508338
-0.12091529 0.05758949 0.94458342
-0.11399493 0.055434804 0.94610536
-0.10592748 0.053613883 0.94599998
-0.091636658 0.050201613 0.94800007
-0.085377529 0.05121522 0.94757497
-0.078252785 0.050261185 0.94912505
-0.14368495 0.067782395 0.94549996
-0.13447043 0.067459032 0.94305003
-0.12413263 0.065072872 0.94646585
-0.11512639 0.063283443 0.94861758
-0.10836547 0.060639821 0.94925004
-0.15220432 0.076662354 0.94645834
-0.14609194 0.074588023 0.94784725
-0.13480635 0.071251594 0.94783336
-0.12806991 0.071002483 0.94912505
-0.17208457 0.089350805 0.94575006
-0.15152119 0.081148088 0.94650006
-0.14845541 0.081169516 0.94675004
-0.17006116 0.091441721 0.94600004
-0.18132807 0.10584751 0.94541669
-0.17805322 0.10605168 0.94725001
-0.21960121 -0.022459831 0.95450002
-0.10489963 -0.012043056 0.95550007
-0.2019448 -0.0057456084 0.95000005
-0.043051578 0.0056777736 0.95100003
-0.037877727 0.0081082657 0.95166665
-0.14839336 0.017144825 0.95300007
-0.03165327 0.010888455 0.95225006
-0.024522034 0.014517372 0.95472723
-0.017859584 0.017913396 0.9570834
-0.13606639 0.029679289 0.95425004
-0.02126278 0.022356911 0.95325005
-0.015230482 0.025744155 0.95651048
-0.0088105537 0.02669403 0.95937502
-0.037861142 0.039979849 0.95125002
-0.022686087 0.03665306 0.95479172
-0.016213378 0.033991821 0.9582116
-0.14141287 0.04640362 0.95512509
-0.071072303 0.048244175 0.95025003
-0.064356923 0.047691941 0.95475006
-0.054447234 0.045349732 0.95481253
-0.044993084 0.043984994 0.95541668
-0.033732146 0.04001838 0.95216674
-0.02868426 0.04024253 0.95750004
-0.14592534 0.054488271 0.95050007
-0.10277356 0.055883944 0.95517308
-0.09565179 0.054570891 0.95588899
-0.086129628 0.054798786 0.9559167
-0.074844778 0.050931592 0.95193756
-0.11508238 0.067670926 0.95331252
-0.1059346 0.06249465 0.95781255
-0.14200005 0.077869669 0.95381254
-0.13531634 0.076494098 0.95450008
-0.12628253 0.073136628 0.95324999
-0.15458868 0.084495336 0.95838898
-0.14515916 0.08512304 0.95835304
-0.13624449 0.082172394 0.95845002
-0.17493249 0.097305492 0.95281255
-0.1760594 0.10312593 0.95272505
-0.24205063 -0.014208761 0.96075004
-0.23583476 -0.012222662 0.96975005
-0.21933681 -0.010027925 0.96250004
-0.18369526 -0.014245734 0.96325004
-0.092965767 -0.010020111 0.96175003
-0.19080415 -0.0037361982 0.96725005
-0.17705315 -0.0016128145 0.96150005
-0.076198474 -0.0058212085 0.96250004
-0.061303992 -0.0016102983 0.96000004
-0.16152234 0.0089647314 0.96925002
-0.045778781 0.00365631 0.96487504
-0.036405291 0.0078948718 0.967875
-0.15724231 0.013197544 0.96900004
-0.023530673 0.012035687 0.96075004
-0.01102098 0.021673387 0.96925002
-0.0070999376 0.027540289 0.96475005
-0.013024774 0.037080247 0.96074998
-0.0065556853 0.033662125 0.96522737
-0.13985446 0.040599775 0.96600002
-0.056519881 0.048137192 0.96191669
-0.042659163 0.046924971 0.96578127
-0.035162054 0.045767739 0.96637505
-0.025225131 0.042939059 0.96375
-0.015466738 0.042448569 0.96342856
-0.0089058345 0.040757384 0.96975005
-0.14630584 0.051194523 0.96675003
-0.090815201 0.057205152 0.96125007
-0.084744312 0.056523394 0.96395004
-0.074148752 0.053119689 0.96335012
-0.064899661 0.051682677 0.96453571
-0.059759527 0.051313672 0.96900004
-0.1140164 0.068804532 0.96187508
-0.10548836 0.064531475 0.96087503
-0.09971448 0.06170984 0.96600002
-0.12509045 0.075129353 0.96212506
-0.17365709 0.089152932 0.96600008
-0.160335 0.087744996 0.96212506
-0.15547641 0.088244103 0.96070004
-0.14230067 0.088703014 0.96112502
-0.13535692 0.083706878 0.96412504
-0.17464516 0.094393656 0.96562505
-0.1626702 0.096357107 0.96766669
-0.15425543 0.095345952 0.96565789
-0.14695223 0.092192069 0.96307153
-0.21315117 0.10993008 0.96308345
-0.20383421 0.10720203 0.96611369
-0.19512171 0.10596314 0.96327633
-0.189 0.10717987 0.96267861
-0.15732343 0.10077563 0.96950006
-0.22098896 0.11704864 0.96975005
-0.21401966 0.11509114 0.96224993
-0.204502 0.11437821 0.96203268
-0.19429907 0.115256 0.96361256
-0.18601406 0.11541905 0.96750015
-0.21263231 0.12305797 0.96247727
-0.20456721 0.12450367 0.9631772
-0.19579676 0.12376992 0.96672058
-0.1883236 0.12189946 0.96900004
-0.24770954 -0.01441581 0.97475004
-0.22613508 -0.010192018 0.97825003
-0.20656827 -0.018618586 0.97175002
-0.21573307 -0.0080254246 0.97475004
-0.068429947 -0.0037535802 0.97175002
-0.059852034 -0.001627911 0.97050005
-0.17048365 0.00049369165 0.97200006
-0.053649954 0.00049445353 0.97350007
-0.047274996 0.0026225236 0.97375005
-0.031241097 0.0089890109 0.97187507
-0.013197463 0.018933391 0.9735834
-0.0057732062 0.025078915 0.97812504
-0.13877559 0.03452393 0.97325009
-0.002372331 0.035753202 0.97295839
0.0021386617 0.035493698 0.9765501
-0.053529818 0.049314577 0.97133332
-0.047134485 0.049289193 0.97083336
-0.031253561 0.049361117 0.9722501
-0.024945149 0.048434429 0.97496879
-0.015588554 0.047854342 0.97522229
-0.0055886898 0.043372866 0.97689581
-0.096131749 0.059999861 0.97250003
-0.083842181 0.058201965 0.97800004
-0.077069707 0.055811543 0.9735834
-0.067254558 0.053493269 0.97012508
-0.055163667 0.052599847 0.97102791
-0.045036685 0.052502822 0.97139996
-0.035196077 0.051909383 0.97354174
-0.02823868 0.051803507 0.97825003
-0.11141922 0.068747245 0.97600007
-0.10501627 0.065548226 0.97600007
-0.093675584 0.060663089 0.97462505
-0.087038137 0.060331482 0.97787505
-0.12518293 0.076145709 0.97512507
-0.11760981 0.071816713 0.97425008
-0.17558904 0.088010564 0.97675008
-0.16318014 0.085529879 0.97281253
-0.15997823 0.08127287 0.97275007
-0.13760632 0.086566105 0.97250009
-0.17518456 0.098455735 0.97450006
-0.15041594 0.098986156 0.97975004
-0.14469247 0.093398012 0.9772501
-0.21364231 0.10850859 0.97300005
-0.20516422 0.10438332 0.97518754
-0.19794291 0.10077886 0.9763751
-0.17345352 0.10534748 0.97301573
-0.16517879 0.10491301 0.97303951
-0.15892333 0.10409842 0.9715001
-0.2214637 0.11588603 0.97183341
-0.21943235 0.1109764 0.97225004
-0.18157904 0.11681113 0.97070837
-0.17510413 0.11488936 0.97252184
-0.16725542 0.11257603 0.97383332
-0.22109067 0.12299337 0.97487503
-0.21693836 0.12731889 0.97537506
-0.19433367 0.12813587 0.97079164
-0.18475305 0.12546128 0.97379178
-0.17750137 0.12261228 0.97750014
-0.23282817 -0.010298809 0.98850006
-0.17783615 -0.012468439 0.98925006
-0.21046525 -0.0059270482 0.98000002
-0.18292911 -0.0016467817 0.98175007
-0.086200848 -0.0080727665 0.98050004
-0.076017998 -0.0059724087 0.98750007
-0.058711056 -0.001655588 0.98700005
-0.17143233 0.0026656152 0.98975003
-0.16818546 0.0059099765 0.98975003
-0.02843353 0.009110406 0.98500007
-0.024008824 0.011208619 0.98025006
-0.017743306 0.015639111 0.98950005
-0.0015076674 0.027390793 0.98450005
0.001725467 0.028490383 0.98525006
0.0054856599 0.035408277 0.98297924
-0.012233315 0.049837083 0.98162502
-0.0034708197 0.047916394 0.98254174
0.0047408333 0.044399109 0.98470002
-0.081870392 0.058320984 0.98000002
-0.075510606 0.05751913 0.98095006
-0.065189481 0.056583531 0.98705006
-0.054426242 0.056615062 0.98760003
-0.045855392 0.056700096 0.98908335
-0.033730008 0.054175638 0.98250002
-0.025239028 0.053323437 0.98658329
0.0028080279 0.050084591 0.98650002
-0.10214025 0.065373428 0.98950005
-0.094197989 0.063205741 0.98941666
-0.085077129 0.063344881 0.98480004
-0.079080157 0.061228961 0.98083335
-0.12613533 0.077797502 0.98262501
-0.11945245 0.074022874 0.98950005
-0.16313244 0.081251413 0.98537505
-0.13483807 0.085382506 0.98331255
-0.14196 0.092263691 0.98800004
-0.22032341 0.10820901 0.98575002
-0.21428303 0.10680629 0.98275006
-0.20379788 0.10210778 0.98925006
-0.16145837 0.10991534 0.98175007
-0.15598226 0.10447945 0.98106253
-0.22563533 0.11474284 0.98635006
-0.17026317 0.11864792 0.98300004
-0.16589393 0.11430386 0.98258334
-0.21727179 -0.021163726 0.99150002
-0.19880335 -0.016919378 0.99675006
-0.18710274 -0.014678319 0.99250007
-0.18790394 -0.0016719426 0.99675006
-0.043744184 0.0037492351 0.99025005
-0.037266545 0.0069984952 0.99075007
-0.02008337 0.013595923 0.99825007
-0.013425427 0.017814966 0.99025005
-0.0047794506 0.023520781 0.99365008
0.0039077643 0.028692801 0.99225003
0.0071592666 0.031926192 0.99162507
0.010427504 0.037400261 0.99316669
0.0083081052 0.048560385 0.99950004
0.010462501 0.044064593 0.99650002
-0.074157521 0.059005365 0.99150002
-0.04160006 0.056795638 0.99075007
-0.035235483 0.057024937 0.99475002
-0.024442101 0.056334455 0.99790013
-0.014893238 0.052911129 0.99229175
-0.0056058853 0.053544343 0.99565637
-0.11096431 0.069803812 0.99100006
-0.1065759 0.067604043 0.99050003
-0.093164377 0.06553252 0.99187505
-0.085093483 0.067313366 0.99260008
-0.077507719 0.062333949 0.99275005
-0.16125855 0.076512456 0.99375004
-0.12648547 0.078684106 0.99375004
-0.11526983 0.071951292 0.99075007
-0.092123814 0.074314125 0.99820846
-0.088144697 0.072638094 0.99640632
-0.18054549 0.089407198 0.99225003
-0.17590958 0.088900171 0.99466676
-0.16782071 0.083048292 0.99400002
-0.12937085 0.081303261 0.99925005
-0.17602783 0.097981833 0.99125004
-0.1466327 0.096813619 0.99037504
-0.21414356 0.10546777 0.9937501
-0.20838782 0.10440134 0.99050003
-0.17377229 0.10118006 0.99075007
-0.16948153 0.10012276 0.99100006
-0.15451446 0.1045927 0.99230003
-0.1958275 -0.0027792794 1.003875
-0.068778157 -0.0038936031 1.008
-0.17780365 0.00050854811 1.00125
-0.026839616 0.009304638 1.006
0.003945177 0.027856786 1.0011251
0.00833512 0.031187747 1.00275
0.012185013 0.036699466 1.0037501
0.012692579 0.043142423 1.0005
-0.020886861 0.058166396 1.0019166
-0.014973398 0.057619009 1.0016136
-0.0040831813 0.055933725 1.0011667
0.0039395625 0.052248914 1.0004168
-0.1039335 0.06762138 1.006875
-0.097363949 0.067646697 1.0072501
-0.021418888 0.061194748 1.00975
-0.015812064 0.061958726 1.00425
-0.12339862 0.077301644 1.0040001
-0.11491828 0.073106304 1.0066668
-0.094475836 0.076933265 1.0028751
-0.085728198 0.072623052 1
-0.13405512 0.085871927 1.0015835
-0.101757 0.087446339 1.0071251
-0.095848843 0.084600359 1.0043283
-0.14424056 0.095939524 1.003875
-0.13863055 0.090375833 1.003
-0.17128181 -0.012786687 1.0145
-0.16507196 -0.015044353 1.0172501
-0.14529908 -0.017297061 1.0190001
-0.19563928 -0.001701297 1.01425
-0.075877771 -0.0061357045 1.0145
-0.022623418 0.01159739 1.01425
-0.013794325 0.017193701 1.0175
-0.0026528372 0.023723356 1.0115
0.0039835763 0.027039012 1.0115
0.01505914 0.038128864 1.0125
0.01371753 0.044721536 1.0115001
-0.003768767 0.058257449 1.0162501
0.0054554907 0.0535332 1.0109167
-0.081534743 0.068225808 1.0158751
-0.074789435 0.06205434 1.01475
-0.064786375 0.060377099 1.0145501
-0.054737829 0.060303453 1.0133126
-0.044668652 0.060174763 1.0111501
-0.03476388 0.060258821 1.0125625
-0.027013764 0.060255099 1.0125
-0.013811491 0.063959301 1.018625
-0.0082177827 0.060478266 1.01625
-0.085596472 0.073447227 1.0113751
-0.12800238 0.081426501 1.0143751
-0.088948205 0.080109335 1.0117501
-0.058457635 -0.0017113613 1.0202501
-0.18471229 0.00052188081 1.0275
-0.053981863 0.00051807152 1.0200001
-0.0429122 0.0038691633 1.0220001
-0.0071593239 0.020644765 1.0232501
0.0073765414 0.028432773 1.0218751
0.012994751 0.034088749 1.0239167
0.016084459 0.045161113 1.0214001
0.0062827789 0.055771556 1.0250001
0.010738106 0.051925 1.02275
-0.10323468 0.069736935 1.0217501
-0.022900343 0.064084172 1.0265833
-0.014799518 0.066420197 1.02565
-0.0093948627 0.063115537 1.023
-0.11456534 0.074305125 1.0231667
-0.098789722 0.074220397 1.022
-0.086369991 0.076342478 1.0205001
-0.19210584 -0.015247704 1.031
-0.2048088 -0.0028614402 1.0325
-0.18219124 0.0027975829 1.0387501
-0.0027072576 0.02308213 1.03225
0.001807778 0.025337912 1.03225
0.01768291 0.03903266 1.0365001
0.019377824 0.044680431 1.0361876
0.0018038377 0.059045684 1.0300001
0.014252233 0.051378235 1.03425
-0.16547795 -0.017789325 1.0480001
-0.23635951 -0.0086223399 1.04725
-0.036862303 0.0073499205 1.0405
-0.025515117 0.0096352948 1.0417501
-0.016417682 0.015341366 1.04275
-0.0095762396 0.018759459 1.04275
0.02005077 0.048336543 1.0417501
-0.22985585 -0.022615198 1.0595001
-0.26105762 -0.013290846 1.0545001
-0.25438005 -0.010996857 1.0555
-0.20900181 -0.017984532 1.0595001
-0.18699351 -0.01327194 1.0530001
-0.23020074 -0.0063534328 1.0505
-0.21639448 -0.0040790127 1.056
-0.2083607 -0.0017717476 1.0562501
-0.19146284 0.00053445168 1.05225
-0.0027684025 0.022400662 1.053375
0.0064377175 0.02694374 1.0508751
0.014513035 0.033905327 1.0530624
-0.24121195 -0.025148187 1.06875
-0.19675641 -0.015802301 1.0685
-0.18282112 -0.013473601 1.069
-0.17486183 -0.015724657 1.0632501
-0.22334193 -0.0041219853 1.0671251
-0.058706332 -0.0017868441 1.06525
-0.18699294 0.0040360787 1.0661252
-0.054046955 0.00054105453 1.06525
-0.044570744 0.0028588537 1.0615001
-0.021441372 0.012186264 1.06575
-0.014449026 0.015679751 1.06575
0.004188586 0.024945743 1.0636251
-0.24474569 -0.008842581 1.074
-0.090182744 -0.0088878646 1.0795001
-0.075577505 -0.0064910254 1.0732501
-0.068472087 -0.0041417815 1.07225
-0.19730884 0.000544229 1.0715001
-0.18330897 0.0087988116 1.07875
-0.040491987 0.005251735 1.0765001
-0.035775091 0.0076024528 1.0762501
-0.17628151 0.015876498 1.0790626
-0.28193322 -0.015994562 1.0815001
-0.27204266 -0.013728832 1.0892501
-0.26440972 -0.011327648 1.08725
-0.09791854 -0.011322439 1.08675
-0.23935913 -0.0065409215 1.0815001
-0.2297388 -0.0041746148 1.0807501
-0.2155074 -0.0018124243 1.0805
-0.067129247 -0.0042045503 1.0885
-0.20521696 0.0005529059 1.0885834
-0.1929425 0.0041133524 1.0865
-0.19587266 -0.01501488 1.0962501
-0.18582445 -0.01497421 1.0935001
-0.25117823 -0.0089887222 1.09175
-0.23537748 -0.0042335209 1.0960001
-0.074970238 -0.0066452492 1.09875
-0.21151581 0.00055381586 1.0903751
-0.2379009 -0.023645101 1.1077501
-0.27212453 -0.011554253 1.1090001
-0.17697483 -0.01876536 1.1055001
-0.11124186 -0.013876928 1.1010001
-0.097014412 -0.01149695 1.1035
-0.2584936 -0.009120455 1.1077501
-0.24636216 -0.0066664177 1.1022501
-0.28009346 -0.01401242 1.11175
-0.18753207 -0.016427146 1.1107501
