# .PCD v0.7 - Point Cloud Data file format
VERSION 0.7
FIELDS x y z
SIZE 4 4 4
TYPE F F F
COUNT 1 1 1
WIDTH 430
HEIGHT 1
VIEWPOINT 0 0 0 1 0 0 0
POINTS 430
DATA ascii
-0.062756658 0.018556582 0.91975003
-0.062746607 0.024582453 0.91960019
-0.058152143 0.02487066 0.91964293
-0.062609442 0.034346808 0.91969651
-0.0579754 0.035387244 0.91968757
-0.061739363 0.04467731 0.91957504
-0.057014685 0.045136426 0.91948092
-0.060739677 0.052720904 0.91966671
-0.05711823 0.053322852 0.91965008
-0.084743842 -0.061464544 0.92925006
-0.079662934 -0.060448926 0.92925006
-0.09185648 -0.051311065 0.92925
-0.085671976 -0.05430112 0.92828006
-0.076392181 -0.053460248 0.92851317
-0.069520339 -0.050308976 0.92950004
-0.091727972 -0.044143148 0.92795002
-0.085715652 -0.044262763 0.92692715
-0.075144224 -0.044446796 0.92693484
-0.067757331 -0.043720227 0.92892319
-0.091695853 -0.035003215 0.92762506
-0.08529295 -0.03519316 0.92626202
-0.075568825 -0.035384119 0.92550015
-0.065786503 -0.034788091 0.92784721
-0.05934035 -0.032019172 0.92925006
-0.091752686 -0.025897894 0.92820007
-0.085473545 -0.025840715 0.92612016
-0.075174466 -0.025783034 0.92403007
-0.065149061 -0.025816748 0.92520005
-0.0582233 -0.025884788 0.92764997
-0.085332319 -0.015695404 0.92459989
-0.075090602 -0.015667679 0.92300016
-0.065005973 -0.015671102 0.92315012
-0.057075761 -0.014989025 0.92550009
-0.085214712 -0.0057621249 0.92514592
-0.075088613 -0.0055822837 0.92297012
-0.064952239 -0.0055790483 0.92237014
-0.055342872 -0.0053285719 0.92451078
-0.084548853 0.0045230621 0.92707503
-0.07503774 0.0044986303 0.92233008
-0.064908005 0.0044961493 0.92174989
-0.054981232 0.0045098825 0.92434996
-0.049059983 0.0075610653 0.92700005
-0.083406627 0.013907219 0.92566079
-0.074988388 0.014567997 0.92171997
-0.065103002 0.014000678 0.92061371
-0.054910593 0.014588106 0.92319006
-0.048468936 0.015515007 0.92678583
-0.081251219 0.024702724 0.92420006
-0.074989282 0.024638969 0.92173004
-0.067813143 0.024596414 0.92012501
-0.053450767 0.024512239 0.92118061
-0.046530031 0.025347915 0.92460936
-0.081436947 0.033876732 0.92631257
-0.075050049 0.034740791 0.92246002
-0.067548029 0.03502094 0.92025
-0.053242259 0.034327894 0.9209854
-0.045902502 0.034822423 0.92470008
-0.07455603 0.044790499 0.92585725
-0.066885009 0.044756491 0.92118347
-0.05226393 0.04424116 0.92095834
-0.045901813 0.04492633 0.92470014
-0.07401713 0.054793321 0.92638898
-0.065449156 0.055118684 0.92156827
-0.053155176 0.055730842 0.92070001
-0.045280907 0.055345166 0.92555451
-0.073024578 0.064780682 0.92632699
-0.064983256 0.06499894 0.92276001
-0.054835372 0.064936735 0.92187011
-0.044923667 0.065183185 0.92540008
-0.038981032 0.068434864 0.92837507
-0.071770772 0.073808238 0.92704999
-0.065170623 0.075300209 0.92544013
-0.054998163 0.07523074 0.92458999
-0.044950284 0.075336002 0.92590004
-0.038914897 0.075408645 0.92680007
-0.06423749 0.085053854 0.92735529
-0.055107404 0.08550103 0.92641997
-0.045016289 0.08557792 0.92725009
-0.03864048 0.086355366 0.92833334
-0.062953196 0.095233604 0.92719239
-0.055134431 0.095671542 0.92689013
-0.045564752 0.09517166 0.92859542
-0.038353983 0.092563547 0.92958337
-0.061207499 0.10173239 0.92675006
-0.055212256 0.10361029 0.92821157
-0.049179062 0.10200682 0.92925006
-0.091296889 -0.082148887 0.93741673
-0.084467389 -0.083775401 0.93745315
-0.077175878 -0.082371883 0.93606257
-0.092808105 -0.074489847 0.935
-0.08453019 -0.075331338 0.9342066
-0.075547092 -0.074513257 0.93340474
-0.069856912 -0.071983844 0.93400002
-0.093697786 -0.06506978 0.93210298
-0.085916333 -0.065850466 0.93094999
-0.075641461 -0.064865433 0.93189579
-0.068820633 -0.064827338 0.93380004
-0.093943372 -0.05682531 0.93228132
-0.072996043 -0.057149146 0.93062514
-0.067286521 -0.054541614 0.93238336
-0.063286223 -0.0442627 0.93050003
-0.059899107 -0.040519942 0.93800002
-0.061430402 -0.037130982 0.93012506
-0.058585122 -0.035224337 0.93345839
-0.055484027 -0.025008705 0.93275011
-0.092591673 -0.016916696 0.93668753
-0.053873181 -0.015832888 0.93320006
-0.089969218 -0.0015612346 0.93075007
-0.05138354 -0.0086973496 0.93237507
-0.04954071 -0.0036163565 0.93608338
-0.09023504 0.0014957683 0.93350005
-0.048465565 0.0045629442 0.93512505
-0.087154582 0.015772833 0.93331254
-0.046807379 0.014231022 0.93262506
-0.083939187 0.024902284 0.93160009
-0.044158012 0.022839781 0.93050003
-0.083267055 0.034403015 0.93166667
-0.041502826 0.039486013 0.93950003
-0.081057541 0.04536533 0.93362504
-0.07978081 0.044197671 0.93062508
-0.041410055 0.045539774 0.93740004
-0.080455914 0.05277545 0.93850005
-0.07771422 0.057393186 0.93025005
-0.041171513 0.052407749 0.93200004
-0.039400913 0.058918834 0.93837506
-0.075781457 0.067648374 0.93150002
-0.039220717 0.063749827 0.9340834
-0.073178291 0.076582268 0.93291664
-0.070822097 0.085860439 0.93775004
-0.068613663 0.085924394 0.93100005
-0.037347045 0.086597919 0.93833333
-0.070174783 0.090692595 0.93825006
-0.06760408 0.094644949 0.93675005
-0.041094203 0.098050833 0.93025005
-0.037836991 0.096419588 0.93019998
-0.06407509 0.10308698 0.93908334
-0.052852593 0.10783048 0.93131256
-0.045129068 0.10451277 0.93165004
-0.039091252 0.10016441 0.93100005
-0.052284479 0.11336053 0.93633336
-0.046850115 0.114791 0.9368751
-0.09345638 -0.083535589 0.94541669
-0.086242534 -0.088031821 0.9419167
-0.078674942 -0.085958228 0.94175005
-0.097688712 -0.077073969 0.94637501
-0.066695869 -0.062646732 0.94712508
-0.095805109 -0.053011972 0.94141674
-0.064547755 -0.053269334 0.94600004
-0.095318414 -0.04487263 0.94340003
-0.061314523 -0.045937829 0.94400001
-0.095732659 -0.037823364 0.94750005
-0.05645065 -0.030625841 0.94900006
-0.054289252 -0.02022454 0.94750005
-0.093042679 -0.01186345 0.94125003
-0.053100247 -0.016039979 0.94475007
-0.093289815 -0.0077683707 0.94375008
-0.091169447 0.0066643772 0.94316673
-0.047857113 0.0015078227 0.94325006
-0.089327201 0.017009897 0.94550002
-0.045921676 0.015981354 0.94587505
-0.087420911 0.02325275 0.94725007
-0.043766133 0.023171702 0.94400007
-0.084876247 0.035473965 0.94200003
-0.04165744 0.034475379 0.94300002
-0.083387561 0.047119495 0.94850004
-0.080713108 0.056029804 0.94150007
-0.039668594 0.056223217 0.94475007
-0.078988217 0.062469024 0.94550008
-0.075983599 0.073930122 0.94241673
-0.037566613 0.074725099 0.94385004
-0.073585048 0.082863703 0.9425
-0.037428305 0.081650048 0.94037509
-0.070838571 0.094655514 0.94712508
-0.064481057 0.10368973 0.94475007
-0.058017313 0.1094367 0.94075006
-0.04165744 0.10763769 0.94300002
-0.038538799 0.10241832 0.94237506
-0.054996207 0.1136855 0.94187504
-0.043708179 0.11791015 0.94275004
-0.051153444 0.12154648 0.94700003
-0.045895383 0.12167656 0.94533342
-0.090342827 -0.091461115 0.95625007
-0.087217398 -0.091473073 0.95637506
-0.093442984 -0.088292062 0.95587504
-0.10107166 -0.072849907 0.9588334
-0.069629416 -0.072862752 0.95900005
-0.10114194 -0.068707138 0.95950007
-0.098604828 -0.052746173 0.95525002
-0.065264195 -0.055950835 0.95650005
-0.096229427 -0.032815058 0.95241672
-0.058834456 -0.039126333 0.95400006
-0.096658833 -0.026690215 0.95666671
-0.054890875 -0.023588952 0.95800006
-0.094463654 -0.0026469904 0.95562506
-0.050475687 -0.0078525255 0.95375007
-0.048389845 -0.0026419333 0.95375007
-0.092482455 0.010939909 0.95675004
-0.046188701 0.011917563 0.95137501
-0.088020787 0.028622165 0.95375001
-0.085889898 0.037980765 0.95325005
-0.086475566 0.040337097 0.95975006
-0.040287923 0.0487138 0.95950007
-0.082853153 0.054689039 0.95425004
-0.040088475 0.051600635 0.95475006
-0.039899528 0.054473937 0.95025003
-0.079740092 0.06827604 0.95450008
-0.038099952 0.068470836 0.95725006
-0.077855989 0.075774282 0.95700002
-0.074631065 0.086124972 0.95587504
-0.073804818 0.090578996 0.95875007
-0.035985298 0.095609888 0.95668757
-0.06602224 0.10558785 0.95237505
-0.040035989 0.10675251 0.95350003
-0.037063427 0.10301657 0.95750004
-0.060920842 0.11097806 0.95400006
-0.056771338 0.11623446 0.95437503
-0.042143371 0.11097806 0.95400006
-0.052716762 0.12382206 0.95658344
-0.048592791 0.12606514 0.95775002
-0.093714915 -0.092728421 0.96950006
-0.087354064 -0.094847076 0.96950006
-0.10142523 -0.063637629 0.96218759
-0.10209063 -0.058769248 0.96850002
-0.099740289 -0.050186507 0.96625006
-0.064647242 -0.055274524 0.96287507
-0.061463639 -0.047888376 0.96250004
-0.059697855 -0.041815892 0.96800005
-0.057342913 -0.033216551 0.96400005
-0.097399771 -0.021629505 0.96400005
-0.052032039 -0.013194054 0.96325004
-0.095736347 0.00049191393 0.96850002
-0.04675309 0.0089069251 0.96300006
-0.092109345 0.016272884 0.96375
-0.044577476 0.02150009 0.96150005
-0.042618256 0.030005863 0.96475005
-0.086745866 0.042567085 0.96275002
-0.040524103 0.045833141 0.96512502
-0.085035972 0.053334739 0.96725005
-0.082984902 0.061837606 0.96800005
-0.038468119 0.063847147 0.96650004
-0.080993213 0.072526708 0.96950006
-0.078669541 0.078679264 0.96700007
-0.036476638 0.089499027 0.96975005
-0.073290378 0.096508279 0.96575004
-0.036194533 0.09090966 0.96225005
-0.04042438 0.10989203 0.96275002
-0.042463642 0.11602379 0.96125007
-0.053415369 0.12757921 0.96925002
-0.045047257 0.12628691 0.96652794
-0.11157143 -0.17250109 0.97733337
-0.10754789 -0.17220846 0.97718757
-0.11176169 -0.16744608 0.97900003
-0.10633783 -0.16733414 0.97834373
-0.10433482 -0.15149793 0.97962511
-0.10335126 -0.14537051 0.97775
-0.098732203 -0.14364874 0.97718751
-0.10150536 -0.13535795 0.97645837
-0.09761925 -0.13611074 0.97675002
-0.093491286 -0.11066753 0.97825009
-0.093513399 -0.10564747 0.97590387
-0.089878105 -0.10272452 0.97387505
-0.092794277 -0.097112864 0.97095841
-0.089597397 -0.097100355 0.97083336
-0.10322381 -0.078681231 0.97925007
-0.068605997 -0.067634307 0.97425002
-0.10074673 -0.048560057 0.97600007
-0.055707362 -0.027126828 0.97225004
-0.049328469 -0.0058801766 0.97225004
-0.047359955 0.0058246143 0.97550005
-0.092185102 0.021818733 0.97575003
-0.089635849 0.032330506 0.97125006
-0.087827094 0.045227785 0.97475004
-0.040797032 0.041897431 0.97162509
-0.086068973 0.056122057 0.97900003
-0.036852784 0.07971666 0.97975004
-0.078287452 0.084679998 0.97537506
-0.036620043 0.084526658 0.9735626
-0.075209707 0.096573271 0.97700006
-0.071710154 0.10468255 0.97300005
-0.06850037 0.10890771 0.97275007
-0.03772644 0.10698915 0.97462505
-0.064256407 0.1131788 0.97291678
-0.059959959 0.11735039 0.97225004
-0.041085701 0.11382812 0.97850007
-0.057195421 0.1246006 0.97350001
-0.11004055 -0.16164519 0.98275006
-0.10528213 -0.16245778 0.98247498
-0.11006853 -0.15846434 0.98300004
-0.10426355 -0.15611187 0.98170453
-0.10281816 -0.13196398 0.98562503
-0.098331213 -0.13172762 0.98387504
-0.10180477 -0.12558106 0.98625004
-0.097238176 -0.12425707 0.98642182
-0.096004203 -0.11511617 0.98362505
-0.088435285 -0.098165922 0.98150003
-0.067072354 -0.061797276 0.98300004
-0.10398804 -0.057705693 0.98650002
-0.10193381 -0.046974238 0.98750007
-0.099268965 -0.018824555 0.98250008
-0.05216923 -0.012424325 0.98575002
-0.047809038 -0.0016518139 0.98475003
-0.097169675 0.0026474358 0.98300004
-0.04774835 0.0015733382 0.98350006
-0.095019862 0.015536378 0.98300004
-0.045713354 0.01989322 0.98600006
-0.043523852 0.028490383 0.98525006
-0.041421607 0.039305557 0.98650002
-0.084463716 0.065092646 0.98525006
-0.03915469 0.060693949 0.98375005
-0.082204558 0.075761773 0.98400003
-0.080520347 0.084856115 0.98975003
-0.076999962 0.095333435 0.98625004
-0.037116088 0.10831878 0.98675007
-0.039244246 0.11254588 0.98600006
-0.096252322 -0.13223146 0.99575007
-0.1023725 -0.12086388 0.99175006
-0.10032985 -0.11016616 0.99300003
-0.091666214 -0.11670557 0.99325007
-0.1003046 -0.10796896 0.99275005
-0.097873986 -0.1022743 0.99012506
-0.08967419 -0.10280709 0.99525005
-0.098034613 -0.092689261 0.99175006
-0.064391471 -0.053657673 0.99137503
-0.061316729 -0.045122586 0.99425006
-0.058919247 -0.036294207 0.99050003
-0.057053849 -0.029958524 0.99575007
-0.10098659 -0.016966058 0.99950004
-0.054848604 -0.019068843 0.99525005
-0.050381247 -0.0081756823 0.99300003
-0.094074629 0.024441974 0.99575007
-0.091366269 0.035118103 0.99000007
-0.089246206 0.048123121 0.99050003
-0.087519571 0.059243407 0.99550003
-0.039582558 0.059183899 0.99450004
-0.083436787 0.079080001 0.99875003
-0.037355877 0.077546611 0.99312508
-0.074956939 0.10605518 0.99250001
-0.10376603 -0.12031233 1.0052501
-0.094594248 -0.12420966 1.00125
-0.090530157 -0.10707837 1.00475
-0.10622802 -0.056746483 1.00775
-0.10379184 -0.045633152 1.0055001
-0.048561554 -0.0038636674 1.0002501
-0.099418521 0.0049065794 1.0057501
-0.097170621 0.018084822 1.0052501
-0.042051435 0.037714623 1.0015
-0.040050223 0.057684187 1.00625
-0.085813932 0.068320692 1.001
-0.037774339 0.075126298 1.00425
-0.081435584 0.088008128 1.001
-0.079246409 0.09566462 1.001
-0.096105866 -0.12841755 1.0172501
-0.091678962 -0.11066071 1.0175
-0.10114322 -0.10453454 1.0120001
-0.10114181 -0.096396506 1.0156666
-0.086864829 -0.096913636 1.01325
-0.10247689 -0.014999985 1.01425
-0.047092635 0.018273721 1.0157501
-0.096247584 0.027232818 1.0187501
-0.044639286 0.027012283 1.0105001
-0.093304344 0.038072377 1.011
-0.091115825 0.051341143 1.01125
-0.040318884 0.054748107 1.013
-0.089102052 0.062529422 1.0135001
-0.087249875 0.072800614 1.01775
-0.0381881 0.07262069 1.01525
-0.084804781 0.083704509 1.015125
-0.10554665 -0.1201424 1.0225
-0.094481029 -0.12252648 1.0237501
-0.10780919 -0.084411405 1.02275
-0.10349989 -0.011791728 1.024375
-0.042880706 0.036226626 1.02125
-0.094942473 0.040988944 1.0287501
-0.092715137 0.054490991 1.029
-0.040856205 0.052115392 1.0265001
-0.090398803 0.065686487 1.0282501
-0.03849842 0.069856375 1.0235001
-0.104826 -0.0085420646 1.0375
-0.10191448 0.007282814 1.031
-0.099611364 0.020791039 1.0305001
-0.045666363 0.025374733 1.0337501
-0.098231584 0.030066356 1.0397501
-0.041333824 0.050455187 1.0385001
-0.09839692 -0.13375486 1.0415001
-0.093886472 -0.11560236 1.0420001
-0.105508 -0.10900596 1.04425
-0.048298061 0.016464926 1.0417501
-0.04375197 0.034685601 1.0420001
-0.09614224 0.043783456 1.0417501
-0.10895304 -0.12171326 1.0555
-0.10629104 -0.0063625053 1.052
-0.10379264 0.0097115999 1.0500001
-0.049063042 0.014413108 1.0582501
-0.10181045 0.02355171 1.0532501
-0.046472564 0.023523759 1.052
-0.10002662 0.035243165 1.05875
-0.099955775 0.032906145 1.0580001
-0.044455275 0.032929469 1.05875
-0.056508955 -0.018124571 1.0677501
-0.10762978 -0.0041147429 1.06525
-0.051826499 -0.0087890644 1.0675
-0.049486093 -0.0029565431 1.0673749
-0.049549848 0.0028794722 1.06875
-0.1052136 0.01333613 1.064375
-0.047079973 0.02150223 1.06575
-0.061780881 -0.037153263 1.0782501
-0.059326325 -0.025330549 1.0765001
-0.10836231 -0.0017990053 1.0725001
-0.10904431 0.00054816535 1.0792501
-0.049613595 0.0087285992 1.0701251
-0.1064863 0.01820334 1.07725
-0.048653387 0.015829163 1.0748751
-0.064406686 -0.044406746 1.0827501
-0.054909471 -0.013640603 1.08225
-0.072303109 -0.066430189 1.09475
-0.067514695 -0.054468364 1.09475
-0.050535046 -0.0065923291 1.09
-0.070866778 -0.062490109 1.10975
-0.06077297 -0.028358072 1.1027501
-0.058546502 -0.021195587 1.10625
-0.063857913 -0.040837854 1.1145
-0.061682291 -0.031228287 1.1192501
-0.078992836 -0.085228138 1.12175
-0.066786051 -0.048500817 1.12275
-0.076206975 -0.075069778 1.135125
-0.070166565 -0.059094124 1.13775
-0.073724434 -0.067532919 1.1545
-0.081703983 -0.090688795 1.1602501
-0.079541802 -0.083476126 1.16575
-0.076827221 -0.075670935 1.1632501
