# .PCD v0.7 - Point Cloud Data file format
VERSION 0.7
FIELDS x y z
SIZE 4 4 4
TYPE F F F
COUNT 1 1 1
WIDTH 624
HEIGHT 1
VIEWPOINT 0 0 0 1 0 0 0
POINTS 624
DATA ascii
-0.16233587 0.014381123 0.81930006
-0.15837432 0.013842173 0.81920016
-0.16064638 0.0094162691 0.82350004
-0.15755115 0.0094467616 0.82616669
-0.16200352 0.011185225 0.82125002
-0.15584095 0.013068987 0.82667857
-0.15586473 0.0095649166 0.83650005
-0.16381668 0.01821623 0.83506256
-0.15447265 0.012342284 0.83887506
-0.15302391 0.0087495483 0.84609377
-0.14798552 0.0090706702 0.84725004
-0.15382303 0.013727981 0.84542501
-0.14860316 0.011539339 0.84725004
-0.1114614 -0.010943362 0.86825001
-0.10777165 -0.011904454 0.86912501
-0.11394558 -0.0049166717 0.86734796
-0.1053909 -0.0047982223 0.86779767
-0.16969684 0.0098364856 0.86025006
-0.15118518 0.0061269943 0.86737502
-0.14679721 0.0082663465 0.86471432
-0.1126992 0.0045380555 0.86815792
-0.10513593 0.0047282246 0.86800921
-0.17157821 0.011716397 0.86025006
-0.15195949 0.014264137 0.86283332
-0.1479132 0.011779956 0.86491674
-0.1106708 0.011842378 0.86950004
-0.10780278 0.011840677 0.86937505
-0.11275232 -0.011927057 0.87087506
-0.10287904 -0.012088378 0.87257147
-0.097930729 -0.011835235 0.87805003
-0.12117777 -0.0028920635 0.87325001
-0.11650939 -0.0090694111 0.87050003
-0.1017988 -0.0076469956 0.870875
-0.097120494 -0.0050934316 0.87460536
-0.14508682 0.0080511691 0.87062502
-0.12135356 0.00044594778 0.87800002
-0.11704191 0.005884611 0.8724286
-0.10227582 0.0090070944 0.870875
-0.097276822 0.0027922245 0.87273085
-0.16429278 0.018535625 0.87150002
-0.15560594 0.015764063 0.87625003
-0.11360492 0.011850892 0.87012506
-0.1060827 0.011968361 0.87875003
-0.10360538 -0.014974731 0.88218749
-0.094991736 -0.01273499 0.88287503
-0.089847252 -0.011208045 0.88925004
-0.12395865 -0.005030252 0.8851667
-0.092248447 -0.0056830538 0.88179553
-0.08697173 -0.0050400351 0.88640285
-0.14336096 0.0072058723 0.88345838
-0.13958253 0.0072103362 0.88400006
-0.12324611 0.0041039879 0.88544446
-0.11980747 0.0052593914 0.88075006
-0.10045996 0.0081392461 0.88000005
-0.094359554 0.0043051159 0.88235009
-0.088890195 0.0010978574 0.88616663
-0.15101129 0.013955872 0.88300002
-0.14430298 0.010582599 0.88331258
-0.13958253 0.010108054 0.88400006
-0.12120316 0.010779175 0.88625002
-0.11499167 0.013636264 0.88316673
-0.10353778 0.012611131 0.88330013
-0.098348014 0.010753673 0.88408333
-0.11040121 -0.015247385 0.89825004
-0.094297528 -0.015659716 0.8912046
-0.085432269 -0.012244952 0.89402503
-0.082360893 -0.0063067349 0.8963182
-0.078991801 -0.0083796568 0.89850008
-0.14551811 0.0043748203 0.89675003
-0.13914797 0.0072870669 0.89362502
-0.12595858 0.0056599895 0.89249998
-0.094009303 0.006299946 0.89183336
-0.087126143 0.0014270516 0.89125001
-0.14690368 0.012165848 0.89325005
-0.13905065 0.010210964 0.89300007
-0.12426835 0.012244568 0.89908338
-0.11321485 0.016140737 0.89718753
-0.10486515 0.015650481 0.8970626
-0.097163677 0.01217603 0.89393753
-0.12176269 -0.011466426 0.90975004
-0.11778347 -0.01345451 0.90975004
-0.092641458 -0.018766021 0.90225005
-0.086358242 -0.01648658 0.90154994
-0.079123676 -0.011343538 0.90000004
-0.13109545 -0.0015188804 0.90550005
-0.12828402 -0.0064740395 0.90662503
-0.081677623 -0.0015205578 0.90650004
-0.078284718 -0.006254354 0.90395004
-0.160889 0.0063998345 0.90600002
-0.14135835 0.004397993 0.90150005
-0.13431318 0.0056185271 0.9042083
-0.12874676 0.0063795112 0.90291673
-0.093607962 0.0064066313 0.90683335
-0.085443616 0.0011185996 0.90441674
-0.16674116 0.018269079 0.90550005
-0.15798678 0.016204828 0.90075004
-0.14576638 0.012317368 0.90437508
-0.13878644 0.010336743 0.90400004
-0.12810688 0.011342136 0.905375
-0.1019832 0.016227316 0.90200007
-0.099767178 0.016348751 0.90875006
-0.091160662 -0.021462727 0.91212499
-0.084404722 -0.021520967 0.91460007
-0.078655623 -0.021589203 0.91750002
-0.10496923 -0.017617485 0.91950005
-0.082451299 -0.017532906 0.9151001
-0.076275356 -0.014948671 0.91756248
-0.080728129 -0.0015402671 0.91825002
-0.075738698 -0.0064586592 0.91754538
-0.13584289 0.0014687934 0.91750002
-0.091806285 0.0071317852 0.91525
-0.084259354 0.0051479461 0.91820246
-0.15511599 0.014520903 0.91875005
-0.14439845 0.012455268 0.91450006
-0.13877679 0.01048539 0.91700006
-0.1205301 0.016470186 0.91550004
-0.11216268 0.018411988 0.91258335
-0.10426123 0.018426448 0.91330004
-0.094005182 0.014709254 0.91409791
-0.086036257 0.013685928 0.91819119
-0.10039844 0.020449122 0.91450006
-0.094139166 0.021972274 0.91731834
-0.088203199 0.021229044 0.91941673
-0.13710691 0.11396657 0.91925007
-0.095714547 -0.021818625 0.92725003
-0.07612811 -0.021727446 0.92337501
-0.072279826 -0.016419133 0.92256248
-0.067893542 -0.013018294 0.9258334
-0.12774606 -0.0096294126 0.92425007
-0.073163949 -0.0043718745 0.92417496
-0.067918107 -0.0082989531 0.92616671
-0.07753399 0.0045310482 0.92811674
-0.13630898 0.010605452 0.92750007
-0.12802248 0.014639441 0.92625004
-0.11779854 0.018672591 0.92550004
-0.08222796 0.016318506 0.921
-0.0775197 0.01466438 0.92795008
-0.11017644 0.021800432 0.92950004
-0.10478146 0.024697557 0.9283089
-0.095888115 0.026741264 0.92467868
-0.084882297 0.024960842 0.92289287
-0.078140937 0.02208595 0.92729169
-0.11085405 0.038388465 0.92950004
-0.10425191 0.035681754 0.92954183
-0.095233925 0.032786563 0.9286347
-0.087424256 0.032461509 0.92775005
-0.12037283 0.049235176 0.92975003
-0.11467912 0.044834629 0.92854553
-0.10480996 0.045494087 0.92866671
-0.12023257 0.0532372 0.92866665
-0.11500265 0.053874161 0.92798334
-0.10676378 0.05196245 0.92856258
-0.11169618 0.069216438 0.92525005
-0.12323078 0.075403132 0.92678332
-0.11544219 0.075577237 0.92565221
-0.10962081 0.074236825 0.92481256
-0.12275911 0.081304207 0.92475003
-0.11685304 0.081419609 0.92606252
-0.13346301 0.10877588 0.92465001
-0.12922157 0.10897169 0.92516679
-0.14040366 0.11704808 0.92775005
-0.13387357 0.11568955 0.92283338
-0.12896048 0.11420625 0.92467868
-0.13032898 0.12015364 0.92825001
-0.16103986 0.15082465 0.92975003
-0.15423147 0.15316522 0.92931235
-0.073704705 -0.021906866 0.93100005
-0.11715051 -0.015896661 0.93650007
-0.07163012 -0.01986167 0.93050003
-0.066138387 -0.015379285 0.9328056
-0.13514921 -0.0036058319 0.93350005
-0.071668617 -0.0015616539 0.93100005
-0.065595128 -0.0050166151 0.93518758
-0.16871288 0.0066294093 0.93850005
-0.15518978 0.0045431289 0.93125004
-0.14172788 0.0025222013 0.93650007
-0.072682098 0.0045419936 0.93095005
-0.066091523 0.004395891 0.9362188
-0.16238223 0.016865974 0.93750006
-0.14492877 0.012676589 0.93075007
-0.12350743 0.017902948 0.93812501
-0.072459809 0.015097985 0.93168187
-0.068646342 0.01298903 0.93493754
-0.11289213 0.024920976 0.93231255
-0.10821635 0.027912781 0.93012506
-0.08096949 0.029006705 0.93262506
-0.07585685 0.023907194 0.93243766
-0.1145388 0.034856722 0.93107498
-0.10431078 0.034685474 0.93006271
-0.094502583 0.038219251 0.93086118
-0.086336836 0.036144748 0.93278134
-0.10006621 0.041119076 0.93000007
-0.094373696 0.045132145 0.93241668
-0.088465109 0.042426124 0.93637502
-0.1220163 0.059185188 0.93716669
-0.11421047 0.058993705 0.93546885
-0.10386305 0.056562636 0.93236846
-0.095935807 0.055231798 0.93407345
-0.12258259 0.066216581 0.93348086
-0.11491669 0.06563542 0.93430203
-0.10554683 0.064760536 0.93552792
-0.097770847 0.061921418 0.93725002
-0.11047277 0.079904929 0.93200004
-0.10828578 0.073968366 0.93425006
-0.12382135 0.085718542 0.93484098
-0.11436737 0.085668929 0.93344116
-0.10857993 0.080012098 0.93325007
-0.13064489 0.095027037 0.93050003
-0.12468842 0.094423778 0.93290621
-0.11577374 0.093602076 0.93496054
-0.1229763 0.10165224 0.93720007
-0.11919864 0.10075615 0.93650007
-0.12598656 0.11696462 0.93520004
-0.13489503 0.12768798 0.93742496
-0.12714151 0.12098423 0.93466669
-0.15396322 0.13754481 0.93617505
-0.14539649 0.13547386 0.93483329
-0.13526502 0.13522993 0.9343099
-0.12930961 0.13438931 0.93556255
-0.16200721 0.14593278 0.93533343
-0.15520774 0.14530261 0.93237501
-0.14520647 0.14516179 0.93254018
-0.13555707 0.14540316 0.93516678
-0.1639232 0.15224536 0.93850011
-0.14522827 0.15397042 0.9313159
-0.13820286 0.15316297 0.93575001
-0.082263827 -0.024365697 0.94750005
-0.074642509 -0.023668734 0.94720834
-0.067747921 -0.02022187 0.94737506
-0.063110001 -0.015478505 0.94660717
-0.058572356 -0.011970583 0.94975007
-0.060855679 -0.00492022 0.94090629
-0.057320695 -0.00525265 0.94436115
-0.14565668 0.0025551929 0.94875002
-0.060638566 0.0046079326 0.94310009
-0.058299974 0.0025494513 0.94533342
-0.066402331 0.01496244 0.94665629
-0.18232983 0.023202384 0.94525003
-0.17824244 0.021142313 0.94550002
-0.11766454 0.025502665 0.94296438
-0.074796773 0.025255581 0.94480002
-0.12133142 0.035597656 0.94512504
-0.11983503 0.033397671 0.94150007
-0.083337866 0.035588663 0.94503129
-0.12232295 0.044869211 0.94481254
-0.090960011 0.049830925 0.94100004
-0.087226599 0.043338049 0.94518757
-0.092065156 0.055349864 0.94390011
-0.10249752 0.067454532 0.94300008
-0.096665822 0.063050076 0.94656253
-0.13045853 0.077829182 0.94387507
-0.12841131 0.073713489 0.94400007
-0.13063131 0.08206439 0.94512504
-0.10975066 0.086029127 0.94331253
-0.13555725 0.098367117 0.94446427
-0.11047056 0.091780037 0.94950002
-0.14083569 0.10365123 0.94425005
-0.13436137 0.10493448 0.94228405
-0.12520787 0.1062485 0.94323444
-0.11811998 0.10158995 0.94425005
-0.144582 0.11881408 0.94175005
-0.12569411 0.11452359 0.94535005
-0.14425474 0.1255139 0.94432348
-0.13697827 0.12502074 0.94045001
-0.12192364 0.12086114 0.94975007
-0.15328844 0.13304256 0.94781256
-0.14624546 0.13069451 0.94581258
-0.1279428 0.13743052 0.94665003
-0.16487101 0.14632486 0.94000006
-0.13092501 0.14538875 0.94725007
-0.12809201 0.14297564 0.94775009
-0.16084497 0.15667908 0.94050002
-0.15845421 0.15943058 0.94462502
-0.14149205 0.15894535 0.94175005
-0.13515316 0.15553029 0.94259089
-0.15327026 0.1614735 0.94450003
-0.14464296 0.16107173 0.94215012
-0.1386604 0.16130254 0.94350004
-0.071184494 -0.02447499 0.95175004
-0.064440921 -0.02171142 0.95599997
-0.05749492 -0.020966845 0.95775002
-0.061707497 -0.017610351 0.95541668
-0.054812226 -0.015194495 0.95666671
-0.04868158 -0.013142146 0.95950007
-0.14082812 -0.0016073629 0.95825005
-0.053559095 -0.0069976836 0.95612502
-0.048694264 -0.0099992733 0.95975006
-0.14292379 0.00048670784 0.95825005
-0.060793124 0.0088051837 0.95200002
-0.057723314 0.0050240732 0.9586668
-0.17322178 0.019207247 0.95200002
-0.14723031 0.013061347 0.95900005
-0.063501 0.013517058 0.95350003
-0.07445474 0.026532434 0.95368755
-0.069484204 0.021399464 0.95700002
-0.081548952 0.035822302 0.95125002
-0.078781359 0.032360639 0.95133334
-0.088955782 0.047320999 0.95262504
-0.1254507 0.05774777 0.95287502
-0.090627 0.057279874 0.95375007
-0.089454949 0.052622646 0.95425004
-0.12869439 0.067179456 0.95375001
-0.1011515 0.068516664 0.95300007
-0.095436409 0.065175027 0.95490634
-0.13318005 0.077784806 0.95600009
-0.12980559 0.071385883 0.95425004
-0.10516001 0.0745667 0.95566177
-0.098837078 0.07162901 0.95750004
-0.13282822 0.085907124 0.95345831
-0.1293295 0.088784613 0.95075005
-0.10836652 0.084124632 0.95947236
-0.13246569 0.092951789 0.95087504
-0.11249223 0.097172298 0.95491672
-0.1086937 0.092973739 0.95825005
-0.11525123 0.10342468 0.95356667
-0.14752616 0.11829125 0.95412505
-0.12411313 0.11779884 0.95862508
-0.14815979 0.12108384 0.95150006
-0.13224027 0.12763698 0.95075005
-0.12499401 0.12670413 0.95205569
-0.11942305 0.12357196 0.95466667
-0.16060308 0.13976099 0.95125002
-0.15835607 0.13753748 0.95025003
-0.13144332 0.13141134 0.95100003
-0.12591648 0.13466834 0.95303577
-0.16629745 0.14538971 0.95406258
-0.12769029 0.14642638 0.95406258
-0.10130005 -0.022612778 0.96100003
-0.087354064 -0.024931444 0.96950006
-0.06988354 -0.024751434 0.96250004
-0.055549249 -0.021753188 0.96950006
-0.11198305 -0.018441359 0.96250004
-0.051282767 -0.018565897 0.96900004
-0.046417333 -0.013248436 0.96696883
-0.051351316 -0.0031846219 0.96037501
-0.047172181 -0.0051918463 0.96302509
-0.17522331 0.0068024737 0.96300006
-0.15193811 0.0025915515 0.96225005
-0.14979476 0.0025908784 0.96200007
-0.053769022 0.0034260128 0.96042508
-0.048795734 0.0004884855 0.96175003
-0.16081411 0.015251887 0.96500003
-0.138027 0.013183925 0.96800005
-0.064109974 0.016273163 0.96268755
-0.059250738 0.010985647 0.96075004
-0.12228519 0.029881453 0.96075004
-0.07226979 0.027035797 0.96628577
-0.067442417 0.024106601 0.96775007
-0.12467764 0.038369238 0.96300006
-0.081297867 0.037736934 0.96475005
-0.075319834 0.033422995 0.96697927
-0.084688134 0.045448415 0.96335727
-0.12740907 0.055477142 0.96775007
-0.0875009 0.05385974 0.9623751
-0.090909682 0.061470285 0.96225005
-0.10157677 0.077355437 0.96362507
-0.098658159 0.07226488 0.96600002
-0.10552494 0.083309479 0.96121436
-0.14137924 0.099295102 0.96200007
-0.13717146 0.095090568 0.96200007
-0.11036325 0.09978538 0.96675003
-0.10841694 0.096766874 0.96825004
-0.12253975 0.10989203 0.96275002
-0.1122743 0.1059076 0.96865004
-0.12285759 0.11485859 0.96408939
-0.1170749 0.1141285 0.96711546
-0.15238841 0.12609886 0.96066672
-0.12079386 0.1250008 0.96562505
-0.11841558 0.12346785 0.96690005
-0.16098769 0.1371114 0.96183342
-0.15625066 0.13227664 0.96030009
-0.12271808 0.13486172 0.96831256
-0.064470269 -0.025103742 0.9762001
-0.05519101 -0.022959614 0.97550011
-0.049645573 -0.020886239 0.97850007
-0.046207797 -0.016521661 0.97387505
-0.044562537 -0.0044868453 0.9765833
-0.15682742 0.0026205038 0.97300005
-0.05327443 0.0073106908 0.97444999
-0.048450794 0.0026313148 0.97600007
-0.13239014 0.017509129 0.97325003
-0.12803443 0.019620849 0.97250003
-0.062200792 0.017525095 0.97410721
-0.05797261 0.012208818 0.97462499
-0.12419285 0.024909088 0.97156256
-0.065085344 0.023923224 0.97475004
-0.12678149 0.036876734 0.97925007
-0.077544317 0.039026655 0.97950006
-0.081605844 0.043195594 0.97683334
-0.079696633 0.042242944 0.97962505
-0.08586935 0.05456844 0.97675008
-0.13216925 0.06685327 0.97950006
-0.092991613 0.065347046 0.97306257
-0.13650671 0.079106428 0.97225004
-0.10048867 0.077080734 0.97350007
-0.098182812 0.072695024 0.97175002
-0.13787745 0.086157702 0.97191668
-0.10476375 0.085603155 0.97366673
-0.136261 0.091689087 0.97050005
-0.10662875 0.091759942 0.97125006
-0.1464795 0.10605489 0.97258335
-0.15146866 0.1195365 0.97275007
-0.14934127 0.11741075 0.97275007
-0.11512519 0.11722969 0.97125006
-0.15471978 0.12383656 0.9731251
-0.11710036 0.12243024 0.97887504
-0.054218877 -0.023867568 0.98383337
-0.047784764 -0.021008974 0.98425007
-0.042795517 -0.014810109 0.98508334
-0.03863908 -0.013545327 0.9889167
-0.042584129 -0.0050945012 0.98355007
-0.039373599 -0.008144808 0.98925006
-0.18831982 0.0091335289 0.98750007
-0.051246539 0.0080644554 0.98875004
-0.046731345 0.0026619195 0.98462504
-0.16828437 0.017702525 0.98400003
-0.060730848 0.019867999 0.98475003
-0.057246774 0.015594288 0.98658341
-0.06373065 0.02459581 0.98455
-0.073389798 0.034806624 0.98125005
-0.069204561 0.030565703 0.98275006
-0.081933051 0.048721857 0.98075002
-0.079859346 0.046620313 0.98162508
-0.12959234 0.052124742 0.98433346
-0.085101463 0.055468332 0.98643756
-0.093247056 0.067364253 0.98699999
-0.088930845 0.061975367 0.98700005
-0.13576257 0.075627029 0.98225003
-0.098394223 0.073648289 0.98450005
-0.1408788 0.085786447 0.98800004
-0.1039626 0.084557869 0.9862501
-0.14190543 0.096544519 0.98762506
-0.1080285 0.095114857 0.98400003
-0.14959744 0.10635071 0.98850006
-0.11196148 0.10766014 0.98075002
-0.10998455 0.10138525 0.98225003
-0.11439723 0.1133077 0.98325002
-0.050343197 -0.023348106 0.99225003
-0.045336191 -0.022147508 0.99675006
-0.04156857 -0.018968254 0.99000007
-0.036324054 -0.010363925 0.99475002
-0.041626304 -0.0027451999 0.99137503
-0.038043436 -0.0053967689 0.9949643
-0.18276158 0.0070108566 0.99250007
-0.050457355 0.0091982726 0.99450004
-0.044963095 0.0030382576 0.99325007
-0.1505433 0.013548253 0.99475002
-0.054262955 0.014384109 0.99255008
-0.17860016 0.020044537 0.99350005
-0.12898245 0.035339806 0.99625003
-0.073534936 0.036481876 0.99781251
-0.13139163 0.048487507 0.99800003
-0.07873182 0.042883966 0.99450004
-0.083791472 0.055490516 0.99650007
-0.087541558 0.06143431 0.99575007
-0.10093608 0.079099804 0.99900007
-0.096557319 0.072543286 0.99891669
-0.10423908 0.085670054 0.99925005
-0.10814702 0.095087662 0.995
-0.11085234 0.10434864 0.99000007
-0.055151712 -0.025735062 1.0007501
-0.037079073 -0.015886649 1.0003126
-0.036454048 -0.0038951149 1.00825
-0.044414449 0.0049033673 1.00545
-0.16524094 0.015880138 1.00475
-0.14043801 0.015809016 1.0002501
-0.052658238 0.014792173 1.0053751
-0.064027339 0.02680161 1.0026666
-0.05865334 0.021363769 1.0045
-0.068283476 0.031125542 1.0007501
-0.079444334 0.04656177 1.0035001
-0.082899824 0.055441137 1.0055001
-0.090989582 0.067642897 1.0017501
-0.086937487 0.065652505 1.003143
-0.1409996 0.079515487 1.00425
-0.13880332 0.075126298 1.00425
-0.094105102 0.074309938 1.0067044
-0.088625841 0.073212095 1.0080833
-0.14344542 0.093943775 1.006
-0.053704008 -0.026095081 1.01475
-0.042508878 -0.022715893 1.0123751
-0.033972941 -0.015018538 1.015475
-0.034539033 -0.005405033 1.01675
-0.16688552 0.0027329456 1.01475
-0.043668527 0.0060521299 1.0136251
-0.038112868 0.00051464303 1.01325
-0.15202199 0.013881937 1.01925
-0.14867836 0.013881937 1.01925
-0.052691981 0.017179053 1.016625
-0.049259454 0.012711542 1.0146251
-0.056088585 0.020533798 1.01775
-0.13098921 0.033678655 1.0117501
-0.13326772 0.04696776 1.0122501
-0.080176622 0.04920413 1.01275
-0.077980995 0.042575125 1.013
-0.082493186 0.055912565 1.0140001
-0.13638598 0.066777356 1.0107501
-0.084815226 0.060418759 1.0152501
-0.093250334 0.077795692 1.0104167
-0.087808609 0.074552178 1.0113751
-0.10230017 0.084964551 1.0125
-0.094820283 0.083196782 1.0139376
-0.089146011 0.082506664 1.0140001
-0.038404383 -0.021793408 1.021
-0.032843418 -0.01845913 1.021625
-0.029484754 -0.012873866 1.0214168
-0.032695487 -0.0048476411 1.02405
-0.029710872 -0.0084741404 1.02925
-0.15519693 0.00052086503 1.0255001
-0.042553488 0.0076820874 1.02415
-0.037460852 0.0027650294 1.02575
-0.17385651 0.018525584 1.02975
-0.16565198 0.016243655 1.02775
-0.05196676 0.018426638 1.02425
-0.047446012 0.013379637 1.023375
-0.13390243 0.025141036 1.0239002
-0.063198797 0.0273943 1.02475
-0.056376278 0.021756686 1.023
-0.13306069 0.0319653 1.02775
-0.072255872 0.0363979 1.0260834
-0.067762494 0.031910874 1.026
-0.13547294 0.04549627 1.029
-0.076756589 0.040889334 1.02625
-0.082073763 0.055262178 1.0226251
-0.085581012 0.06544634 1.0244167
-0.052398019 -0.026557965 1.03275
-0.043290094 -0.024259912 1.031
-0.036552314 -0.022022869 1.0317501
-0.032031704 -0.01976339 1.0315001
-0.028078776 -0.014125526 1.0313125
-0.032070518 -0.0017323287 1.03275
-0.028977674 -0.0053535337 1.0352501
-0.1932704 0.0073269629 1.03725
-0.041184567 0.0095705511 1.0347501
-0.035259716 0.0032361553 1.03355
-0.16297936 0.016427388 1.0393751
-0.14291525 0.018602045 1.034
-0.050370019 0.01866501 1.0375
-0.045770716 0.014112477 1.0360833
-0.20701262 0.024210021 1.03225
-0.052740488 0.020972619 1.0395
-0.079385884 0.045595746 1.03125
-0.13889445 0.059489954 1.03775
-0.08210633 0.056054331 1.0371251
-0.13810813 0.062535204 1.0318751
-0.084140606 0.061549466 1.03425
-0.041781589 -0.024701109 1.0497501
-0.032571528 -0.021242484 1.0488751
-0.14266032 -0.014364293 1.04875
-0.026192062 -0.014330861 1.046
-0.15460888 -0.0028926223 1.04425
-0.026321091 -0.0063112364 1.0435834
-0.20070267 0.0096237333 1.0405
-0.035087727 0.006083061 1.0457143
-0.044336814 0.015402079 1.0468334
-0.039429378 0.013133176 1.0482501
-0.19233698 0.02335605 1.0445
-0.18341899 0.021098716 1.04575
-0.060004663 0.025706107 1.04725
-0.057480127 0.023322511 1.0430001
-0.13748066 0.043888524 1.04425
-0.078327246 0.04401461 1.04725
-0.13934618 0.056269981 1.0411251
-0.12015238 -0.02246578 1.0525
-0.099955775 -0.027207291 1.0580001
-0.05118322 -0.027110854 1.05425
-0.027050845 -0.002928633 1.05725
-0.032835893 0.0063160998 1.057375
-0.16181517 0.016658537 1.054
-0.044317663 0.017835479 1.0553751
-0.037260864 0.012026182 1.0517501
-0.19907352 0.025920887 1.056
-0.062518053 0.02809491 1.051
-0.053659819 0.022493783 1.0576251
-0.07317365 0.03859514 1.0555
-0.067260236 0.032759864 1.0532501
-0.13902761 0.042074677 1.056
-0.12835555 -0.020371713 1.0632501
-0.040115841 -0.025095245 1.0665001
-0.13807757 -0.018103352 1.0665001
-0.20751376 0.0098387757 1.06375
-0.21707419 0.017996071 1.0650001
-0.17702049 0.019110272 1.06225
-0.16136396 0.01685215 1.0662501
-0.1513948 0.016781026 1.0617501
-0.042412288 0.018006431 1.0655
-0.036436953 0.013294389 1.0612501
-0.21707419 0.021487098 1.0650001
-0.19232062 0.023778114 1.063375
-0.18411981 0.021446748 1.0630001
-0.14323395 0.022576336 1.0615001
-0.13975172 0.026055893 1.0615001
-0.058816548 0.026197033 1.06725
-0.049526665 0.021552671 1.0682501
-0.080758035 -0.030126194 1.0797501
-0.094486855 -0.029986689 1.0747501
-0.049885973 -0.027670175 1.0760001
-0.033235025 -0.022844657 1.07025
-0.023900412 -0.012334334 1.0715001
-0.024687106 -0.0057016164 1.07175
-0.21161556 0.0099220183 1.0727501
-0.032106318 0.007570602 1.071625
-0.028580457 0.00054410205 1.0712501
-0.16059816 0.017018104 1.07675
-0.1571202 0.017024031 1.0771251
-0.041465096 0.019272186 1.07125
-0.036822937 0.015778787 1.0725
-0.038350258 -0.025471732 1.0825001
-0.028867261 -0.020730959 1.082
-0.025317781 -0.017184205 1.082
-0.024279606 -0.0042045503 1.0885
-0.18068674 0.0029201247 1.0842501
-0.16619062 0.00054981606 1.0825001
-0.03126245 0.0076501337 1.0830001
-0.02887393 0.0029147379 1.08225
-0.21724042 0.011202751 1.08325
-0.075912833 -0.030551687 1.095
-0.068657011 -0.030520298 1.0938751
-0.048350021 -0.028145917 1.0945001
-0.031745963 -0.023474339 1.09975
-0.06587892 -0.03090045 1.1075001
-0.046544198 -0.028505936 1.1085
-0.036564551 -0.025883514 1.1
-0.064173043 -0.031249212 1.12
