# .PCD v0.7 - Point Cloud Data file format
VERSION 0.7
FIELDS x y z
SIZE 4 4 4
TYPE F F F
COUNT 1 1 1
WIDTH 687
HEIGHT 1
VIEWPOINT 0 0 0 1 0 0 0
POINTS 687
DATA ascii
0.067717873 -0.081211932 0.88975006
0.065472722 -0.081073925 0.89900005
0.067440882 -0.07745488 0.89127505
0.07162974 -0.078317359 0.89000005
0.06177929 -0.080403447 0.90250003
0.049337149 -0.074080735 0.90962505
0.055278357 -0.074340969 0.90743065
0.06371256 -0.07604827 0.90467501
0.051305328 -0.069082849 0.90925002
-0.022245325 -0.051138937 0.90816671
-0.013801103 -0.052665729 0.90553856
-0.0076583759 -0.051667508 0.90583342
-0.022908919 -0.045186862 0.9082222
-0.01426249 -0.045065653 0.90581
-0.0064841807 -0.045391534 0.90666074
-0.021284506 -0.039294191 0.90962505
-0.014310558 -0.038516402 0.90887505
-0.0083502233 -0.039277993 0.90925002
0.039709825 -0.071675614 0.91700006
0.045714252 -0.072424345 0.91241676
0.057759035 -0.071675614 0.91700006
0.061786808 -0.073699623 0.91725004
0.036560372 -0.066441387 0.91853338
0.044720657 -0.068884842 0.91417867
0.053674832 -0.06957671 0.91575003
-0.040608276 -0.051763043 0.91925007
-0.034432579 -0.051540613 0.91530007
-0.024022399 -0.054027092 0.9142046
-0.014666574 -0.057315342 0.91565633
-0.0061453627 -0.054975893 0.91418755
-0.042269621 -0.045691609 0.91836548
-0.034412254 -0.045512587 0.91474009
-0.027715433 -0.045317385 0.9108215
-0.0023931542 -0.04378305 0.91345835
-0.041278768 -0.039040361 0.91925001
-0.034485854 -0.035589699 0.91670001
-0.025138687 -0.036000799 0.91306949
-0.014750552 -0.035110176 0.91372722
-0.0058353329 -0.038147151 0.91621441
0.052109402 -0.078238063 0.92350006
0.02643979 -0.063975669 0.92548335
0.032218762 -0.065929212 0.92070007
0.045398299 -0.067500569 0.92383337
0.05029311 -0.068424128 0.92725003
-0.044045165 -0.051248536 0.92812502
-0.031862222 -0.054283716 0.92800003
-0.025789639 -0.057364818 0.92862505
-0.014499431 -0.059901413 0.92083341
-0.0034301181 -0.055342775 0.92462504
-0.05121132 -0.040141959 0.92925006
-0.046818655 -0.043899164 0.92275
-0.00090506847 -0.04635473 0.92156255
0.0016190755 -0.044988927 0.92450005
-0.053133 -0.034313384 0.92727089
-0.045217972 -0.035335496 0.92187506
-0.020521119 -0.033710927 0.92000002
-0.014491113 -0.032116435 0.92040002
-0.0044423365 -0.036680967 0.92390001
-0.051814344 -0.029268727 0.92791671
-0.047994211 -0.02988359 0.926
0.064870812 -0.074945025 0.93275005
-0.018710276 -0.060497716 0.93000007
0.019330883 -0.061424881 0.93383336
0.024134567 -0.060806707 0.93475008
0.036516421 -0.063067943 0.93800002
0.040630035 -0.065135121 0.93825006
-0.047235593 -0.050390162 0.93100005
-0.035348203 -0.054971036 0.93975002
0.022197999 -0.059078321 0.93975002
-0.063442908 -0.041241474 0.93575001
-0.055015545 -0.043695245 0.93206578
-0.049267266 -0.0463177 0.93091673
0.0037005122 -0.045723427 0.93962502
-0.073453702 -0.032941863 0.93817502
-0.065397851 -0.033946142 0.93368471
-0.0581485 -0.034478512 0.93086362
-0.043208327 -0.030077221 0.9320001
-0.03615699 -0.030145798 0.93412501
-0.023256302 -0.031558089 0.93566674
-0.014030207 -0.030485956 0.93416667
-0.0075653247 -0.033232436 0.93487501
-0.072433263 -0.026624756 0.93794453
-0.065147802 -0.02551347 0.93548208
-0.056950994 -0.026446085 0.93334997
-0.048392888 -0.028093167 0.93375003
-0.022478186 -0.023965754 0.93868756
-0.016997831 -0.025594717 0.93745458
0.057425562 -0.071761072 0.94450003
0.061491609 -0.073746935 0.94350004
-0.021128947 -0.061619852 0.94725007
-0.0045367153 -0.061359644 0.94325006
0.015227807 -0.062026072 0.94085008
0.025410172 -0.066106088 0.94468749
0.053463623 -0.069918431 0.94750005
-0.037463129 -0.055058777 0.94125003
-0.0010963329 -0.057101261 0.94100004
0.0055473759 -0.054928292 0.94085532
0.014677521 -0.057773881 0.94080567
0.020153495 -0.059109755 0.94025004
-0.071016207 -0.04101672 0.94950002
-0.064594969 -0.044004753 0.94675004
-0.057358418 -0.048146807 0.9468751
0.0026749806 -0.044736318 0.94050002
-0.080820262 -0.03042414 0.94275004
-0.075819425 -0.035270438 0.94146878
-0.031287622 -0.030375734 0.94125003
-0.025318883 -0.030625841 0.94900006
-0.0024695047 -0.036562856 0.94166678
-0.083289929 -0.023905577 0.94578338
-0.075641505 -0.022817418 0.94243765
-0.06363833 -0.020922475 0.94400012
-0.054591525 -0.022378186 0.94377089
-0.045598026 -0.023936551 0.94477165
-0.036173198 -0.022026459 0.94329172
-0.027178021 -0.022160219 0.94157153
-0.015894724 -0.023255026 0.94425005
-0.082876399 -0.015858689 0.94791675
-0.074969769 -0.015036878 0.94698733
-0.064639285 -0.015042226 0.94732493
-0.054212887 -0.015024571 0.9461624
-0.044870432 -0.015015271 0.94549996
-0.035489589 -0.01498268 0.94345015
-0.025605831 -0.015196334 0.94265294
-0.019087499 -0.01817791 0.94875002
-0.075189091 -0.0098950872 0.94975013
-0.05347855 -0.0092930989 0.94885719
-0.044511218 -0.006836989 0.94813335
-0.035781983 -0.0058939271 0.94665641
-0.028101679 -0.0075326501 0.94662505
0.035134494 -0.073698118 0.95625007
0.041366205 -0.076752864 0.95525002
0.068847574 -0.077114433 0.95975006
-0.027625266 -0.060162757 0.95700002
-0.00041728106 -0.060209908 0.95775002
0.0058526988 -0.060068462 0.95550007
0.010029407 -0.06214026 0.95525002
0.02469196 -0.060147043 0.95675004
0.03105008 -0.062400464 0.95925003
0.045651719 -0.068563923 0.95750004
-0.050674148 -0.051824469 0.95750004
-0.040193446 -0.055994704 0.95725006
-0.031802852 -0.05805625 0.95675004
0.015270034 -0.055943523 0.95637506
0.020507159 -0.05805625 0.95675004
-0.073766328 -0.041394707 0.95825005
-0.067188203 -0.044334188 0.954
-0.090649873 -0.030964693 0.95950007
-0.084480293 -0.033365477 0.95614994
-0.078178167 -0.038625099 0.95450008
-0.094342574 -0.023957983 0.95701575
-0.088376768 -0.024483893 0.95196879
-0.040014997 -0.026589733 0.95300007
-0.035259794 -0.02653004 0.95768189
-0.027683001 -0.02675714 0.95900005
-0.016065072 -0.021418869 0.95437503
-0.094278082 -0.015470044 0.95768762
-0.087175906 -0.014612303 0.95306247
-0.021229319 -0.013034904 0.95175004
-0.017666955 -0.014402071 0.95621884
-0.090649873 -0.0099966694 0.95950007
-0.083992794 -0.0080928439 0.95775002
-0.074645028 -0.0058843242 0.95370597
-0.064989969 -0.005755384 0.95247996
-0.05490461 -0.0043689851 0.95215291
-0.046569906 -0.0024252501 0.95065004
-0.031669889 -0.0015981372 0.95275003
-0.024123223 -0.004909738 0.95485306
-0.017526705 -0.0066639613 0.95802075
-0.043189295 0.00048454921 0.95400006
-0.03894113 0.00048366035 0.95225
-0.024556208 0.00048746969 0.95975006
-0.023745529 -0.063067243 0.96950006
0.014415872 -0.065169089 0.96925002
0.039852723 -0.065169089 0.96925002
-0.046680264 -0.05414214 0.96150005
0.0079880832 -0.052013904 0.96100003
0.010084528 -0.054085832 0.96050006
-0.076554723 -0.041772693 0.96700007
0.0048488323 -0.046916872 0.96437502
-0.092067629 -0.032144155 0.96337503
-0.086761832 -0.035293102 0.96300006
-0.030075328 -0.031255137 0.96850002
-0.027906714 -0.031198662 0.96675003
-0.0077705849 -0.03204646 0.96050006
-0.1028107 -0.021934735 0.96200007
-0.097531937 -0.027238235 0.96115005
-0.031076208 -0.028027782 0.96675003
-0.011968398 -0.027841508 0.96025002
-0.10378275 -0.013963126 0.96207815
-0.097057596 -0.01120747 0.96060711
-0.013130549 -0.010090437 0.96850002
-0.10452886 -0.0060233194 0.96431822
-0.095070243 -0.0058159442 0.96175003
-0.085508622 -0.0035539877 0.96342307
-0.077443078 -0.0016184757 0.96487504
-0.013243968 -0.0037141386 0.96152496
-0.0078367814 -0.0016249756 0.96875
-0.080930553 0.00049204094 0.96875006
-0.074528433 0.00049173617 0.96815002
-0.063623711 0.0016921991 0.9632858
-0.055061135 0.0045307032 0.96406269
-0.045816433 0.0041846451 0.96548438
-0.034400288 0.0028151101 0.96505004
-0.025376521 0.0048001553 0.96242869
-0.015172346 0.0047058794 0.96383995
-0.0058758245 0.0049392995 0.96724993
-0.053291555 0.011057113 0.96700001
-0.022630224 0.011058542 0.96712506
-0.014011526 0.013467952 0.96664292
-0.0059126718 0.013997664 0.96578324
-0.011123315 -0.065774217 0.97825003
-0.0089838952 -0.065774217 0.97825003
0.0027622934 -0.061042886 0.97100008
0.027344262 -0.061404366 0.97675008
0.033839073 -0.063701496 0.97925007
-0.060283732 -0.050770823 0.97750002
0.018790079 -0.057106119 0.97625005
0.023066077 -0.059254695 0.97650003
-0.078913599 -0.041902285 0.97000003
-0.066748798 -0.04760284 0.97825003
-0.09623865 -0.032129228 0.9735834
-0.086880602 -0.037742045 0.97208339
-0.10485552 -0.025052181 0.97445011
-0.0301452 -0.029206363 0.97075003
-0.028025791 -0.028149977 0.97087502
-0.014332445 -0.023018681 0.97825003
-0.1211208 -0.011905501 0.97850007
-0.1144914 -0.013976927 0.97690284
-0.10915175 -0.015486988 0.97481251
-0.015406092 -0.016609594 0.97850007
-0.12097818 -0.0073435255 0.97850007
-0.11445903 -0.0050495369 0.97641665
-0.10547113 -0.0019876279 0.97362512
-0.095040306 -0.0016307416 0.97218758
-0.011035194 -0.0079904329 0.97050005
-0.0082233064 -0.0044660415 0.97308332
-0.1117617 0.00049724703 0.97900003
-0.10412024 0.0011064513 0.97617865
-0.097008087 0.001352023 0.97705001
-0.083199218 0.00049292977 0.97050005
-0.072088003 0.0026343064 0.9781251
-0.06551861 0.005829162 0.97584999
-0.059990797 0.0089971041 0.97275007
-0.045190137 0.0083061056 0.97475004
-0.035498396 0.004741929 0.97200006
-0.00042490565 0.009020227 0.97525007
-0.0600833 0.011140012 0.97425002
-0.055272959 0.01281527 0.97210008
-0.049391892 0.011131437 0.97350007
-0.023393601 0.013312439 0.97712505
-0.016588099 0.017364087 0.97822231
-0.0034813578 0.016670028 0.97735721
0.017246153 0.027788848 0.97950006
0.021000145 0.028331339 0.97975004
0.017139018 0.031320713 0.9795
0.021000145 0.030472396 0.97975004
0.057601903 -0.085405283 0.98275006
0.04905472 -0.070443608 0.98375005
0.057938926 -0.072943926 0.98850006
0.062309843 -0.075161085 0.98925006
0.044808686 -0.068380594 0.98500007
-0.054449055 -0.053475272 0.98800004
-0.043678466 -0.057837311 0.98875004
0.012438855 -0.055212032 0.98050004
0.0038628029 -0.044529323 0.98125005
-0.00042784653 -0.038128722 0.98200005
-0.1133835 -0.020998303 0.98375005
-0.10781681 -0.025256308 0.98208338
-0.12374431 -0.013484917 0.98487508
-0.11771467 -0.018853296 0.98400009
-0.12332406 -0.0044240342 0.98582143
-0.11845651 -0.0016459429 0.98125005
-0.0047242921 -0.0016476203 0.98225003
-0.12153964 0.0015837167 0.98887503
-0.11582019 0.0026575646 0.98534083
-0.10468619 0.0037225753 0.98293757
-0.09440127 0.0056606368 0.98324996
-0.084850207 0.0055191065 0.98380953
-0.075422294 0.0061044549 0.98538333
-0.068888493 0.0084232651 0.98850006
-0.041956261 0.0083703324 0.98216671
-0.035275269 0.0081309332 0.98219448
-0.00042942591 0.005885209 0.98562503
-0.093075477 0.011264838 0.98516673
-0.084495597 0.011270365 0.98565006
-0.075017914 0.011303668 0.98856258
-0.064822614 0.012002498 0.98683339
-0.053628605 0.015227786 0.98620844
-0.045344938 0.011991498 0.98579174
-0.033020459 0.014056206 0.98340392
-0.025882196 0.016739551 0.98155361
-0.018647095 0.019774688 0.98012507
-0.0011428447 0.019108376 0.98250002
0.0025904004 0.018175719 0.98630011
-0.024415163 0.022677541 0.98216677
-0.014927399 0.023584953 0.9825418
-0.0043542557 0.023444837 0.98706836
0.0024486708 0.022795031 0.98725003
0.016832141 0.025296878 0.98668754
0.022091344 0.027285296 0.98062503
0.018285815 0.035748389 0.98750001
0.024886038 0.03570094 0.98508751
0.026563779 0.042220041 0.98741674
0.03653501 0.055909101 0.98900014
0.040647652 0.054510161 0.98858339
0.073847964 -0.080268115 0.99900007
0.025649266 -0.072254188 0.99387503
0.066687316 -0.077381521 0.99000007
-0.0048005916 -0.06601195 0.99800003
0.0082561532 -0.06461221 0.99325007
0.019150963 -0.06907481 0.99500006
0.014765393 -0.055901829 0.99275005
-0.085385293 -0.041937158 0.99600005
-0.074120127 -0.044975091 0.99100006
-0.096228153 -0.035389684 0.99550003
-0.0026134972 -0.036514062 0.99650007
-0.11399177 -0.023343777 0.9921667
-0.10459415 -0.029853219 0.99225003
-0.1306017 -0.010335274 0.99200004
-0.12581466 -0.014671193 0.99190009
-0.012357903 -0.011413159 0.99150002
-0.13181242 -0.0044576009 0.99410719
-0.12760755 -0.0041890442 0.99120837
-0.0080251507 -0.0070832637 0.99200004
-0.1322988 0.0022530849 0.99825001
-0.12566969 0.0049832221 0.994353
-0.11502337 0.0075608734 0.99331254
-0.10620864 0.007450202 0.99312496
-0.0026174311 0.00050689734 0.99800003
-0.11152416 0.011388712 0.99600005
-0.10436197 0.012339343 0.9946112
-0.095625773 0.013102296 0.99380004
-0.085201174 0.013535315 0.99380004
-0.075296856 0.013514203 0.99225008
-0.066075265 0.014054626 0.99218756
-0.045109291 0.014661086 0.99656254
-0.032067463 0.021214344 0.99750006
-0.024380958 0.025736565 0.99535006
-0.015307394 0.028062128 0.9954167
-0.0052830889 0.027900496 0.99833339
0.012559375 0.02862774 0.99000007
0.024585463 0.027678724 0.99475002
0.013648413 0.032971151 0.99050003
0.027883168 0.030977806 0.99600005
0.03143727 0.036278732 0.99820006
0.026767585 0.046614014 0.99525005
0.033344317 0.046020295 0.99185717
0.040921766 0.048353899 0.99525005
0.028017284 0.053416468 0.99379545
0.03338328 0.053577192 0.99122506
0.0419745 0.055380855 0.99437505
0.058598321 0.059496332 0.99975002
0.065941982 0.058645703 0.99921882
0.07444524 0.058495056 0.99864292
0.058143448 0.064720593 0.99945003
0.065074787 0.064876325 0.99848765
0.074922025 0.064893939 0.99875009
0.080402374 0.063818313 0.99900007
0.065137759 0.070399009 0.99945003
0.072810188 0.070420139 0.99975002
0.05231227 -0.071965262 1.005
0.033621728 -0.064275712 1.0050001
0.0083226515 -0.052004386 1.00125
0.010512372 -0.054192428 1.00125
-0.11336745 -0.025792502 1.00275
-0.013608456 -0.023618707 1.0037501
-0.13258696 -0.012693755 1.0070834
-0.12826739 -0.017106097 1.00775
-0.013683022 -0.014926039 1.00925
-0.1409294 -0.0016836844 1.0037501
-0.13716474 -0.0049810959 1.0043126
-0.0048409263 -0.0038878089 1.0065
-0.14278874 0.0043101581 1.0055909
-0.13600604 0.0057650493 1.0019667
-0.12950033 0.0092514558 1.0002501
-0.13458152 0.012597915 1.0055
-0.12521398 0.013147431 1.0054168
-0.11636151 0.013740121 1.0087501
-0.064101987 0.016594408 1.00375
-0.055146743 0.018002067 1.0006502
-0.044587884 0.01728088 1.0010834
-0.037918821 0.016091822 1.0008125
0.0039736941 0.015943317 1.0086666
-0.041146725 0.021405084 1.00625
-0.035558157 0.022173727 1.0037501
-0.023217523 0.028411753 1.0079168
0.021530641 0.024656752 1.0045
-0.013032872 0.031697959 1.0015626
-0.0042941947 0.034793667 1.0013335
0.0048677758 0.035767607 1.001737
0.013380736 0.037384294 1.0016347
0.005048133 0.042165346 1.00325
0.016193565 0.044724114 1.0043393
0.021486435 0.045423772 1.0024376
0.019425236 0.051239606 1.00925
0.02346983 0.053808752 1.0091666
0.046455912 0.058056545 1.0073215
0.054483801 0.056553416 1.0022501
0.064270802 0.054817177 1.0013863
0.073394999 0.055567935 1.00775
0.028247105 0.060046811 1.0090001
0.036082361 0.063121237 1.0077858
0.044673935 0.065382868 1.0062656
0.053027499 0.065175943 1.0019667
0.080502979 0.068269506 1.0002501
0.046322513 0.071925715 1.0086
0.054737642 0.07507243 1.005896
0.065127566 0.075949691 1.0028552
0.074580856 0.074381053 1.0039792
0.06208254 0.082832105 1.0090001
0.041672155 -0.08143317 1.0135001
0.032854661 -0.077117518 1.0150001
-0.033752285 -0.062703155 1.015125
-0.026973015 -0.065766871 1.011
0.012819442 -0.067942597 1.0105001
0.017247874 -0.056929488 1.011
0.021669963 -0.059138831 1.011
-0.10456602 -0.032691225 1.013
-0.0940888 -0.039584756 1.0195
-0.12204792 -0.021579957 1.011
-0.11547186 -0.026011506 1.0115
-0.14321297 -0.0028026784 1.012125
-0.15147512 0.0071722739 1.0155834
-0.14739515 0.0063187005 1.0123439
-0.15159318 0.012733463 1.0163751
-0.14561217 0.013804027 1.0133959
-0.13654755 0.015029374 1.0107858
-0.12591609 0.017351547 1.0136499
-0.11442604 0.017550834 1.0106429
-0.10493388 0.017220888 1.0118055
-0.095920384 0.016628195 1.0119287
-0.084400818 0.015967857 1.0103
-0.074488327 0.015973981 1.0106876
-0.06679412 0.017091159 1.0113751
-0.12060734 0.020528754 1.0175
-0.11420087 0.021416055 1.01425
-0.10667802 0.021230245 1.0155417
-0.061691917 0.020546407 1.018375
-0.054346643 0.020994514 1.0185
-0.047701903 0.021071862 1.0168126
0.018485283 0.022769075 1.01825
0.026254592 0.027194038 1.0173334
-0.015971914 0.032672204 1.01475
0.031775765 0.03270971 1.016
-0.0026550575 0.041849185 1.01325
0.0062362002 0.046285309 1.0180714
0.012131806 0.04783031 1.0149168
0.016393978 0.053660434 1.01335
0.022399286 0.057201479 1.0106667
0.045426637 0.052971676 1.0107501
0.05296291 0.052034646 1.0104166
0.075678773 0.055160347 1.0137917
0.081509009 0.058056805 1.01275
0.025526019 0.06190943 1.0136787
0.035407986 0.065890737 1.014125
0.083437301 0.064023845 1.01375
0.039572433 0.071599968 1.0165
0.044907514 0.07511694 1.0115
0.072470188 0.079990566 1.0102501
0.081448652 0.071283005 1.0120001
-0.013886387 -0.068867102 1.02425
0.026575953 -0.062485937 1.02975
0.044397492 -0.068934336 1.0252501
-0.070176922 -0.051172152 1.0285001
-0.065646358 -0.053393766 1.028
-0.051839922 -0.057534825 1.0217501
0.0051432448 -0.046387926 1.022125
-0.11031494 -0.030846072 1.0252501
-0.1214667 -0.024112845 1.02475
-0.012793217 -0.025263742 1.02625
-0.13746698 -0.012945105 1.0270834
-0.01317306 -0.016684152 1.0267501
-0.0094063422 -0.010671275 1.02425
-0.14552203 -0.005094429 1.0284375
-0.0026954557 -0.0017239418 1.02775
-0.15133603 0.0005230236 1.02975
-0.00044767038 0.0027672842 1.0275
-0.14459971 0.018385034 1.0219375
-0.1347893 0.018418541 1.0238001
-0.092261888 0.018422142 1.024
-0.087003663 0.018494103 1.0280001
-0.067382738 0.018354679 1.0202501
0.0040298514 0.013936418 1.0232501
-0.14403379 0.020696884 1.0258335
-0.13626944 0.020711595 1.0265625
-0.12488004 0.021618584 1.0270001
-0.11908016 0.022886472 1.0235001
-0.10370468 0.022206822 1.0263333
-0.099176377 0.020700246 1.026
-0.062358435 0.024004219 1.0232501
-0.055479635 0.026455861 1.0229667
-0.048772551 0.024104206 1.02775
-0.03625118 0.025116997 1.0232501
-0.027285952 0.028457528 1.02275
-0.053892847 0.034464031 1.0277779
-0.049941167 0.034242496 1.0286669
-0.020596392 0.031840894 1.0237501
-0.013862332 0.035148751 1.0223751
-0.009399455 0.038543105 1.0235001
-0.0041866922 0.04313292 1.02625
0.0040396973 0.047594152 1.02575
0.054381549 0.049714271 1.0232501
0.015211481 0.056388218 1.0225834
0.048750792 0.051912308 1.0225
0.063542351 0.052118562 1.0265626
0.019738004 0.061028745 1.0255001
0.056286521 -0.0743104 1.03775
0.040185582 -0.067149207 1.03225
-0.059446011 -0.056154449 1.0375
-0.077430278 -0.04811421 1.0352501
-0.099732198 -0.037805706 1.0317501
-0.0049587633 -0.035525169 1.031
-0.11575111 -0.028842745 1.0337501
-0.12890933 -0.019744229 1.0305001
-0.0072502797 -0.0085317725 1.03625
-0.15536617 0.0065370104 1.0315834
0.001807778 0.0095474273 1.03225
-0.15446009 0.015180108 1.0318125
-0.082738101 0.018545825 1.0308751
-0.074945621 0.018569661 1.0322001
0.0051932894 0.0129294 1.032125
-0.14474784 0.022579266 1.035
-0.13380302 0.023178851 1.0364166
-0.1256416 0.025750201 1.0386945
-0.096556298 0.020861652 1.034
-0.066925138 0.021913949 1.030375
-0.050145477 0.028740207 1.0328751
-0.04555811 0.023812426 1.0312501
-0.035528906 0.026543204 1.035125
-0.054691438 0.036636598 1.0331668
-0.047312021 0.03719534 1.0326877
-0.025417693 0.031142149 1.03775
-0.016346887 0.03570047 1.038375
-0.050988466 0.042909008 1.0316501
-0.046064306 0.044526048 1.0325501
-0.0015782212 0.046885218 1.03475
0.001805151 0.047826149 1.03075
0.0063316016 0.051001359 1.0342501
0.01311972 0.057021063 1.0340835
0.069398597 0.052305777 1.0302501
0.074847221 0.053192358 1.0329167
0.082977816 0.056849957 1.031
0.038277123 -0.081426464 1.0417501
0.079647943 -0.084084667 1.0465001
0.049918905 -0.07268475 1.0470001
0.06379436 -0.077426814 1.04925
-0.048425555 -0.061098423 1.0445
0.033777181 -0.065600671 1.0435001
0.013225401 -0.056425072 1.0425
-0.089285925 -0.044990961 1.0415001
-0.105508 -0.035981726 1.04425
-0.12140708 -0.026834412 1.0435001
-0.13513218 -0.017717181 1.04375
-0.1611243 0.0097069759 1.0495001
-0.15882905 0.0051200152 1.0495001
-0.15653569 0.017605446 1.0418751
-0.15228757 0.022205234 1.0440001
-0.14563853 0.02509084 1.0454376
-0.13468978 0.02657361 1.0428215
-0.11452265 0.025606696 1.0432001
-0.1031254 0.023328101 1.0432501
-0.093202263 0.02112646 1.0471251
-0.071285702 0.021078542 1.0447501
-0.066705525 0.025640467 1.0445833
-0.1305981 0.030189252 1.044
-0.12735191 0.030232627 1.0455
-0.06211653 0.03019648 1.04425
-0.058614023 0.035853818 1.0428751
-0.046218555 0.03711345 1.0462501
-0.011845351 0.039230365 1.0417501
-0.05308187 0.045499567 1.04625
-0.042691302 0.04615685 1.0439374
-0.0084617995 0.042825781 1.0461251
0.059289604 -0.091314778 1.05075
0.07306008 -0.08211039 1.0505
0.068432629 -0.079776734 1.0500001
0.0064682886 -0.068694174 1.056
0.020320229 -0.059449363 1.05575
-0.095463261 -0.043453198 1.0595001
-0.11163034 -0.034175724 1.059
-0.0085351039 -0.032893889 1.0550001
-0.15269849 -0.0040791011 1.05475
-0.0050549563 -0.0063564568 1.051
-0.15679483 0.00053394376 1.0512501
0.0030000526 0.0086019011 1.054625
-0.16131622 0.01431187 1.0507501
-0.15924522 0.018930368 1.05225
0.0064575691 0.012054767 1.05425
-0.15409279 0.023564348 1.05375
-0.13948841 0.028322132 1.0595001
-0.12230877 0.028101597 1.0512501
-0.10578974 0.025119295 1.0546666
-0.090421826 0.021280298 1.0547501
-0.087280534 0.021358479 1.058625
-0.045625843 0.026785428 1.0537001
-0.036234505 0.02820852 1.05525
-0.13241234 0.032150831 1.0585002
-0.12481527 0.030449506 1.0530001
-0.061836742 0.035249852 1.059
-0.047127672 0.034504209 1.0538125
-0.030389234 0.030442273 1.05275
-0.023464032 0.033864297 1.0518751
-0.0051246965 -0.071640611 1.0655
0.011221072 -0.071859129 1.06875
0.025147419 -0.077397972 1.064625
-0.13314718 -0.021556124 1.064375
-0.012129616 -0.027432304 1.06675
-0.14540103 -0.012206407 1.060375
-0.14882706 -0.0087273149 1.0600001
-0.16214909 0.00519008 1.06375
-0.00046422656 0.00054118148 1.0655
-0.1653477 0.015678322 1.0656251
-0.16136396 0.021512318 1.0662501
-0.15576912 0.026214423 1.0678751
-0.14585887 0.028434068 1.0636876
-0.12169354 0.028495887 1.0660001
-0.10298113 0.024986241 1.0653751
-0.097373083 0.023875944 1.06775
-0.082777411 0.021391265 1.06025
-0.074647754 0.022777304 1.06005
-0.067721754 0.028348861 1.0605
-0.13519445 0.033039071 1.0622
-0.12618572 0.0323353 1.0645834
0.060784891 -0.077138886 1.07725
-0.00046858343 -0.069962673 1.0755
0.025451817 -0.063028775 1.0775001
0.033677895 -0.066521496 1.0768751
0.044221412 -0.069962673 1.0755
-0.11752491 -0.032207482 1.0705
-0.12220725 -0.029868107 1.0705
-0.14371276 -0.015879944 1.07375
-0.012214896 -0.015887341 1.0742501
-0.0028069194 -0.0041340562 1.07025
0.0077774562 0.0099647958 1.0773751
0.0089543825 0.01231776 1.07725
0.018454883 -0.075097159 1.08175
0.0090021789 -0.053883754 1.0830001
0.013717213 -0.057346925 1.0813751
-0.10205786 -0.041943535 1.08025
0.0066336715 -0.049150378 1.0830001
-0.10683228 -0.039601181 1.0807501
-0.16194053 -0.0018212307 1.0857501
-0.15956602 -0.0041939286 1.0857501
-0.16611022 0.0052712825 1.0820001
0.071593568 -0.10026558 1.0985
0.032898527 -0.082815848 1.09
0.078513853 -0.085549571 1.0945001
0.04982407 -0.073640898 1.09525
0.054602202 -0.076017 1.095
-0.13461387 -0.024575016 1.09525
-0.14406343 -0.018574396 1.0942501
-0.15885644 -0.0066361777 1.0972501
0.089154877 -0.091426782 1.1077501
0.091577508 -0.09384755 1.1077501
0.086732239 -0.089006007 1.1077501
0.040546007 -0.069372624 1.1035
-0.12361715 -0.033215377 1.1040001
-0.11615176 -0.036762387 1.1018751
0.072667629 -0.083491042 1.1148751
0.0031577195 -0.072206944 1.11
0.065177634 -0.079627238 1.1120001
0.018988015 -0.060240868 1.113
0.023861608 -0.062687196 1.11325
0.033630446 -0.06761346 1.1142501
0.08342085 -0.088207118 1.1285001
0.0093637621 -0.075742044 1.1265
0.046379514 -0.072145082 1.128
0.056197338 -0.077006817 1.1270001
0.02890514 -0.065514825 1.12
0.026774602 -0.083643839 1.1335001
0.036722768 -0.06884224 1.1345
0.0094261039 -0.053943075 1.1340001
0.013146169 -0.057660282 1.1340001
0.022115031 -0.082276702 1.149
0.069631159 -0.082008183 1.1452501
0.017029842 -0.079488099 1.1450001
0.047253795 -0.072248749 1.14925
0.054715142 -0.075907782 1.1476251
0.062157892 -0.079557516 1.146
0.02453788 -0.063210696 1.1447501
0.035887748 -0.068370789 1.1473751
0.087772563 -0.090141654 1.1532501
0.032208417 -0.087412506 1.1505001
0.065298975 -0.080338515 1.15725
0.075308479 -0.085267276 1.1555001
0.080362611 -0.087792397 1.1555001
0.037758585 -0.091177315 1.1665001
