# .PCD v0.7 - Point Cloud Data file format
VERSION 0.7
FIELDS x y z
SIZE 4 4 4
TYPE F F F
COUNT 1 1 1
WIDTH 591
HEIGHT 1
VIEWPOINT 0 0 0 1 0 0 0
POINTS 591
DATA ascii
0.019243218 -0.023234343 0.84600002
0.024353372 -0.023432193 0.8458637
0.019995324 -0.01991854 0.84650004
0.023696288 -0.019916581 0.84641671
0.022053694 -0.018244775 0.85474998
0.016578441 -0.023090538 0.86137503
0.028136861 -0.020453859 0.86925006
0.018481627 -0.018404864 0.86225003
0.026235823 -0.018554281 0.86925006
0.013751191 -0.022836763 0.87325001
0.015836155 -0.018620985 0.87237501
-0.044612482 -0.031453058 0.88777781
-0.035215385 -0.031454034 0.88475001
-0.029417844 -0.030494448 0.88500005
-0.050833508 -0.02378335 0.88718754
-0.044911925 -0.02469583 0.88511992
-0.035119411 -0.0246202 0.88239998
-0.028216574 -0.02615229 0.88531256
0.0073830741 -0.022844834 0.8883611
0.011736589 -0.023776786 0.88693756
-0.050951682 -0.018008996 0.88925004
-0.044697762 -0.015316822 0.88757616
-0.03538698 -0.015180875 0.88506252
0.013192549 -0.018933157 0.88700002
-0.043141473 -0.0092578148 0.88858336
-0.03630494 -0.0092497841 0.8878125
-0.02777941 -0.031476244 0.8945834
-0.052716564 -0.024367405 0.89716673
-0.026692465 -0.025033951 0.89740008
-0.0023565246 -0.023083419 0.89763898
0.0025344738 -0.022921147 0.8913334
0.011382726 -0.026995014 0.89725006
-0.053339887 -0.016623462 0.89664286
-0.049137793 -0.012210442 0.89162505
-0.031557038 -0.011226951 0.89075005
-0.029057276 -0.014482964 0.89631248
-0.044263791 -0.00804953 0.8982501
-0.035686843 -0.0077725304 0.89655
-0.062014632 -0.032310329 0.90887505
-0.055910368 -0.033217736 0.90653336
-0.046483606 -0.034736756 0.90312505
-0.036896519 -0.035032216 0.90225005
-0.062998816 -0.025354737 0.90872508
-0.057079017 -0.025559636 0.90411115
-0.025611222 -0.02473766 0.90437502
-0.01172272 -0.023020459 0.9062143
-0.0072965822 -0.023189818 0.90179163
-0.061012667 -0.018404737 0.90875006
-0.056369882 -0.015920911 0.90489292
-0.026118165 -0.014862038 0.90493757
-0.011296156 -0.01934405 0.90625
-0.0043558492 -0.019340849 0.90609998
0.0055412734 -0.019318437 0.90504998
0.011465186 -0.019290689 0.90375006
-0.047930114 -0.0084465146 0.90562505
-0.031078115 -0.0074532088 0.90525007
-0.028110355 -0.0094331959 0.90541673
-0.064081557 -0.031355873 0.91000003
-0.071320608 -0.023156587 0.91605008
-0.067092076 -0.02499928 0.91183347
-0.022360561 -0.024311194 0.91300005
-0.016615158 -0.023718119 0.91262513
-0.00039723938 -0.027431266 0.91175002
0.0055880216 -0.027444806 0.91220009
-0.071233906 -0.018898057 0.91666669
-0.064811945 -0.017302833 0.91259092
-0.056392025 -0.012856279 0.91441673
-0.023007518 -0.017922362 0.91227776
-0.016355433 -0.019466786 0.912
-0.044474263 -0.0059406012 0.91610014
-0.036543462 -0.0055530798 0.9181667
-0.066310659 -0.033464726 0.92434996
-0.054237805 -0.03809588 0.92887497
-0.04818223 -0.03812664 0.92962503
-0.026694976 -0.032880157 0.92500007
-0.073229879 -0.026147859 0.92500001
-0.068847202 -0.029706096 0.92050004
-0.01866501 -0.027912648 0.92775005
-0.0024259759 -0.027829912 0.92500007
-0.07443139 -0.01878126 0.92737508
-0.069520339 -0.015777839 0.92950004
-0.022612749 -0.013654164 0.92325002
-0.054114133 -0.0044770902 0.92892194
-0.048352815 -0.0031822012 0.92900008
-0.032593291 -0.0055641676 0.92000002
-0.028600289 -0.0075828838 0.92100006
-0.061397377 0.0035195798 0.92962503
-0.055228245 0.0041774171 0.92843479
-0.049152598 0.00047172437 0.92875004
-0.080477349 -0.030295053 0.93875003
-0.073817089 -0.03271734 0.93760002
-0.066769809 -0.036250435 0.93362504
-0.045150958 -0.038142022 0.93000007
-0.033000708 -0.036167927 0.93150002
-0.082317166 -0.024469644 0.93825001
-0.077319406 -0.025715232 0.93366671
-0.080338046 -0.018977081 0.93712509
-0.074577034 -0.015840061 0.93344444
-0.065661021 -0.012770204 0.93240005
-0.05843433 -0.01173426 0.93100005
-0.020777632 -0.015811788 0.93150002
-0.018745484 -0.017852193 0.93175006
-0.070062593 -0.009759645 0.93675005
-0.064534388 -0.0058590933 0.93314475
-0.05815449 -0.0074082408 0.93059379
-0.043834604 -0.0030996667 0.93456256
-0.03112142 -0.0056624478 0.93625003
-0.063867293 0.0043888316 0.93347925
-0.059404209 0.0086040152 0.93025005
-0.048780438 0.0025210455 0.93458337
-0.061900973 0.010716937 0.93725002
-0.057442624 0.010650237 0.93141669
-0.022952799 0.056179136 0.93712509
-0.016650448 0.054462373 0.93814588
-0.082838096 -0.030408006 0.94225007
-0.075620756 -0.034529496 0.94225001
-0.061623588 -0.038911015 0.94875002
-0.043847267 -0.038787976 0.94575006
-0.021167981 -0.030625841 0.94900006
-0.092536896 -0.022273457 0.94658345
-0.087293126 -0.023844667 0.94179541
-0.092433743 -0.017492466 0.94908333
-0.084883623 -0.015062409 0.94474995
-0.077377819 -0.013254225 0.94266677
-0.013875993 -0.018145578 0.94706261
-0.0086923148 -0.018134801 0.94650006
-0.082938619 -0.0062033157 0.94699997
-0.074817725 -0.0055298065 0.94283336
-0.068249904 -0.0015767505 0.94000006
-0.042636175 -0.0015798956 0.94187504
-0.039009724 -0.002963084 0.94550008
-0.081270337 0.00048150175 0.94800007
-0.074057661 0.0041172486 0.94409531
-0.067976497 0.005277771 0.94095844
-0.051845089 0.0087011317 0.94075006
-0.045070045 0.005088774 0.94255954
-0.038333617 0.0058652698 0.94755
-0.072017357 0.010851292 0.94900006
-0.064383693 0.013363834 0.9459039
-0.054677766 0.015162829 0.94366187
-0.045809697 0.014915342 0.94360006
-0.035984367 0.015239253 0.94718468
-0.028782962 0.018458433 0.94916672
-0.052052099 0.024123365 0.94760418
-0.044864789 0.025272861 0.94537497
-0.035557382 0.025269255 0.94534987
-0.027642932 0.025778525 0.94657701
-0.050184608 0.031564895 0.94825006
-0.044535406 0.035070825 0.94741184
-0.035542037 0.03558268 0.94486994
-0.028656488 0.0321449 0.94499999
-0.041911449 0.041948088 0.94875002
-0.034768593 0.044184275 0.94629991
-0.027778544 0.045752008 0.94641674
-0.031495377 0.051211245 0.94750005
-0.026548296 0.052855603 0.94517863
-0.023145845 0.060344368 0.94462502
-0.00041357771 0.079309449 0.94925004
0.0037375067 0.078255124 0.94904166
-0.0019713957 0.08192952 0.94956249
0.0037396578 0.082446605 0.94954175
-0.00041172604 0.098573238 0.94500005
0.0054810224 0.097495832 0.94314289
0.0047457349 0.10150253 0.94343752
-0.091861792 -0.032296538 0.9575417
-0.085453309 -0.033337969 0.95535004
-0.077538453 -0.035617191 0.95308334
-0.064871863 -0.038993038 0.95075005
-0.10269039 -0.021926133 0.95714295
-0.095695421 -0.025446134 0.95450008
-0.0045775976 -0.028634721 0.95175004
-0.10249094 -0.016006585 0.95683342
-0.095734909 -0.014561458 0.95226926
-0.089835018 -0.013023056 0.95087504
-0.0067150365 -0.018388668 0.95975006
-0.092274085 -0.007022114 0.95460004
-0.087673947 -0.0054996982 0.95281255
-0.034771603 -0.0026379114 0.95216674
-0.027510529 -0.0078456216 0.95300007
-0.083826467 0.0034144693 0.95587504
-0.078857757 0.006727994 0.95225006
-0.034187458 0.0040498008 0.9524644
-0.029578473 0.0088098086 0.95250005
-0.074089907 0.013002237 0.95464289
-0.06732142 0.016508097 0.95608336
-0.058587771 0.019166896 0.95000005
-0.031586789 0.011903607 0.95025003
-0.028479496 0.013984461 0.95058328
-0.055450767 0.026236355 0.95554167
-0.02398639 0.026652325 0.95793754
-0.051087413 0.034940749 0.95543754
-0.047210678 0.038929958 0.95100003
-0.028050287 0.034871295 0.95368755
-0.04420723 0.04320389 0.95354176
-0.036825113 0.047262453 0.95137501
-0.025148503 0.045042399 0.95575005
-0.033891916 0.052228358 0.95662504
-0.021285085 0.050532583 0.95425004
-0.013482603 0.054428875 0.95572925
-0.0079450039 0.057323784 0.95625007
-0.022561509 0.065301113 0.9529376
-0.014980335 0.064944342 0.95151001
-0.0056812572 0.065646179 0.95375001
-0.014149918 0.073104307 0.95397919
-0.0048577962 0.072381213 0.95706248
0.0030791315 0.074574448 0.95950007
-0.0035332812 0.086711027 0.95078576
0.0031512149 0.087475993 0.9510358
-0.0019767766 0.09438137 0.9521876
0.0043468899 0.093252704 0.95242864
0.011080584 0.09760651 0.95575005
-0.0014605329 0.10174339 0.95537508
0.0056250957 0.10659949 0.95627785
0.014235321 0.10541425 0.95698929
0.02194556 0.10802377 0.95862508
0.0072692162 0.11221949 0.95866674
0.014395074 0.11525523 0.95633334
0.024463527 0.11539951 0.95467705
0.033535097 0.11609354 0.95321429
0.01535835 0.12438717 0.95771676
0.024269987 0.12417921 0.95397228
0.031525958 0.12190493 0.95250005
0.016373537 0.1305231 0.95975006
-0.10004996 -0.03127934 0.96925002
-0.096427768 -0.032197755 0.96487504
-0.078527167 -0.037478361 0.96525007
-0.042463642 -0.039423674 0.96125007
-0.10433125 -0.025018599 0.96125001
-0.099095136 -0.028882934 0.96000004
-0.10763314 -0.018417409 0.96125007
-0.099095136 -0.010001878 0.96000004
-0.023518972 -0.012102924 0.96025002
-0.095301576 -0.0047763735 0.96408337
-0.031952433 -0.0016123952 0.96125007
-0.091027774 0.00048937439 0.96350002
-0.085775703 0.0064568967 0.96366668
-0.031935811 0.00048797761 0.96075004
-0.081821293 0.013387188 0.96362501
-0.075760849 0.017302997 0.96177274
-0.065897278 0.01879712 0.96139294
-0.025732417 0.019459443 0.96450007
-0.072493374 0.021673387 0.96925002
-0.061495569 0.021533631 0.96300006
-0.058025658 0.025761263 0.96366668
-0.024612408 0.022563769 0.96200001
-0.053605381 0.035218362 0.96312499
-0.026161974 0.036078911 0.9674167
-0.051110767 0.041648321 0.96575004
-0.0452011 0.046641164 0.96477771
-0.038219355 0.048751876 0.96025002
-0.02431646 0.043412983 0.96817857
-0.01950999 0.04817459 0.96975005
-0.038468115 0.051181287 0.96650004
-0.027180927 0.065582 0.9659583
-0.022122569 0.074009396 0.96806252
-0.016514344 0.077464446 0.96500009
-0.004451456 0.076650009 0.96141672
-0.02161688 0.082028776 0.96912503
-0.01474354 0.084518462 0.96676141
-0.0072158137 0.083117604 0.96397233
0.0058894507 0.088737629 0.96150005
-0.011018137 0.09154737 0.96900004
-0.0067612524 0.092884265 0.96637505
0.0069529852 0.092045091 0.96312499
0.014879684 0.097488932 0.96493751
0.021407301 0.098994426 0.96591669
-0.00042207364 0.10845988 0.96875006
0.0027435846 0.1090928 0.96500003
0.018506182 0.10134467 0.96150005
0.025236351 0.10526511 0.962547
0.032280516 0.10905014 0.964625
-0.00042139288 0.11356888 0.96718752
0.0040938137 0.11546232 0.96410722
0.028982395 0.11170511 0.96025002
0.036676321 0.11378487 0.96600002
0.0060706637 0.12344042 0.96314591
0.010786916 0.12610534 0.96070838
0.026987324 0.12899444 0.96400005
0.034303013 0.12350406 0.96224999
0.014601444 0.13214013 0.963875
-0.10293393 -0.031513311 0.97650003
-0.096247047 -0.034609988 0.97362506
-0.081682429 -0.037963703 0.97775006
-0.068394735 -0.039833806 0.97125006
-0.11111955 -0.02184109 0.97337508
-0.10741409 -0.027617708 0.97450006
-0.11228565 -0.016993567 0.97610009
-0.10667686 -0.012808918 0.97409379
0.020892974 -0.018676067 0.97475004
-0.10125159 -0.0073086605 0.97400004
-0.097445309 -0.0027010697 0.97500002
-0.092094302 0.0033429505 0.97483343
-0.08852765 0.0068583107 0.97075009
-0.030160727 0.0068607503 0.97125006
-0.084090471 0.016471703 0.97468758
-0.026607201 0.014634362 0.97075003
-0.078095332 0.021757241 0.97300005
-0.066425458 0.021770284 0.9735834
-0.022887886 0.025076047 0.97812504
-0.056604154 0.034521099 0.97305012
-0.0225046 0.034304414 0.97704172
-0.05355351 0.040841442 0.97175002
-0.015710164 0.048444021 0.97090006
-0.04076029 0.051406346 0.97075003
-0.03339339 0.056814261 0.97256255
-0.011055092 0.051485777 0.97225004
-0.0089287935 0.053610444 0.97225004
-0.0025519368 0.064295061 0.9731667
-0.025385337 0.07443323 0.97133332
0.004907243 0.07453353 0.97493756
-0.023959838 0.081732385 0.97825003
0.0081183081 0.083734967 0.97666675
-0.013215285 0.092090607 0.97475004
-0.0068026404 0.096094787 0.97216672
0.0081075719 0.091082677 0.97537506
0.01077381 0.092673831 0.97531253
-0.0029183247 0.10538796 0.97624999
0.027372949 0.1030646 0.97783345
0.031535618 0.10694661 0.97425002
-0.002128484 0.11541335 0.97380006
0.036744718 0.12465206 0.97118759
-0.041295644 -0.040336214 0.98350006
-0.10579581 -0.031731144 0.98325002
-0.032858238 -0.0383811 0.98850006
-0.028289195 -0.035909463 0.98000002
-0.11363361 -0.023125073 0.98283339
-0.11504318 -0.014049144 0.98646873
-0.1077266 -0.010223274 0.98125005
-0.021859452 -0.014493453 0.98000002
-0.019716205 -0.016635053 0.98000002
-0.0047471384 -0.018910775 0.98700005
0.019001797 -0.018915564 0.98725003
0.029835042 -0.018939514 0.98850006
-0.10395363 -0.0059650727 0.98616672
-0.09947104 -0.0016513945 0.98450005
-0.094484568 0.00449397 0.98382145
-0.091273978 0.01130867 0.98900002
-0.087612867 0.015599799 0.98675001
-0.082413413 0.022059113 0.98650002
-0.072877131 0.025585817 0.98395842
-0.065200053 0.026418583 0.98253572
-0.06352295 0.033455756 0.98351675
-0.058473121 0.037018131 0.98300004
-0.022931077 0.039046574 0.98000002
-0.019877153 0.038285784 0.98800004
-0.054128122 0.043425027 0.98216677
-0.048780229 0.048814327 0.98262507
-0.022581486 0.041916419 0.98033339
-0.016038286 0.045139316 0.98450005
-0.043113027 0.053926416 0.98575002
-0.037866861 0.057334531 0.98758334
-0.033712354 0.065105289 0.98739702
-0.03122074 0.072048232 0.98225003
-0.024063496 0.083498918 0.98233342
-0.019741353 0.08841604 0.98125005
-0.013976782 0.096655942 0.98770452
-0.008356832 0.09914171 0.98841667
0.015926559 0.095133558 0.98425007
0.02211841 0.098127037 0.98187506
-0.011958674 0.10453245 0.9883334
-0.0073373951 0.10552416 0.98685008
-0.0060822163 0.1126392 0.98446882
-0.10275959 -0.034301948 0.99550003
-0.098405302 -0.03647742 0.99550003
-0.085063808 -0.038526703 0.99225003
-0.024370089 -0.034284718 0.99500006
-0.1154001 -0.025600767 0.99560004
-0.12037293 -0.015835002 0.99712509
-0.11528099 -0.010323119 0.99083334
0.016991971 -0.019083213 0.99600005
-0.11246356 -0.0060014511 0.99332142
-0.10702348 -0.0038378169 0.99467498
-0.10393332 0.0026859459 0.99709606
-0.096374683 0.0074433289 0.99250001
-0.03081285 0.004840719 0.99225003
-0.028635595 0.0091751497 0.99200004
-0.092519417 0.012410682 0.99075007
-0.026459433 0.013507394 0.99175006
-0.079127662 0.024534021 0.99950004
-0.024357842 0.020064713 0.99450004
-0.070208035 0.033187661 0.99700004
-0.0658525 0.037548482 0.99708337
-0.02007331 0.035393018 0.99775004
-0.061501741 0.041913174 0.99725002
-0.056572694 0.044862613 0.99495
-0.01240918 0.047284655 0.99562502
-0.050584193 0.050617673 0.99700004
-0.045181021 0.056124501 0.99806255
-0.0069651664 0.057067934 0.99550003
-0.038908418 0.064330384 0.99575001
-0.0015158023 0.065489039 0.99125004
-0.028577862 0.078387193 0.99000007
-0.024353251 0.086709261 0.99441671
-0.021167677 0.093184352 0.99787503
-0.018358227 0.094952375 0.99350005
0.027778333 0.10242384 0.99233341
-0.073223434 -0.041361537 1.0085001
-0.11282721 -0.0314161 1.0076251
-0.01802573 -0.030244345 1.0052501
-0.0069984011 -0.030093914 1.0002501
-0.12247163 -0.022259444 1.0084168
-0.11846685 -0.027043276 1.0087501
-0.12335859 -0.014898536 1.0072501
0.014999648 -0.019322712 1.0085001
-0.11654121 -0.0060593635 1.0016667
-0.10230824 0.0081718555 1.00175
-0.099023111 0.0092653288 1.00175
-0.093808368 0.014779877 1.0045625
-0.085278906 0.022431472 1.0032501
-0.076522171 0.028057419 1.008375
-0.022366904 0.026805112 1.00275
-0.072067283 0.033544958 1.00775
-0.068744041 0.037940573 1.0075001
-0.063320227 0.043505747 1.008875
-0.056680508 0.047896795 1.0085001
-0.015831197 0.042259913 1.0055001
-0.00043808523 0.066430502 1.0055001
-0.032837898 0.07621827 1.00425
0.0050408076 0.075075783 1.0037501
-0.027830523 0.084817842 1.0020626
0.010504499 0.08796417 1.0005001
-0.022368982 0.093684733 1.0031251
0.016453106 0.093635477 1.0010357
-0.088992156 -0.039303258 1.0122501
0.012857501 -0.032707367 1.0135001
-0.12749125 -0.022497097 1.0191667
-0.13257368 -0.016172191 1.01825
-0.12805016 -0.014639769 1.0171592
-0.0026633281 -0.01945683 1.0155001
0.011733933 -0.01939456 1.0122499
-0.12458416 -0.0074847182 1.0172501
-0.11773249 -0.0039087324 1.0119168
-0.031395104 -0.0039051913 1.011
-0.11229198 0.0016212473 1.01275
-0.10692968 0.0071667652 1.0144167
-0.031620242 0.002742372 1.0182501
-0.10045644 0.011620259 1.01625
-0.024951788 0.018327693 1.0187501
-0.085065849 0.024994265 1.0182501
-0.072889954 0.036154591 1.01925
-0.065286025 0.045346644 1.0145556
-0.057884663 0.04908267 1.0102501
-0.053796262 0.052349597 1.0165
-0.048275355 0.057202451 1.0172501
-0.0092754746 0.053484838 1.01
-0.042548079 0.063247167 1.01325
0.001772752 0.069088534 1.0122501
0.0039825919 0.07344006 1.01125
-0.10544342 -0.036313973 1.0215
-0.12418761 -0.026290739 1.0225
-0.13397278 -0.011812419 1.0261251
0.0073958463 -0.019631665 1.0246251
-0.1307812 -0.0084597319 1.0275
-0.12354343 -0.0039567114 1.0233126
-0.11887656 -0.0017138775 1.0217501
-0.11480725 0.0032089099 1.0253001
-0.10823084 0.0094965575 1.0267501
-0.02944386 0.0072051124 1.0200001
-0.10386615 0.011754613 1.028
-0.099393874 0.014004515 1.0282501
-0.027246479 0.011677431 1.02125
-0.022785133 0.025074039 1.0215
-0.020661779 0.034186285 1.0270001
-0.01841126 0.038665496 1.0267501
-0.070228092 0.045507319 1.02925
-0.066798218 0.048941653 1.0226667
-0.011654893 0.047559354 1.0250001
-0.063095637 0.055298585 1.0230626
-0.05578801 0.056195755 1.0224584
-0.04983598 0.058845043 1.0265001
-0.062057346 0.064011551 1.0270715
-0.056045759 0.063562185 1.0271667
-0.046489529 0.062796563 1.0269375
-0.002683104 0.063238703 1.0249166
-0.11589108 -0.033401206 1.0350001
-0.13235407 -0.023133386 1.031
-0.12662493 -0.026493678 1.0302501
-0.13741472 -0.015280223 1.03345
-0.00044963098 -0.019772967 1.0320001
0.0029351148 -0.019768178 1.0317501
-0.13304368 -0.0073999939 1.036375
-0.12580261 -0.0028604937 1.03275
-0.032000646 -0.0017285546 1.0305001
-0.12159244 0.0016586895 1.0353751
-0.11713426 0.0039238045 1.036
-0.032000646 0.00052340457 1.0305001
-0.081957892 0.027673889 1.0352501
-0.079693809 0.02993623 1.0352501
-0.023181057 0.023238655 1.03925
-0.076197311 0.034413226 1.033875
-0.071773678 0.044660345 1.035375
-0.068637595 0.052762702 1.03925
-0.0083550969 0.054689571 1.03275
-0.093796365 -0.040419549 1.041
-0.12152342 -0.031425234 1.0445
-0.14046711 -0.020108266 1.0495001
-0.13500656 -0.024674162 1.0486666
-0.12624294 -0.029177556 1.04575
-0.14033327 -0.010923927 1.0485001
-0.13475712 -0.0063364408 1.0466667
-0.12816125 -0.0017491026 1.04275
-0.12324256 0.0039565628 1.0445626
-0.11664964 0.0082327407 1.0443125
-0.10524361 0.013048134 1.041625
-0.097339064 0.017614443 1.0423751
-0.025637578 0.016543951 1.0467501
-0.092980012 0.022218116 1.044625
-0.089693137 0.025681563 1.0462501
-0.075637594 0.039230365 1.0417501
-0.073306479 0.043751929 1.041
-0.016492469 0.041736007 1.0475
-0.078757316 -0.043186612 1.0530001
-0.11338148 -0.036309067 1.05375
-0.009716291 -0.031831402 1.0580001
-0.13293713 -0.0029168797 1.0535001
-0.03049027 -0.0063882093 1.0562501
-0.126173 0.0058126794 1.0561072
-0.030396454 0.0051370901 1.0530001
-0.028093556 0.0097393477 1.0530001
-0.12175003 0.012079068 1.056375
-0.11475881 0.012072635 1.0558126
-0.10422537 0.015512262 1.0543751
-0.086113453 0.0282954 1.0585001
-0.023571406 0.02132065 1.0567501
-0.082650684 0.031769007 1.058625
-0.079187371 0.035243165 1.05875
-0.021235157 0.032828387 1.0555
-0.091236234 -0.043648005 1.06425
-0.087744981 -0.043648005 1.06425
-0.036425911 -0.042354591 1.0610001
-0.11019173 -0.039115664 1.0675
-0.028327001 -0.038904972 1.0617501
-0.016764065 -0.032034487 1.0647501
-0.14432669 -0.013372406 1.0610001
-0.1420732 -0.0087396652 1.0615001
-0.13758038 -0.0041038534 1.0626668
-0.1318745 0.0017022029 1.0635
-0.12877807 0.0087039396 1.06675
-0.12680069 0.012232003 1.0697501
-0.11014012 0.01453228 1.067
-0.10325821 0.018052081 1.0682501
-0.099280059 -0.041768808 1.07575
-0.083987832 -0.044119652 1.07575
-0.12494027 -0.033482805 1.0738751
-0.021697884 -0.034805022 1.0785
-0.13405302 -0.028728992 1.071625
-0.14599304 -0.018217931 1.0732501
-0.024003558 -0.013561969 1.0760833
-0.016901828 -0.018222174 1.0735
-0.1437903 -0.0064970311 1.0743333
-0.13930753 -0.0018048761 1.0760001
-0.028760543 -0.0088755144 1.0780001
-0.13483603 0.004081382 1.077875
-0.031132549 0.0029046384 1.0785
-0.028733863 0.0076077506 1.077
-0.13001545 0.012314902 1.077
-0.1234481 0.014588461 1.071125
-0.11548805 0.014618538 1.0733334
-0.10632484 0.018176017 1.0756251
-0.025112493 0.016963879 1.0732501
-0.01477441 -0.018498011 1.0897501
-0.14488499 -0.0041824668 1.0825
-0.031201109 -0.002993939 1.0808752
-0.1408935 0.0029308973 1.08825
-0.13800037 0.0045068394 1.0842501
-0.031211933 0.00054918119 1.0812501
-0.133139 0.010019134 1.08325
-0.096157238 -0.044857886 1.09375
-0.12010486 -0.037695963 1.0940001
-0.013651328 -0.032952119 1.09525
-0.01120694 -0.01851074 1.0905001
-0.0040596691 -0.018551055 1.0928751
0.005496372 -0.018545752 1.0925626
0.013860078 -0.018544691 1.0925001
-0.14807698 -0.0026324943 1.0944167
-0.10441976 -0.042914223 1.10525
-0.13772847 -0.030719092 1.1010001
-0.00048328796 -0.03579738 1.1092501
0.0055530909 -0.03566426 1.1051251
-0.15247518 -0.013903871 1.1031667
-0.023381278 -0.012688031 1.1022501
-0.019742679 -0.016282951 1.1010001
0.018877124 -0.018782334 1.1065
-0.11769147 -0.040911138 1.1165
-0.13408975 -0.033418458 1.1107501
-0.12931861 -0.03586999 1.1115
-0.0029111707 -0.035821579 1.11
-0.15170626 -0.021368027 1.1152501
-0.14804769 -0.025023773 1.1152501
-0.10505467 -0.04491058 1.125
-0.12630448 -0.0388675 1.128
