# .PCD v0.7 - Point Cloud Data file format
VERSION 0.7
FIELDS x y z rgb
SIZE 4 4 4 4
TYPE F F F U
COUNT 1 1 1 1
WIDTH 1096
HEIGHT 1
VIEWPOINT 0 0 0 1 0 0 0
POINTS 1096
DATA ascii
0.16478617 -0.094688654 0.60375005 23941
0.16617535 -0.094727859 0.60400003 420498
0.1695068 -0.095864914 0.61125004 3049386
0.17147246 -0.096217789 0.61350006 3636892
0.17295502 -0.096296199 0.61400002 3177113
0.17443976 -0.096374623 0.61450005 2849951
0.17585519 -0.096413828 0.61475003 2522272
0.17719965 -0.096413828 0.61475003 2653858
0.17861669 -0.096453033 0.61500001 3047585
0.1799617 -0.096453033 0.61500001 3047585
0.18130669 -0.096453033 0.61500001 3507109
0.18265168 -0.096453033 0.61500001 4097191
0.18399668 -0.096453033 0.61500001 3965346
-0.077339344 -0.095611684 0.61825001 28565
-0.076048702 -0.095689014 0.61875004 28566
-0.07475587 -0.095766343 0.61925006 28310
-0.073431201 -0.095804997 0.61950004 28569
-0.072105452 -0.095843658 0.61975002 27799
-0.070750065 -0.095843658 0.61975002 28310
-0.069394678 -0.095843658 0.61975002 28310
-0.068039291 -0.095843658 0.61975002 28821
-0.066657014 -0.095804997 0.61950004 28308
-0.065275818 -0.095766343 0.61925006 28308
-0.063921526 -0.095766343 0.61925006 28051
-0.062541969 -0.095727675 0.61900002 28052
-0.061163519 -0.095689014 0.61875004 28820
-0.059810318 -0.095689014 0.61875004 159382
-0.058457121 -0.095689014 0.61875004 26513
-0.05708085 -0.095650353 0.61850005 27798
-0.055683147 -0.095573023 0.61800003 28053
-0.054045863 -0.095070414 0.61475003 1081506
-0.052272771 -0.094297171 0.60975003 1674924
-0.050897487 -0.094219841 0.60925001 754086
-0.049524385 -0.094142526 0.60875005 25746
-0.048153475 -0.094065197 0.60825002 22148
-0.046803992 -0.094026536 0.60800004 489119
-0.045436908 -0.093949206 0.60750002 2922938
-0.044108313 -0.093949206 0.60750002 1080225
-0.042762116 -0.093910553 0.60725003 947610
-0.041434065 -0.093910553 0.60725003 1407389
-0.040106021 -0.093910553 0.60725003 750490
-0.03877797 -0.093910553 0.60725003 620187
-0.037434503 -0.093871891 0.60700005 293789
-0.036092129 -0.093833223 0.60675001 1017512
-0.034750849 -0.093794562 0.60650003 295590
-0.033396889 -0.093717232 0.60600001 32931
-0.032058343 -0.093678571 0.60575002 2399161
-0.021257173 -0.070906527 0.45850003 13082181
-0.01796836 -0.062903441 0.40675002 15117362
-0.017047312 -0.062787458 0.40600002 15642413
-0.016129544 -0.062671468 0.40525001 16037171
-0.015215056 -0.062555484 0.40450001 16036920
-0.014294992 -0.062400833 0.40350002 16168506
-0.013379303 -0.062246189 0.40250003 16102713
-0.012467986 -0.062091537 0.40150002 16103734
-0.01156826 -0.06197555 0.40075001 15972148
-0.010671816 -0.061859559 0.40000001 16102964
-0.0097786514 -0.06174358 0.39925003 16102966
-0.0088887671 -0.061627589 0.39850003 15972148
-0.0080021638 -0.061511602 0.39775002 16102961
-0.0071143582 -0.061356958 0.39675003 16102966
-0.0062309257 -0.061202306 0.39575002 16037173
-0.0053552575 -0.061086316 0.39500001 15971123
-0.0044800271 -0.060931671 0.39400002 16102709
-0.00360917 -0.06077702 0.39300001 16102456
-0.0027426875 -0.060622372 0.39200002 16036920
-0.0018805786 -0.060467724 0.39100003 16168757
-0.0010221881 -0.060274411 0.38975 16103736
-0.00016926514 -0.060081098 0.38850001 15972669
0.00067862822 -0.05992645 0.38750002 16038462
0.0015231322 -0.059810463 0.38675001 16038462
0.0023643556 -0.059694476 0.38600001 16170559
0.0032022987 -0.059578493 0.38525003 16039745
0.0040395861 -0.059501167 0.38475001 16039226
0.0048778579 -0.059462506 0.38450003 15973182
0.005711318 -0.059385177 0.384 15441703
0.0065425909 -0.059307855 0.38350001 15767576
0.0073668654 -0.059191868 0.38275 16428341
0.0081932181 -0.059114546 0.38225001 16168506
0.0090114782 -0.058998555 0.38150001 16103736
0.0098264581 -0.058882572 0.38075003 16037690
0.010638157 -0.058766585 0.38000003 16103483
0.011446575 -0.058650598 0.37925002 16103736
0.012251713 -0.058534611 0.37850001 16170563
0.013053571 -0.058418624 0.37775001 15907391
0.013833776 -0.058225311 0.37650001 16170309
0.014608514 -0.058032002 0.37525001 16039497
0.015346947 -0.057722703 0.37325001 15973184
0.016087459 -0.057452068 0.37150002 16038464
0.016865807 -0.057336081 0.37075001 16038212
0.017652793 -0.057258759 0.37025002 16038210
0.018450059 -0.057220094 0.37 16038723
0.019246232 -0.057181433 0.36975002 15973182
0.020041309 -0.057142772 0.36950001 16170563
0.020835297 -0.057104111 0.36925003 15907909
0.021628188 -0.057065446 0.36900002 16038725
0.022419985 -0.057026781 0.36875001 15972421
0.023226438 -0.057026781 0.36875001 16103233
0.024049181 -0.057065446 0.36900002 16037694
0.024856182 -0.057065446 0.36900002 16102717
0.025680566 -0.057104111 0.36925003 16102715
0.026506046 -0.057142772 0.36950001 16102463
0.027351096 -0.057220094 0.37 16036924
0.028198339 -0.057297423 0.37050003 15904309
0.029067338 -0.057413403 0.37125 16165426
0.02993962 -0.057529394 0.37200001 16100153
0.03081518 -0.05764538 0.37275001 15706169
0.031694025 -0.057761367 0.37350002 15508536
0.032597907 -0.057916015 0.37450001 15179821
0.033483859 -0.058032002 0.37525001 15377200
0.034395944 -0.058186654 0.37625003 15048485
0.035312403 -0.058341298 0.37725002 15245864
0.036233235 -0.05849595 0.37825003 14852398
0.037133947 -0.058611933 0.37900001 14326822
0.038062982 -0.058766585 0.38000003 14063652
0.038970802 -0.058882572 0.38075003 14259236
0.0398819 -0.058998555 0.38150001 14916651
0.04079628 -0.059114546 0.38225001 15114543
0.04174117 -0.059269194 0.38325003 14786346
0.042718209 -0.059462506 0.38450003 14786605
0.043700717 -0.059655815 0.38575003 14522929
0.044717554 -0.059887789 0.38725001 14259757
0.045740962 -0.060119763 0.38875002 13998377
0.046740964 -0.060313072 0.39000002 14456879
0.047776945 -0.06054505 0.39150003 14784815
0.048788425 -0.060738359 0.39275002 15114291
0.049836975 -0.060970329 0.39425001 14918189
0.050859947 -0.061163642 0.3955 15049772
0.051855683 -0.061318293 0.39650002 15311920
0.05285579 -0.061472937 0.39750001 15705395
0.053860277 -0.061627589 0.39850003 15639854
0.054834805 -0.06174358 0.39925003 15770668
0.055812605 -0.061859559 0.40000001 15704877
0.056829117 -0.062014211 0.40100002 15509040
0.057814028 -0.062130202 0.40175003 15180336
0.058838747 -0.062284846 0.40275002 15181104
0.059867837 -0.062439498 0.40375003 14917934
0.060901295 -0.062594146 0.40475002 14786350
0.06190097 -0.062710136 0.40550002 14589492
0.062865213 -0.062787458 0.40600002 14327355
0.10066709 -0.093910553 0.60725003 22402
0.10203712 -0.093949206 0.60750002 25487
0.10336572 -0.093949206 0.60750002 97957
0.10473741 -0.093987875 0.60775006 32931
0.10606655 -0.093987875 0.60775006 30878
0.10739569 -0.093987875 0.60775006 24973
0.10872483 -0.093987875 0.60775006 23949
0.11005397 -0.093987875 0.60775006 93337
0.11142893 -0.094026536 0.60800004 29080
0.11280498 -0.094065197 0.60825002 29594
0.11418212 -0.094103858 0.6085 26773
0.11556037 -0.094142526 0.60875005 23179
0.1169397 -0.094181187 0.60900003 28568
0.11827157 -0.094181187 0.60900003 885933
0.11960345 -0.094181187 0.60900003 29085
0.12088569 -0.094142526 0.60875005 29340
0.12216682 -0.094103858 0.6085 821164
0.12344686 -0.094065197 0.60825002 162214
0.12472581 -0.094026536 0.60800004 25748
0.12600367 -0.093987875 0.60775006 25492
0.12728043 -0.093949206 0.60750002 92824
0.1285561 -0.093910553 0.60725003 25490
0.12988415 -0.093910553 0.60725003 24719
0.13121219 -0.093910553 0.60725003 753574
0.13248569 -0.093871891 0.60700005 951978
0.13381319 -0.093871891 0.60700005 29340
0.13514069 -0.093871891 0.60700005 28056
0.13646819 -0.093871891 0.60700005 27027
0.13773893 -0.093833223 0.60675001 488865
0.13906589 -0.093833223 0.60675001 1279664
0.14033499 -0.093794562 0.60650003 688295
0.14160301 -0.093755901 0.60625005 24978
0.14292888 -0.093755901 0.60625005 22157
0.14419524 -0.093717232 0.60600001 421021
0.14552055 -0.093717232 0.60600001 1017260
0.14684586 -0.093717232 0.60600001 556195
0.14811006 -0.093678571 0.60575002 29083
0.14943483 -0.093678571 0.60575002 28057
0.15069738 -0.093639918 0.60550004 224410
0.15189607 -0.093562588 0.60500002 25749
0.15315589 -0.093523927 0.60475004 26004
0.15441461 -0.093485266 0.60450006 1081254
0.15567222 -0.093446597 0.60425001 1740206
0.15692876 -0.093407944 0.60400003 554912
0.1581842 -0.093369283 0.60375005 227494
0.15943854 -0.093330614 0.60350001 690096
0.16069178 -0.093291953 0.60325003 293537
0.16194397 -0.093253292 0.60300004 290457
0.16326272 -0.093253292 0.60300004 158869
0.16451323 -0.093214624 0.60275 289939
0.16590023 -0.093253292 0.60300004 21888
0.16735762 -0.093330614 0.60350001 350603
0.17084359 -0.094529144 0.61125004 2458019
0.17274375 -0.09483844 0.61325002 2522009
0.17422687 -0.09491577 0.61375004 2260124
0.17564064 -0.094954431 0.61400002 2457249
0.17698346 -0.094954431 0.61400002 2719392
0.17832626 -0.094954431 0.61400002 2719392
0.17974222 -0.094993085 0.61425 3047587
0.18108557 -0.094993085 0.61425 3637927
0.18242893 -0.094993085 0.61425 3572132
0.18369749 -0.094954431 0.61400002 3507109
-0.078500539 -0.094031915 0.61675 28565
-0.077214256 -0.094108149 0.61725003 28051
-0.075925797 -0.094184384 0.61775005 28308
-0.074604966 -0.094222501 0.61800003 28567
-0.07331267 -0.094298735 0.61850005 28823
-0.071989104 -0.094336852 0.61875004 28823
-0.070635907 -0.094336852 0.61875004 28310
-0.069282711 -0.094336852 0.61875004 28310
-0.067929506 -0.094336852 0.61875004 28821
-0.06657631 -0.094336852 0.61875004 28565
-0.06519676 -0.094298735 0.61850005 28308
-0.063818298 -0.094260611 0.61825001 28565
-0.062440936 -0.094222501 0.61800003 27795
-0.061089378 -0.094222501 0.61800003 27795
-0.059713654 -0.094184384 0.61775005 27798
-0.058362644 -0.094184384 0.61775005 27797
-0.056850128 -0.093917578 0.61600006 488601
-0.054849703 -0.092812218 0.60875005 2525606
-0.053474415 -0.092735976 0.60825002 2001575
-0.052144177 -0.092735976 0.60825002 26256
-0.050813947 -0.092735976 0.60825002 21123
-0.049463373 -0.092697866 0.60800004 23945
-0.048113894 -0.092659749 0.60775006 815254
-0.046765503 -0.092621632 0.60750002 26256
-0.045399517 -0.092545405 0.60700005 687779
-0.044053856 -0.09250728 0.60675001 2332341
-0.042709302 -0.092469171 0.60650003 752543
-0.04138289 -0.092469171 0.60650003 553627
-0.040056486 -0.092469171 0.60650003 619674
-0.038730074 -0.092469171 0.60650003 1474981
-0.03738825 -0.092431054 0.60625005 1083818
-0.036047515 -0.092392936 0.60600001 29598
-0.034707878 -0.092354819 0.60575002 23949
-0.033369336 -0.092316709 0.60550004 22920
-0.03201865 -0.092240475 0.60500002 96158
-0.019924253 -0.065521233 0.42975003 14197816
-0.017957317 -0.061976448 0.40650001 15577141
-0.017047312 -0.061900217 0.40600002 15839792
-0.016119594 -0.061747756 0.40500003 16102713
-0.015196249 -0.061595291 0.40400001 16102713
-0.014277278 -0.06144283 0.40300003 16168506
-0.013362681 -0.061290361 0.40200001 16037943
-0.01245246 -0.0611379 0.40100002 16037941
-0.011553828 -0.061023552 0.40025002 16038195
-0.010658476 -0.060909204 0.39950001 16102964
-0.0097664045 -0.060794856 0.39875001 16037941
-0.0088776145 -0.060680512 0.39800003 16102964
-0.0079921046 -0.060566165 0.39725003 16102966
-0.0071053919 -0.060413696 0.39625001 16102966
-0.0062269894 -0.060299348 0.3955 16168757
-0.0053484789 -0.060146887 0.39450002 16037173
-0.0044743419 -0.059994426 0.39350003 16168759
-0.0036068743 -0.059880078 0.39275002 16037690
-0.0027409382 -0.059727609 0.39175001 16169011
-0.0018793761 -0.059575148 0.39075002 16038713
-0.0010215325 -0.05938457 0.38950002 16038460
-0.00016926514 -0.059232105 0.38850001 15973433
0.00067862822 -0.059079643 0.38750002 15972920
0.0015221477 -0.058927182 0.38650003 16170559
0.0023628243 -0.058812831 0.38575003 16038973
0.0032022987 -0.0587366 0.38525003 16170810
0.0040395861 -0.058660366 0.38475001 16303942
0.0048778579 -0.058622252 0.38450003 15712577
0.005711318 -0.058546018 0.384 15841083
0.0065425909 -0.058469787 0.38350001 15507747
0.0073668654 -0.058355439 0.38275 15636492
0.0081932181 -0.058279209 0.38225001 16428074
0.0090173837 -0.058202974 0.38175002 16168249
0.0098329093 -0.058088627 0.38100001 16037941
0.010652154 -0.058012396 0.38050002 16103736
0.011461666 -0.057898048 0.37975001 16103736
0.012267898 -0.057783701 0.37900001 15972920
0.01307085 -0.057669356 0.37825003 16104253
0.013879705 -0.057593122 0.37775001 16038977
0.014676642 -0.057478771 0.377 16039747
0.0154703 -0.057364427 0.37625003 16039493
0.016249849 -0.057211962 0.37525001 16105286
0.017036397 -0.057097614 0.37450001 16039752
0.017807746 -0.056945153 0.37350002 16039495
0.018587187 -0.056830805 0.37275001 16038727
0.019376362 -0.056754574 0.37225002 15972417
0.020163348 -0.056678344 0.37175003 15971899
0.020962255 -0.056640223 0.37150002 16234301
0.021745414 -0.056563992 0.37100002 15906626
0.022541586 -0.056525875 0.37075001 16037440
0.023336666 -0.056487761 0.37050003 15971647
0.024146944 -0.056487761 0.37050003 16102465
0.024974063 -0.056525875 0.37075001 16102208
0.025802275 -0.056563992 0.37100002 15904829
0.026631581 -0.056602105 0.37125 16035897
0.027480461 -0.056678344 0.37175003 15969850
0.028331529 -0.056754574 0.37225002 16034614
0.029204357 -0.056868922 0.37300003 16034614
0.030080467 -0.05698327 0.37375003 15969591
0.030959852 -0.057097614 0.37450001 15837753
0.031821311 -0.057173848 0.37500003 15443508
0.032706711 -0.057288192 0.37575001 15377713
0.033595398 -0.05740254 0.37650001 15180586
0.034487359 -0.057516892 0.37725002 15180586
0.035382606 -0.057631239 0.37800002 15114280
0.036257181 -0.05770747 0.37850001 14720553
0.037158441 -0.057821818 0.37925002 14261029
0.038062982 -0.057936165 0.38000003 14194466
0.038945213 -0.058012396 0.38050002 14785317
0.039855767 -0.058126744 0.38125002 15180075
0.040769603 -0.058241095 0.38200003 15245616
0.041713942 -0.058393557 0.38300002 15048752
0.042690434 -0.058584135 0.38425002 14523435
0.043672394 -0.058774713 0.38550001 14326826
0.04468869 -0.059003413 0.38700002 14129963
0.045711543 -0.059232105 0.38850001 13998631
0.046740964 -0.0594608 0.39000002 14523435
0.047746435 -0.059651379 0.39125001 14916912
0.048757371 -0.059841961 0.39250001 15048237
0.049773771 -0.060032539 0.39375001 15312174
0.050795648 -0.060223117 0.39500001 15312692
0.051790293 -0.060375582 0.39600003 15509040
0.052789308 -0.060528047 0.39700001 15902256
0.053758908 -0.060642395 0.39775002 16165173
0.054731797 -0.060756743 0.39850003 15836465
0.055707958 -0.060871091 0.39925003 15902258
0.056722827 -0.061023552 0.40025002 15508270
0.057706099 -0.0611379 0.40100002 15509040
0.058729175 -0.061290361 0.40200001 15312174
0.059756625 -0.06144283 0.40300003 15049770
0.060788445 -0.061595291 0.40400001 14918191
0.061786477 -0.061709639 0.40475002 14851891
0.062749088 -0.061785869 0.40525001 14654519
0.10054276 -0.092469171 0.60650003 25743
0.10186917 -0.092469171 0.60650003 424869
0.10323811 -0.09250728 0.60675001 493230
0.10460816 -0.092545405 0.60700005 164779
0.10593566 -0.092545405 0.60700005 31138
0.10726316 -0.092545405 0.60700005 26516
0.10863538 -0.092583515 0.60725003 28057
0.10996342 -0.092583515 0.60725003 28826
0.1113373 -0.092621632 0.60750002 28823
0.11271226 -0.092659749 0.60775006 29083
0.1140883 -0.092697866 0.60800004 28572
0.11546545 -0.092735976 0.60825002 25490
0.11679569 -0.092735976 0.60825002 19588
0.11817447 -0.092774093 0.6085 27548
0.11945616 -0.092735976 0.60825002 98988
0.12078638 -0.092735976 0.60825002 33192
0.12206644 -0.092697866 0.60800004 27801
0.12334539 -0.092659749 0.60775006 22670
0.12462324 -0.092621632 0.60750002 26261
0.1259 -0.092583515 0.60725003 684188
0.12717569 -0.092545405 0.60700005 290203
0.12845024 -0.09250728 0.60675001 29084
0.12977719 -0.09250728 0.60675001 26003
0.13105014 -0.092469171 0.60650003 21125
0.13237655 -0.092469171 0.60650003 423842
0.13364784 -0.092431054 0.60625005 491945
0.1349737 -0.092431054 0.60625005 28830
0.13629957 -0.092431054 0.60625005 555941
0.13762544 -0.092431054 0.60625005 1147565
0.13889399 -0.092392936 0.60600001 94111
0.1402193 -0.092392936 0.60600001 23953
0.14148623 -0.092354819 0.60575002 223640
0.142811 -0.092354819 0.60575002 486039
0.14407627 -0.092316709 0.60550004 23695
0.14540049 -0.092316709 0.60550004 355226
0.14672472 -0.092316709 0.60550004 1543088
0.1479878 -0.092278585 0.60525 97441
0.14924981 -0.092240475 0.60500002 28826
0.15051071 -0.092202358 0.60475004 26261
0.15177055 -0.092164248 0.60450006 159134
0.15302925 -0.092126124 0.60425001 1475760
0.15428688 -0.092088014 0.60400003 1410219
0.155479 -0.092011772 0.60350001 26261
0.1567339 -0.091973662 0.60325003 23438
0.1579877 -0.091935545 0.60300004 22919
0.15924039 -0.091897428 0.60275 488867
0.160492 -0.091859311 0.60250002 1346225
0.16174254 -0.091821201 0.60225004 687266
0.16305965 -0.091821201 0.60225004 159384
0.16437677 -0.091821201 0.60225004 420762
0.16569388 -0.091821201 0.60225004 943760
0.16701099 -0.091821201 0.60225004 20860
0.16839798 -0.091859311 0.60250002 876682
0.17182827 -0.093002789 0.61000001 2589087
0.17394298 -0.09342207 0.61275005 2456731
0.17535459 -0.09346018 0.61300004 2259870
0.17676727 -0.093498297 0.61325002 2784161
0.17818105 -0.093536422 0.61350006 3112353
0.17952277 -0.093536422 0.61350006 2849951
0.18086448 -0.093536422 0.61350006 3375525
0.1822062 -0.093536422 0.61350006 3572132
0.18347311 -0.093498297 0.61325002 3703203
0.18481427 -0.093498297 0.61325002 3376293
0.18607958 -0.09346018 0.61300004 3376548
-0.082312778 -0.092421144 0.61500001 28308
-0.081000701 -0.092458725 0.61525005 28308
-0.079687528 -0.092496291 0.61550003 28821
-0.078373253 -0.092533857 0.61575001 29078
-0.077057891 -0.09257143 0.61600006 29079
-0.075772159 -0.092646569 0.61650002 28565
-0.074454062 -0.092684135 0.61675 28308
-0.073134869 -0.092721708 0.61700004 28565
-0.071843669 -0.09279684 0.61750001 28051
-0.07052175 -0.092834421 0.61775005 225429
-0.069170736 -0.092834421 0.61775005 28052
-0.067819722 -0.092834421 0.61775005 28563
-0.066441812 -0.09279684 0.61750001 28052
-0.065064996 -0.092759274 0.61725003 93843
-0.063689277 -0.092721708 0.61700004 224662
-0.062339898 -0.092721708 0.61700004 223894
-0.060965814 -0.092684135 0.61675 27541
-0.059592824 -0.092646569 0.61650002 225175
-0.057913881 -0.092120595 0.61300004 1803169
-0.056042593 -0.091256492 0.60725003 1476516
-0.054714549 -0.091256492 0.60725003 29592
-0.053408477 -0.091294058 0.60750002 19581
-0.052079882 -0.091294058 0.60750002 20093
-0.050751287 -0.091294058 0.60750002 811656
-0.049422693 -0.091294058 0.60750002 1865882
-0.048074309 -0.091256492 0.60725003 2261921
-0.046707768 -0.091181353 0.60675001 2525093
-0.045362119 -0.091143787 0.60650003 26253
-0.043999404 -0.09106864 0.60600001 1278887
-0.042674091 -0.09106864 0.60600001 1871020
-0.041331716 -0.091031075 0.60575002 227996
-0.04000695 -0.091031075 0.60575002 1607078
-0.038682181 -0.091031075 0.60575002 358814
-0.037357412 -0.091031075 0.60575002 22923
-0.036017776 -0.090993509 0.60550004 20869
-0.034679227 -0.090955935 0.60525 157326
-0.033355556 -0.090955935 0.60525 1013401
-0.018869508 -0.061163262 0.40700001 15314491
-0.017946273 -0.061050557 0.40625003 15773750
-0.017036814 -0.060975414 0.40575001 15971123
-0.016109644 -0.060825139 0.40475002 16037173
-0.015186846 -0.060674861 0.40375003 16036922
-0.014268422 -0.060524583 0.40275002 16103483
-0.013354372 -0.060374305 0.40175003 16103734
-0.012444695 -0.060224023 0.40075001 16103218
-0.011546611 -0.060111314 0.40000001 16169011
-0.010651806 -0.059998609 0.39925003 16103734
-0.009760282 -0.0598859 0.39850003 15906874
-0.0088720378 -0.059773192 0.39775002 16037941
-0.0079820454 -0.059622914 0.39675003 16103734
-0.0071009095 -0.059510205 0.39600003 15972920
-0.0062191174 -0.059359923 0.39500001 15907125
-0.0053450894 -0.059247214 0.39425001 16102966
-0.004471499 -0.05909694 0.39325002 16103483
-0.0036045783 -0.058984227 0.39250001 16169529
-0.0027391892 -0.058833953 0.39150003 15973180
-0.0018781737 -0.058683671 0.39050001 16104253
-0.0010208768 -0.058495823 0.38925001 16038975
-0.00016915624 -0.058345549 0.38825002 15973182
0.00067819038 -0.058195267 0.38725001 16038975
0.0015221477 -0.058082562 0.38650003 16039747
0.0023628243 -0.057969853 0.38575003 16039747
0.0032022987 -0.057894714 0.38525003 16172360
0.0040395861 -0.057819571 0.38475001 15910471
0.0048778579 -0.057782006 0.38450003 16040000
0.005711318 -0.057706863 0.384 15908410
0.0065425909 -0.057631724 0.38350001 15906357
0.0073668654 -0.057519015 0.38275 15705896
0.0081932181 -0.057443876 0.38225001 15768343
0.0090173837 -0.057368737 0.38175002 16492584
0.0098393625 -0.057293601 0.38125002 16233792
0.010652154 -0.057180889 0.38050002 16104257
0.011469211 -0.057105754 0.38000003 15906874
0.012284082 -0.057030614 0.37950003 16104506
0.013088128 -0.056917906 0.37875003 16039996
0.013898077 -0.056842767 0.37825003 16105536
0.01470584 -0.056767624 0.37775001 16039747
0.015501136 -0.056654915 0.377 16105286
0.016303979 -0.056579776 0.37650001 16105543
0.017104635 -0.056504637 0.37600002 15908161
0.017891183 -0.056391928 0.37525001 16038977
0.018686919 -0.056316789 0.37475002 16039493
0.019480467 -0.05624165 0.37425002 16170563
0.020271827 -0.056166515 0.37375003 16039747
0.021060999 -0.056091372 0.37325001 15842368
0.021862641 -0.056053802 0.37300003 16037692
0.022663185 -0.056016233 0.37275001 16103487
0.02346264 -0.055978667 0.37250003 15972671
0.024277292 -0.055978667 0.37250003 16037690
0.025091946 -0.055978667 0.37250003 16102715
0.025923982 -0.056016233 0.37275001 15905079
0.026757119 -0.056053802 0.37300003 15970100
0.027609825 -0.056128941 0.37350002 16035633
0.02846472 -0.056204081 0.37400001 15969587
0.029321799 -0.05627922 0.37450001 16035130
0.030181071 -0.056354363 0.37500003 15640624
0.031042524 -0.056429498 0.37550002 15574833
0.031906165 -0.056504637 0.37600002 15509038
0.032793757 -0.056617346 0.37675002 15443245
0.033662319 -0.056692485 0.37725002 15180588
0.034533069 -0.056767624 0.37775001 15114795
0.035406008 -0.056842767 0.37825003 14983209
0.036305077 -0.056955472 0.37900001 14851371
0.037182938 -0.057030614 0.37950003 14456861
0.038062982 -0.057105754 0.38000003 14982692
0.038945213 -0.057180889 0.38050002 15574579
0.03982963 -0.057256028 0.38100001 15311920
0.040742919 -0.057368737 0.38175002 15180336
0.041686714 -0.057519015 0.38275 14982957
0.042662658 -0.057706863 0.384 14917166
0.043644074 -0.057894714 0.38525003 14457388
0.04468869 -0.058157701 0.38700002 14326824
0.045682132 -0.058345549 0.38825002 14655017
0.046710998 -0.058570962 0.38975 14588969
0.047715928 -0.058758814 0.39100003 14851889
0.048726317 -0.058946662 0.39225003 15311924
0.049742173 -0.059134509 0.39350003 15443247
0.05073135 -0.059284788 0.39450002 15509038
0.0517249 -0.059435062 0.3955 15836461
0.052689578 -0.059547771 0.39625001 15836714
0.053657539 -0.059660483 0.39700001 15838003
0.054628786 -0.059773192 0.39775002 15771440
0.05563819 -0.059923466 0.39875001 15771440
0.056616541 -0.060036175 0.39950001 15968567
0.05759817 -0.060148887 0.40025002 15443247
0.058619607 -0.060299162 0.40125 15443758
0.059645414 -0.060449444 0.40225002 14983984
0.060637981 -0.060562152 0.40300003 14786603
0.061633825 -0.060674861 0.40375003 14786603
0.062632956 -0.060787566 0.40450001 14720310
0.063713871 -0.060975414 0.40575001 14392381
0.10174319 -0.091031075 0.60575002 622761
0.10311049 -0.09106864 0.60600001 24207
0.1044789 -0.091106221 0.60625005 24978
0.10580476 -0.091106221 0.60625005 1410989
0.1071748 -0.091143787 0.60650003 228003
0.1085012 -0.091143787 0.60650003 29085
0.10987288 -0.091181353 0.60675001 29085
0.11124566 -0.091218926 0.60700005 28826
0.11261953 -0.091256492 0.60725003 28314
0.11399448 -0.091294058 0.60750002 28572
0.11532307 -0.091294058 0.60750002 27543
0.11669969 -0.091331638 0.60775006 28311
0.11802883 -0.091331638 0.60775006 755371
0.11935797 -0.091331638 0.60775006 559023
0.12063745 -0.091294058 0.60750002 755369
0.12196605 -0.091294058 0.60750002 291738
0.12324391 -0.091256492 0.60725003 27289
0.12452067 -0.091218926 0.60700005 28314
0.12579633 -0.091181353 0.60675001 159900
0.12707092 -0.091143787 0.60650003 28572
0.1283444 -0.091106221 0.60625005 29083
0.12961678 -0.09106864 0.60600001 28567
0.13088807 -0.091031075 0.60575002 23437
0.13221285 -0.091031075 0.60575002 18302
0.13348252 -0.090993509 0.60550004 30369
0.13480672 -0.090993509 0.60550004 33451
0.13613094 -0.090993509 0.60550004 818604
0.13745518 -0.090993509 0.60550004 22929
0.1387794 -0.090993509 0.60550004 22925
0.14010361 -0.090993509 0.60550004 28054
0.14136943 -0.090955935 0.60525 160670
0.14263417 -0.090918362 0.60500002 159902
0.1439573 -0.090918362 0.60500002 422556
0.14528042 -0.090918362 0.60500002 22150
0.14654298 -0.090880796 0.60475004 680088
0.14780444 -0.09084323 0.60450006 1802924
0.14912647 -0.09084323 0.60450006 489371
0.15038627 -0.090805657 0.60425001 161697
0.151645 -0.090768091 0.60400003 1739186
0.15283932 -0.090692945 0.60350001 424609
0.15409529 -0.090655379 0.60325003 23950
0.15535019 -0.090617813 0.60300004 90261
0.15660398 -0.09058024 0.60275 224925
0.15785669 -0.090542667 0.60250002 224662
0.15910831 -0.090505101 0.60225004 24971
0.16029222 -0.090429962 0.60175002 619168
0.16154112 -0.090392396 0.60150003 1804207
0.16285659 -0.090392396 0.60150003 1408163
0.16417207 -0.090392396 0.60150003 26004
0.16548753 -0.090392396 0.60150003 353429
0.166803 -0.090392396 0.60150003 748441
0.16818835 -0.090429962 0.60175002 2656688
0.16950436 -0.090429962 0.60175002 2195874
0.17110425 -0.09058024 0.60275 2131882
0.17514005 -0.092007883 0.61225003 3048357
0.17655109 -0.092045449 0.61250001 3045527
0.17796323 -0.092083029 0.61275005 3243167
0.1793033 -0.092083029 0.61275005 2915744
0.18064338 -0.092083029 0.61275005 3047585
0.18198346 -0.092083029 0.61275005 3310500
0.18332353 -0.092083029 0.61275005 3310500
0.18458825 -0.092045449 0.61250001 2982562
0.18585192 -0.092007883 0.61225003 3376291
0.18719089 -0.092007883 0.61225003 4754346
0.1884529 -0.091970317 0.61200005 4884903
-0.08500278 -0.091077186 0.61500001 28308
-0.083657786 -0.091077186 0.61500001 28821
-0.082279325 -0.091040164 0.61475003 29075
-0.080934875 -0.091040164 0.61475003 29078
-0.079590425 -0.091040164 0.61475003 29080
-0.078245975 -0.091040164 0.61475003 28056
-0.076932788 -0.091077186 0.61500001 28824
-0.075587794 -0.091077186 0.61500001 28310
-0.0742428 -0.091077186 0.61500001 94359
-0.072927438 -0.091114216 0.61525005 28308
-0.071640067 -0.091188259 0.61575001 28052
-0.070379049 -0.091299325 0.61650002 159636
-0.06908676 -0.091373377 0.61700004 159636
-0.067737386 -0.091373377 0.61700004 224916
-0.066361114 -0.091336347 0.61675 290709
-0.064985931 -0.091299325 0.61650002 93589
-0.063611858 -0.091262311 0.61625004 26768
-0.062238865 -0.091225289 0.61600006 290455
-0.060842253 -0.091151237 0.61550003 949150
-0.059061173 -0.090484813 0.611 1411241
-0.057299785 -0.089818403 0.60650003 1280943
-0.055950306 -0.089781381 0.60625005 2069686
-0.054646973 -0.089818403 0.60650003 2001836
-0.053342544 -0.089855418 0.60675001 22406
-0.052015584 -0.089855418 0.60675001 1862804
-0.050688632 -0.089855418 0.60675001 3045273
-0.049361676 -0.089855418 0.60675001 1931675
-0.048014931 -0.089818403 0.60650003 1146014
-0.046669278 -0.089781381 0.60625005 1474206
-0.045306023 -0.08970733 0.60575002 2392226
-0.043963101 -0.089670308 0.60550004 27025
-0.042621274 -0.089633279 0.60525 1674928
-0.0412976 -0.089633279 0.60525 1543854
-0.039973926 -0.089633279 0.60525 25999
-0.038634285 -0.089596257 0.60500002 18554
-0.037311159 -0.089596257 0.60500002 22401
-0.035988033 -0.089596257 0.60500002 2061460
-0.034650579 -0.089559235 0.60475004 1735325
-0.033314224 -0.08952222 0.60450006 1342366
-0.021653039 -0.066049471 0.44600001 13737281
-0.018857919 -0.060236827 0.40675002 15182901
-0.017946273 -0.060162779 0.40625003 15642934
-0.017026318 -0.060051709 0.40550002 16036922
-0.016099691 -0.059903614 0.40450001 16037692
-0.015177442 -0.059755523 0.40350002 16102717
-0.014250708 -0.059570406 0.40225002 16102715
-0.013337751 -0.05942231 0.40125 16103736
-0.012436933 -0.059311245 0.40050003 15972920
-0.011532177 -0.059163149 0.39950001 16037941
-0.010638466 -0.05905208 0.39875001 16037943
-0.009748036 -0.058941014 0.39800003 16103485
-0.0088608852 -0.058829941 0.39725003 16037690
-0.0079770153 -0.058718871 0.39650002 16103736
-0.0070964261 -0.058607802 0.39575002 15972667
-0.0062151817 -0.05845971 0.39475003 15972402
-0.0053417003 -0.058348641 0.39400002 16038195
-0.004471499 -0.058237568 0.39325002 16038713
-0.0036022826 -0.05808948 0.39225003 15907125
-0.0027374399 -0.057941381 0.39125001 16104504
-0.0018769713 -0.057793293 0.39025003 16170559
-0.0010208768 -0.057645194 0.38925001 16039745
-0.00016915624 -0.057497106 0.38825002 16039747
0.00067819038 -0.057349008 0.38725001 16040004
0.0015221477 -0.057237942 0.38650003 16105540
0.0023628243 -0.057126872 0.38575003 16105795
0.0032022987 -0.057052828 0.38525003 16173389
0.004042211 -0.057015803 0.38500002 15778372
0.0048778579 -0.056941755 0.38450003 16039743
0.005711318 -0.056867708 0.384 16039745
0.0065425909 -0.05679366 0.38350001 16040004
0.0073716776 -0.056719616 0.38300002 15775803
0.0081932181 -0.056608547 0.38225001 15640105
0.0090173837 -0.056534499 0.38175002 16031261
0.0098393625 -0.056460455 0.38125002 16098598
0.010659153 -0.056386407 0.38075003 16364095
0.011476757 -0.05631236 0.38025001 16038210
0.012292175 -0.056238312 0.37975001 16038975
0.013105405 -0.056164268 0.37925002 16105797
0.013916449 -0.056090221 0.37875003 16040004
0.014725306 -0.056016177 0.37825003 16039750
0.015531974 -0.055942126 0.37775001 15907907
0.016336458 -0.055868082 0.37725002 16039747
0.017138753 -0.055794034 0.37675002 15973184
0.017938862 -0.05571999 0.37625003 16236354
0.01874925 -0.055682965 0.37600002 16039750
0.019545531 -0.055608921 0.37550002 16039493
0.020339625 -0.055534873 0.37500003 16039745
0.021145638 -0.055497847 0.37475002 15973182
0.021950558 -0.055460826 0.37450001 16038460
0.022754386 -0.055423804 0.37425002 16037690
0.023557119 -0.055386778 0.37400001 16168506
0.024375051 -0.055386778 0.37400001 16037943
0.025192985 -0.055386778 0.37400001 16102713
0.026028305 -0.055423804 0.37425002 15970872
0.026864721 -0.055460826 0.37450001 15970102
0.027720708 -0.055534873 0.37500003 16035382
0.028559856 -0.055571895 0.37525001 16100405
0.029419668 -0.055645939 0.37575001 15968817
0.030281674 -0.05571999 0.37625003 16099633
0.031125193 -0.055757012 0.37650001 15902254
0.031991024 -0.055831056 0.377 15837482
0.032837279 -0.055868082 0.37725002 15574829
0.033706933 -0.055942126 0.37775001 15376680
0.034578778 -0.056016177 0.37825003 15245094
0.035452809 -0.056090221 0.37875003 15047198
0.036305077 -0.056127243 0.37900001 15244575
0.037182938 -0.056201294 0.37950003 14917152
0.038037937 -0.056238312 0.37975001 15509038
0.038919624 -0.05631236 0.38025001 15377713
0.039803497 -0.056386407 0.38075003 15246897
0.040716235 -0.056497473 0.38150001 15181104
0.041659486 -0.056645568 0.38250002 15114543
0.042634882 -0.056830686 0.38375002 14786096
0.043644074 -0.057052828 0.38525003 14720814
0.044659819 -0.057274964 0.38675001 14523433
0.045682132 -0.057497106 0.38825002 14720807
0.046681039 -0.05768222 0.38950002 14917162
0.047685415 -0.057867337 0.39075002 15311922
0.048664201 -0.058015428 0.39175001 15049772
0.049678963 -0.058200546 0.39300001 15509551
0.050667055 -0.058348641 0.39400002 15640624
0.051626813 -0.05845971 0.39475003 15837233
0.052623093 -0.058607802 0.39575002 15706417
0.053589962 -0.058718871 0.39650002 15772725
0.054560117 -0.058829941 0.39725003 15575346
0.055533543 -0.058941014 0.39800003 15837233
0.056510251 -0.05905208 0.39875001 15836461
0.057526216 -0.059200175 0.39975002 15705647
0.058510039 -0.059311245 0.40050003 15443508
0.059497133 -0.05942231 0.40125 15311924
0.06052513 -0.059570406 0.40225002 15049520
0.061519336 -0.059681475 0.40300003 14655791
0.062516823 -0.059792548 0.40375003 14458678
0.063517585 -0.059903614 0.40450001 14393148
0.10025265 -0.089559235 0.60475004 423324
0.10161722 -0.089596257 0.60500002 24719
0.10302542 -0.089670308 0.60550004 24720
0.10434965 -0.089670308 0.60550004 23177
0.1057175 -0.08970733 0.60575002 25487
0.10704226 -0.08970733 0.60575002 1345196
0.10841175 -0.089744352 0.60600001 97189
0.10978234 -0.089781381 0.60625005 29340
0.11110821 -0.089781381 0.60625005 28313
0.11248043 -0.089818403 0.60650003 28056
0.11385375 -0.089855418 0.60675001 26516
0.11522816 -0.089892447 0.60700005 556195
0.11655567 -0.089892447 0.60700005 165544
0.11788317 -0.089892447 0.60700005 29598
0.11921067 -0.089892447 0.60700005 21900
0.12053817 -0.089892447 0.60700005 28061
0.12181547 -0.089855418 0.60675001 1542577
0.12309169 -0.089818403 0.60650003 228003
0.1244181 -0.089818403 0.60650003 29341
0.12569268 -0.089781381 0.60625005 29085
0.12696616 -0.089744352 0.60600001 28826
0.12818563 -0.089670308 0.60550004 28057
0.12945637 -0.089633279 0.60525 26773
0.13072602 -0.089596257 0.60500002 26005
0.13199459 -0.089559235 0.60475004 30626
0.13331717 -0.089559235 0.60475004 296880
0.13463975 -0.089559235 0.60475004 886707
0.13596232 -0.089559235 0.60475004 1738932
0.13734166 -0.089596257 0.60500002 488349
0.1386648 -0.089596257 0.60500002 28311
0.13993007 -0.089559235 0.60475004 160924
0.14125265 -0.089559235 0.60475004 28826
0.1425163 -0.08952222 0.60450006 29342
0.14383833 -0.08952222 0.60450006 94107
0.14510033 -0.089485191 0.60425001 25747
0.14636123 -0.089448169 0.60400003 20611
0.14768218 -0.089448169 0.60400003 483477
0.14894146 -0.089411147 0.60375005 557740
0.15019961 -0.089374118 0.60350001 1148846
0.1514567 -0.089337096 0.60325003 27028
0.15271269 -0.089300074 0.60300004 22924
0.15396757 -0.089263044 0.60275 287890
0.15522137 -0.08922603 0.60250002 224410
0.15647408 -0.089189008 0.60225004 94107
0.15772569 -0.089151986 0.60200006 28827
0.1589762 -0.089114957 0.60175002 28056
0.16015904 -0.089040913 0.60125005 23431
0.16140683 -0.089003883 0.60100001 681365
0.16265352 -0.088966869 0.60075003 1999530
0.16396736 -0.088966869 0.60075003 1078426
0.16528119 -0.088966869 0.60075003 881822
0.16666435 -0.089003883 0.60100001 1869739
0.16797872 -0.089003883 0.60100001 555162
0.16936353 -0.089040913 0.60125005 22146
0.17067845 -0.089040913 0.60125005 350349
0.17199339 -0.089040913 0.60125005 2525102
0.17640696 -0.090632915 0.61200005 3178912
0.17781802 -0.090669937 0.61225003 2390936
0.17915699 -0.090669937 0.61225003 1997720
0.18049596 -0.090669937 0.61225003 2457503
0.18183495 -0.090669937 0.61225003 2784415
0.18317392 -0.090669937 0.61225003 3047587
0.18451291 -0.090669937 0.61225003 2982562
0.18577603 -0.090632915 0.61200005 3376550
0.18703802 -0.090595886 0.61175001 3835304
0.18829893 -0.090558864 0.61150002 4097445
0.18963626 -0.090558864 0.61150002 4623274
-0.086312674 -0.089696743 0.61475003 28309
-0.084968232 -0.089696743 0.61475003 28821
-0.083589777 -0.089660272 0.61450005 28821
-0.082212396 -0.089623787 0.61425 28821
-0.080869041 -0.089623787 0.61425 29078
-0.079493321 -0.089587316 0.61400002 225429
-0.078118697 -0.089550838 0.61375004 159382
-0.07677643 -0.089550838 0.61375004 28309
-0.075403444 -0.089514367 0.61350006 28566
-0.074061729 -0.089514367 0.61350006 28052
-0.072690368 -0.089477882 0.61325002 28309
-0.071349204 -0.089477882 0.61325002 159636
-0.070065111 -0.089550838 0.61375004 290709
-0.068834819 -0.089696743 0.61475003 93843
-0.067545265 -0.089769699 0.61525005 488088
-0.066226617 -0.089806177 0.61550003 224916
-0.064854175 -0.089769699 0.61525005 421525
-0.06345702 -0.089696743 0.61475003 816283
-0.062011529 -0.089550838 0.61375004 1738405
-0.060002029 -0.088565961 0.60700005 1871022
-0.05852953 -0.0883471 0.60550004 96417
-0.057205312 -0.0883471 0.60550004 24467
-0.05588109 -0.0883471 0.60550004 26007
-0.054579392 -0.088383578 0.60575002 2332345
-0.053254627 -0.088383578 0.60575002 1542057
-0.051951289 -0.088420048 0.60600001 553627
-0.050625976 -0.088420048 0.60600001 1865884
-0.049300659 -0.088420048 0.60600001 1800091
-0.047975346 -0.088420048 0.60600001 1472412
-0.046630789 -0.088383578 0.60575002 1144987
-0.045287326 -0.0883471 0.60550004 1409699
-0.043926798 -0.088274144 0.60500002 1411239
-0.04258607 -0.088237666 0.60475004 295590
-0.041263483 -0.088237666 0.60475004 1676725
-0.039940905 -0.088237666 0.60475004 1871020
-0.03860236 -0.088201195 0.60450006 23946
-0.037280325 -0.088201195 0.60450006 1996698
-0.035943419 -0.08816471 0.60425001 1602967
-0.034621932 -0.08816471 0.60425001 619672
-0.020475715 -0.061536562 0.42175001 14919227
-0.018857919 -0.05934795 0.40675002 15511096
-0.017946273 -0.059274994 0.40625003 15708475
-0.017026318 -0.059165563 0.40550002 16168256
-0.016089743 -0.058983181 0.40425003 16102456
-0.015168038 -0.058837269 0.40325001 16036920
-0.014241851 -0.058654886 0.40200001 16037690
-0.013329442 -0.058508977 0.40100002 16037941
-0.012421406 -0.058363069 0.40000001 15972148
-0.011524961 -0.058253642 0.39925003 16103736
-0.010631797 -0.058144212 0.39850003 16038713
-0.0097419126 -0.058034778 0.39775002 16038460
-0.0088553093 -0.057925347 0.39700001 16104253
-0.0079719862 -0.057815917 0.39625001 15973182
-0.0070919432 -0.057706483 0.3955 15972667
-0.0062151817 -0.057597056 0.39475003 16038713
-0.0053417003 -0.057487626 0.39400002 16038973
-0.0044686561 -0.057341717 0.39300001 16038973
-0.0036022826 -0.057232287 0.39225003 16038973
-0.0027374399 -0.057086378 0.39125001 16170559
-0.0018769713 -0.056940474 0.39025003 16105536
-0.0010208768 -0.056794561 0.38925001 16105538
-0.00016915624 -0.056648657 0.38825002 16105795
0.00067819038 -0.056502745 0.38725001 15974981
0.0015221477 -0.056393318 0.38650003 16105797
0.0023643556 -0.056320362 0.38600001 16303944
0.0032043767 -0.056247409 0.38550001 15910469
0.004042211 -0.056174457 0.38500002 15974977
0.0048778579 -0.056101505 0.38450003 16105795
0.005711318 -0.056028545 0.384 16040520
0.0065425909 -0.055955593 0.38350001 16040004
0.0073716776 -0.05588264 0.38300002 16105538
0.0081932181 -0.05577321 0.38225001 15842364
0.0090173837 -0.055700257 0.38175002 15707951
0.0098393625 -0.055627301 0.38125002 15901732
0.010659153 -0.055554349 0.38075003 16031513
0.011476757 -0.055481393 0.38025001 16230180
0.012292175 -0.055408441 0.37975001 16364596
0.013114044 -0.055371966 0.37950003 16236876
0.013925634 -0.055299006 0.37900001 15908936
0.014735037 -0.055226054 0.37850001 16039747
0.015552534 -0.05518958 0.37825003 15908161
0.016368935 -0.055153102 0.37800002 16038977
0.017172871 -0.055080149 0.37750003 16038973
0.01798654 -0.055043671 0.37725002 16171331
0.018786648 -0.054970719 0.37675002 15974211
0.019597583 -0.054934241 0.37650001 16039743
0.020407425 -0.054897767 0.37625003 16039745
0.021216171 -0.054861285 0.37600002 15907389
0.022009173 -0.054788332 0.37550002 15972667
0.022830386 -0.054788332 0.37550002 16102713
0.023635853 -0.054751854 0.37525001 16037690
0.024456518 -0.054751854 0.37525001 16102713
0.025277186 -0.054751854 0.37525001 15905077
0.026115241 -0.054788332 0.37550002 16101686
0.026954388 -0.054824807 0.37575001 15970353
0.027794629 -0.054861285 0.37600002 15970092
0.028635966 -0.054897767 0.37625003 15969840
0.029497966 -0.054970719 0.37675002 15902507
0.030342033 -0.055007193 0.377 16164650
0.031187195 -0.055043671 0.37725002 16033064
0.032033455 -0.055080149 0.37750003 15770664
0.032902561 -0.055153102 0.37800002 15507496
0.033751551 -0.05518958 0.37825003 15243802
0.034601633 -0.055226054 0.37850001 15244568
0.035452809 -0.055262532 0.37875003 15441951
0.036329027 -0.055335488 0.37925002 15639335
0.037182938 -0.055371966 0.37950003 15444530
0.038037937 -0.055408441 0.37975001 15641139
0.038919624 -0.055481393 0.38025001 15705395
0.039803497 -0.055554349 0.38075003 15574833
0.040716235 -0.055663776 0.38150001 15246901
0.041659486 -0.055809688 0.38250002 15049268
0.042634882 -0.055992071 0.38375002 14852141
0.043644074 -0.056210935 0.38525003 14655019
0.044630952 -0.056393318 0.38650003 14655271
0.045652714 -0.056612179 0.38800001 14982959
0.046651077 -0.056794561 0.38925001 15180338
0.047654904 -0.056976948 0.39050001 15245616
0.048633147 -0.057122856 0.39150003 15443506
0.049615759 -0.057268761 0.39250001 15443758
0.050602756 -0.057414673 0.39350003 15640624
0.051561419 -0.0575241 0.39425001 16034360
0.052523367 -0.05763353 0.39500001 15837751
0.053488594 -0.057742964 0.39575002 15903798
0.054457106 -0.057852395 0.39650002 15838264
0.055463776 -0.0579983 0.39750001 15706419
0.056439392 -0.05810773 0.39825001 15968819
0.057418287 -0.058217164 0.39900002 15640624
0.058400471 -0.058326595 0.39975002 15377713
0.059385926 -0.058436025 0.40050003 15311920
0.06041228 -0.058581933 0.40150002 15245868
0.061404843 -0.058691364 0.40225002 14852139
0.062400695 -0.058800794 0.40300003 14654767
0.063399822 -0.058910228 0.40375003 14458678
0.10153325 -0.088201195 0.60450006 26515
0.10285528 -0.088201195 0.60450006 487064
0.1042204 -0.088237666 0.60475004 159384
0.1055866 -0.088274144 0.60500002 24976
0.1069539 -0.088310614 0.60525 23436
0.10827757 -0.088310614 0.60525 1212840
0.10964653 -0.0883471 0.60550004 30878
0.11101657 -0.088383578 0.60575002 28051
0.11238769 -0.088420048 0.60600001 27795
0.11375993 -0.088456534 0.60625005 1082791
0.11508579 -0.088456534 0.60625005 754088
0.11645965 -0.088493004 0.60650003 28572
0.11778606 -0.088493004 0.60650003 24719
0.11911247 -0.088493004 0.60650003 25233
0.12038923 -0.088456534 0.60625005 22925
0.1216649 -0.088420048 0.60600001 159134
0.12299021 -0.088420048 0.60600001 1083053
0.12426424 -0.088383578 0.60575002 31395
0.12553719 -0.0883471 0.60550004 29339
0.12680902 -0.088310614 0.60525 27799
0.12802684 -0.088237666 0.60475004 26004
0.12929596 -0.088201195 0.60450006 28056
0.13056396 -0.08816471 0.60425001 360613
0.1318309 -0.088128239 0.60400003 558508
0.13315183 -0.088128239 0.60400003 27804
0.13447277 -0.088128239 0.60400003 21384
0.13584991 -0.08816471 0.60425001 424609
0.1371714 -0.08816471 0.60425001 1346223
0.1384929 -0.08816471 0.60425001 621475
0.13981438 -0.08816471 0.60425001 159900
0.14107747 -0.088128239 0.60400003 28827
0.14239842 -0.088128239 0.60400003 28313
0.14365987 -0.088091761 0.60375005 28054
0.14492023 -0.088055283 0.60350001 27285
0.1461795 -0.088018805 0.60325003 27541
0.14749879 -0.088018805 0.60325003 1148844
0.14875643 -0.087982334 0.60300004 754086
0.15001296 -0.087945849 0.60275 952750
0.15126841 -0.087909378 0.60250002 622761
0.15252274 -0.0878729 0.60225004 29081
0.153776 -0.087836429 0.60200006 159900
0.15502815 -0.087799944 0.60175002 160154
0.15634418 -0.087799944 0.60175002 28313
0.1575947 -0.087763466 0.60150003 28826
0.15877806 -0.08769051 0.60100001 28827
0.16002585 -0.087654039 0.60075003 26515
0.16127256 -0.087617561 0.60050005 19067
0.16251814 -0.087581083 0.60025001 746131
0.16383088 -0.087581083 0.60025001 623015
0.16514362 -0.087581083 0.60025001 427176
0.16645636 -0.087581083 0.60025001 27540
0.16783898 -0.087617561 0.60050005 21636
0.16915226 -0.087617561 0.60050005 418188
0.17046554 -0.087617561 0.60050005 483209
0.17177884 -0.087617561 0.60050005 23176
0.17309213 -0.087617561 0.60050005 2327723
0.17752758 -0.089186072 0.61125004 3114146
0.17901067 -0.089259021 0.61175001 1997718
0.18034856 -0.089259021 0.61175001 2129563
0.18176071 -0.089295499 0.61200005 2981535
0.18302433 -0.089259021 0.61175001 3243169
0.18436222 -0.089259021 0.61175001 2981537
0.18562424 -0.089222543 0.61150002 3178916
0.18696159 -0.089222543 0.61150002 3899814
0.18822195 -0.089186072 0.61125004 4293543
-0.087585829 -0.088281468 0.61425 28819
-0.086242475 -0.088281468 0.61425 28562
-0.08489912 -0.088281468 0.61425 28822
-0.083521754 -0.088245541 0.61400002 28565
-0.082145482 -0.088209614 0.61375004 28308
-0.080770306 -0.08817368 0.61350006 28820
-0.07936386 -0.088101819 0.61300004 94359
-0.077991419 -0.088065892 0.61275005 29079
-0.076620057 -0.088029951 0.61250001 28822
-0.075249806 -0.087994024 0.61225003 94359
-0.073880643 -0.087958097 0.61200005 290709
-0.072512567 -0.087922163 0.61175001 1011863
-0.071116515 -0.087850302 0.61125004 946070
-0.069751166 -0.087814368 0.611 224916
-0.068358943 -0.087742515 0.61050004 290968
-0.067051224 -0.087778442 0.61075002 28309
-0.065688625 -0.087742515 0.61050004 28568
-0.064169005 -0.087490998 0.60875005 1802147
-0.062553808 -0.08709576 0.60600001 2854571
-0.061102193 -0.086916111 0.60475004 1277600
-0.059754904 -0.086880177 0.60450006 24717
-0.05843287 -0.086880177 0.60450006 22407
-0.057134453 -0.086916111 0.60475004 352398
-0.055811871 -0.086916111 0.60475004 1077145
-0.054511815 -0.086952038 0.60500002 29083
-0.053188693 -0.086952038 0.60500002 3054011
-0.051886991 -0.086987965 0.60525 753572
-0.050584208 -0.087023899 0.60550004 751260
-0.049259987 -0.087023899 0.60550004 1471899
-0.047915973 -0.086987965 0.60525 1670045
-0.046592295 -0.086987965 0.60525 1935784
-0.045249928 -0.086952038 0.60500002 689576
-0.043908644 -0.086916111 0.60475004 27801
-0.042568464 -0.086880177 0.60450006 22153
-0.041229367 -0.086844243 0.60425001 26003
-0.03990788 -0.086844243 0.60425001 2399161
-0.03857043 -0.086808316 0.60400003 1345961
-0.037234072 -0.08677239 0.60375005 291222
-0.03591368 -0.08677239 0.60375005 750488
-0.034578957 -0.086736448 0.60350001 947867
-0.032735568 -0.085371092 0.59400004 291220
-0.022628436 -0.064100176 0.44600001 13868367
-0.019759612 -0.058495004 0.40700001 15118141
-0.018846327 -0.058423147 0.40650001 15576891
-0.017935229 -0.058351286 0.40600002 15970874
-0.01701582 -0.058243491 0.40525001 16102456
-0.016079791 -0.058063839 0.40400001 16037173
-0.015158635 -0.057920121 0.40300003 16103483
-0.014232994 -0.057740465 0.40175003 16103483
-0.013321131 -0.057596743 0.40075001 15972918
-0.012413642 -0.057453021 0.39975002 16038711
-0.011517745 -0.05734523 0.39900002 16038711
-0.010625127 -0.057237435 0.39825001 16039226
-0.0097357891 -0.057129644 0.39750001 16039226
-0.0088497326 -0.057021856 0.39675003 16170561
-0.0079669561 -0.056914061 0.39600003 16039745
-0.0070874607 -0.05680627 0.39525002 16039747
-0.006211245 -0.056698479 0.39450002 16038977
-0.0053383107 -0.056590684 0.39375001 16038973
-0.0044686561 -0.056482892 0.39300001 16170812
-0.0036022826 -0.056375105 0.39225003 16170559
-0.0027374399 -0.05623138 0.39125001 16105536
-0.0018769713 -0.056087658 0.39025003 16105543
-0.0010208768 -0.055943932 0.38925001 16105543
-0.00016915624 -0.055800214 0.38825002 16106046
0.00067862822 -0.055692419 0.38750002 16105793
0.0015231322 -0.055584628 0.38675001 16106313
0.0023643556 -0.055476837 0.38600001 16107596
0.0032043767 -0.055404976 0.38550001 15975749
0.0040448359 -0.055369049 0.38525003 16040770
0.0048810295 -0.055297185 0.38475001 16041023
0.0057150363 -0.055225324 0.38425002 15974977
0.0065425909 -0.055117529 0.38350001 16171586
0.0073716776 -0.055045672 0.38300002 16041542
0.0081932181 -0.054937877 0.38225001 15975747
0.0090173837 -0.054866016 0.38175002 15909954
0.0098329093 -0.054758225 0.38100001 15710528
0.010652154 -0.054686364 0.38050002 15904299
0.011476757 -0.054650433 0.38025001 15901982
0.012292175 -0.054578573 0.37975001 15965722
0.013114044 -0.054542646 0.37950003 16229664
0.013925634 -0.054470781 0.37900001 16364349
0.014744771 -0.054434851 0.37875003 16170313
0.015562813 -0.05439892 0.37850001 16105545
0.016379762 -0.05436299 0.37825003 15974211
0.017195616 -0.05432706 0.37800002 16039996
0.018010378 -0.054291125 0.37775001 16105536
0.01881158 -0.054219268 0.37725002 16105540
0.019623607 -0.054183334 0.377 16040002
0.020434543 -0.054147407 0.37675002 15974211
0.021244384 -0.054111473 0.37650001 16038977
0.022067785 -0.054111473 0.37650001 15841081
0.022875987 -0.054075547 0.37625003 16169011
0.02369884 -0.054075547 0.37625003 16037943
0.024521694 -0.054075547 0.37625003 16102966
0.025344549 -0.054075547 0.37625003 15970870
0.026184788 -0.054111473 0.37650001 16102456
0.027008189 -0.054111473 0.37650001 15970351
0.027850071 -0.054147407 0.37675002 16101678
0.028693045 -0.054183334 0.377 15904047
0.029537113 -0.054219268 0.37725002 16099884
0.030382277 -0.054255199 0.37750003 15968041
0.031228529 -0.054291125 0.37775001 15900965
0.032075882 -0.05432706 0.37800002 15571230
0.032924324 -0.05436299 0.37825003 15702816
0.033773858 -0.05439892 0.37850001 15900967
