# .PCD v0.7 - Point Cloud Data file format
VERSION 0.7
FIELDS x y z
SIZE 4 4 4
TYPE F F F
COUNT 1 1 1
WIDTH 1161
HEIGHT 1
VIEWPOINT 0 0 0 1 0 0 0
POINTS 1161
DATA ascii
0.097322755 0.026634635 -0.26201192
0.095807321 0.034263097 -0.26146582
0.099366181 0.52770954 -0.26230729
0.10092098 0.52554381 -0.26041806
0.097988106 0.53398031 -0.26181486
0.099989615 0.53197616 -0.26047546
0.099232376 0.026609542 -0.25834841
0.10349595 0.025648898 -0.25342977
0.098143533 0.035760295 -0.25609249
0.10218314 0.034306958 -0.25186226
0.096574441 0.045336902 -0.25449118
0.10064203 0.04189644 -0.25097772
0.094390444 0.055043187 -0.25410748
0.090287983 0.067797653 -0.25603566
0.092818484 0.064384811 -0.2532784
0.089577794 0.074625529 -0.25543344
0.091700956 0.074324995 -0.25251043
0.088876009 0.085646749 -0.25311121
0.090615176 0.083013743 -0.25137988
0.087807313 0.094842307 -0.25083098
0.11443038 0.51847732 -0.25128874
0.10652321 0.52631021 -0.25470454
0.11265295 0.52067292 -0.25178173
0.1210373 0.51998168 -0.24882203
0.09724699 0.54023123 -0.25280195
0.10309464 0.53189981 -0.2535229
0.10831242 0.028054604 -0.24882838
0.11441242 0.027799461 -0.24434806
0.12116552 0.028197505 -0.23953168
0.10672912 0.035687327 -0.24745256
0.11342143 0.034275949 -0.2426298
0.099215873 0.049557552 -0.25011027
0.1049431 0.045123782 -0.24613298
0.1115934 0.043962523 -0.2412281
0.09892837 0.055833422 -0.24882159
0.10475615 0.054763146 -0.24385929
0.11058201 0.051027864 -0.24028963
0.097669646 0.065889195 -0.24782339
0.10330584 0.064389229 -0.24289902
0.096974373 0.075428128 -0.24624762
0.10229527 0.074304357 -0.24159063
0.095636532 0.08507891 -0.24482755
0.10101686 0.082436435 -0.24058983
0.088931784 0.096587017 -0.24835545
0.093299821 0.094635345 -0.24393296
0.087883659 0.10508164 -0.24597549
0.092028283 0.10406509 -0.24173041
0.08676178 0.11446729 -0.24367103
0.090437435 0.111655 -0.24049512
0.085098028 0.12456299 -0.24238615
0.084045075 0.13503602 -0.24182114
0.083021641 0.1442734 -0.24166381
0.082359582 0.15476117 -0.2412037
0.082466021 0.16199253 -0.24042501
0.13591945 0.34837058 -0.24002811
0.11567161 0.52333516 -0.24959765
0.11495245 0.52738732 -0.24789844
0.12470289 0.52623546 -0.24673559
0.1307717 0.5302512 -0.24583308
0.097581185 0.53954476 -0.24732831
0.10602353 0.53298086 -0.24663304
0.11525568 0.53029442 -0.24543472
0.12500003 0.53225189 -0.24314487
0.13301606 0.53440231 -0.24370645
0.098623991 0.53801912 -0.2474999
0.10158683 0.53565723 -0.24642833
0.1267332 0.53699565 -0.23975566
0.13490532 0.53858268 -0.24081099
0.14081773 0.53958309 -0.2397278
0.12028116 0.029711714 -0.23947562
0.12162607 0.028653717 -0.2389895
0.11838426 0.036687076 -0.23840056
0.12499413 0.034860335 -0.23422183
0.13073641 0.033023059 -0.23073669
0.11685269 0.045590375 -0.23701306
0.12360396 0.04473627 -0.23246357
0.10900466 0.059306264 -0.23957276
0.11508923 0.055095378 -0.2359882
0.12230094 0.054175232 -0.23117328
0.10825837 0.066029213 -0.23863535
0.11495706 0.064850062 -0.23399825
0.1209209 0.062501244 -0.23020771
0.10688097 0.075397931 -0.237517
0.11360017 0.074745424 -0.23266007
0.099659033 0.089373149 -0.23963098
0.10534732 0.085174218 -0.23606068
0.11190473 0.084664702 -0.23111154
0.098349929 0.095498309 -0.23865862
0.10467538 0.094813608 -0.23347011
0.11040764 0.090758823 -0.23023696
0.096168213 0.10528708 -0.2371887
0.10231891 0.10439504 -0.23209575
0.089646392 0.11740261 -0.23939821
0.09498781 0.11501568 -0.23486714
0.10066321 0.11225971 -0.23065615
0.088556871 0.1257429 -0.23815852
0.093552738 0.12462111 -0.23352051
0.0875329 0.13538377 -0.23728
0.092335768 0.135194 -0.23226544
0.086958803 0.14522867 -0.23647749
0.091793656 0.144692 -0.23147067
0.086636625 0.15485342 -0.2358655
0.091224015 0.15428817 -0.23105368
0.086506523 0.16245131 -0.2357074
0.09117543 0.16219835 -0.23093711
0.13814545 0.34620482 -0.23848091
0.14104201 0.34743187 -0.23689857
0.13970515 0.35002962 -0.23796593
0.095701545 0.53166926 -0.23041278
0.1117625 0.53382522 -0.23646879
0.085148014 0.53382218 -0.23186547
0.092889205 0.53346252 -0.23297659
0.10716613 0.5334236 -0.23667458
0.1122874 0.53332675 -0.23504065
0.12760772 0.53876829 -0.23745292
0.13644412 0.54201192 -0.23524053
0.1438939 0.54269785 -0.2340498
0.15346275 0.54263866 -0.23049124
0.12979431 0.039237645 -0.22954911
0.13543813 0.035777986 -0.2265189
0.14206129 0.036188398 -0.2215775
0.12834582 0.045619171 -0.22893883
0.1348101 0.044848245 -0.22443545
0.14079973 0.042821143 -0.22058614
0.12661071 0.055540528 -0.22781031
0.1337481 0.054728512 -0.22288735
0.11981511 0.06890776 -0.22941677
0.12521124 0.0651659 -0.22636588
0.13207304 0.063917659 -0.22164105
0.11843252 0.07559669 -0.22877052
0.12474152 0.074895173 -0.22404364
0.1307589 0.071399003 -0.22037092
0.11667508 0.085038207 -0.22731127
0.12264154 0.084701851 -0.22256289
0.10884415 0.097814836 -0.22897273
0.11503088 0.094993629 -0.22495152
0.12117316 0.092244744 -0.22100349
0.10729369 0.10555652 -0.22726959
0.11295941 0.10447516 -0.2230248
0.099765778 0.11904714 -0.2294028
0.10535076 0.11537496 -0.22543582
0.11145663 0.11233182 -0.22127146
0.098335259 0.12583387 -0.22884928
0.10439613 0.12496796 -0.22359417
0.097323366 0.1344967 -0.22784069
0.10356747 0.13492765 -0.22232419
0.096739613 0.14524095 -0.22671784
0.10232335 0.14433572 -0.22199245
0.09605626 0.15543498 -0.22632247
0.10178279 0.15482622 -0.22127917
0.096046709 0.16247852 -0.22653122
0.10177536 0.16169497 -0.22161159
0.098163873 0.52990007 -0.22575192
0.10070232 0.52942401 -0.22178346
0.085531019 0.5320307 -0.2277173
0.094553418 0.53043628 -0.22779576
0.10915226 0.53180248 -0.22093739
0.11522554 0.53419548 -0.22372781
0.12470521 0.53916252 -0.2249037
0.13216028 0.54194224 -0.22676095
0.16823675 0.53908354 -0.22504282
0.17073315 0.5379957 -0.22282262
0.12561965 0.53929943 -0.2270803
0.13542628 0.54345948 -0.22800654
0.14520375 0.54764384 -0.22738335
0.15594533 0.54771256 -0.22793776
0.16575556 0.54604685 -0.2248257
0.17238012 0.54417861 -0.22081724
0.14922059 0.55097991 -0.22345476
0.15479773 0.55249447 -0.22223973
0.16223249 0.55335361 -0.2221088
0.16919306 0.54909056 -0.2214677
0.14670645 0.03645511 -0.21781445
0.15296525 0.036628544 -0.21282107
0.13942857 0.04938801 -0.22000705
0.14541294 0.045278002 -0.21633168
0.15170921 0.043673724 -0.21161178
0.13889182 0.055549923 -0.21873479
0.14516272 0.054855522 -0.21388014
0.13670269 0.065555744 -0.21754348
0.14355107 0.064700589 -0.21233732
0.12928486 0.077457666 -0.21956481
0.13528121 0.075229667 -0.21555354
0.14151748 0.073369861 -0.21124117
0.12769246 0.08551237 -0.21811783
0.13395473 0.084653348 -0.21333706
0.14001337 0.080072775 -0.21013078
0.1194362 0.099078491 -0.21975115
0.1256813 0.09562473 -0.2160304
0.13197884 0.093593821 -0.2116286
0.11786118 0.10570173 -0.21841232
0.124524 0.104703 -0.21347751
0.11569154 0.11552355 -0.2166384
0.12270921 0.11381863 -0.21151604
0.10937853 0.12500121 -0.21946348
0.11515091 0.12509033 -0.21457291
0.12099287 0.12092631 -0.21085274
0.10833383 0.1358138 -0.21818581
0.11398738 0.13476151 -0.21376668
0.1074801 0.14549622 -0.21775478
0.1138997 0.14483994 -0.2125551
0.10691684 0.15473807 -0.21734601
0.11313874 0.15522256 -0.2121868
0.10677259 0.16176666 -0.21759415
0.11344822 0.1625963 -0.21202326
0.07857307 0.53029412 -0.21447608
0.086200587 0.52868479 -0.21506399
0.093624219 0.52904397 -0.21314663
0.10333043 0.53073078 -0.21748623
0.077431612 0.53041607 -0.21406676
0.084753118 0.52901095 -0.21506818
0.10713978 0.53197664 -0.21704811
0.11632155 0.53547329 -0.21765228
0.12545654 0.53942978 -0.21777213
0.13256085 0.54053313 -0.21380155
0.1273794 0.53965014 -0.21625069
0.17658991 0.54442304 -0.21663082
0.18071736 0.54665798 -0.21129167
0.15788564 0.55724597 -0.21846168
0.16109841 0.55759162 -0.2181447
0.18094884 0.55149674 -0.20983349
0.15900595 0.55852664 -0.21613461
0.15830316 0.037326086 -0.20849293
0.16427182 0.037631065 -0.20389397
0.15628904 0.045475841 -0.2073652
0.16304901 0.044559922 -0.20227386
0.1492195 0.058961593 -0.20941682
0.1550599 0.055214513 -0.20560749
0.16132237 0.052954435 -0.20103693
0.14795882 0.065723702 -0.20852493
0.15404397 0.064797945 -0.20397115
0.14608917 0.075576909 -0.20698394
0.15280253 0.074434407 -0.20221883
0.13876091 0.086234376 -0.20889004
0.1448973 0.084978819 -0.20462583
0.15139882 0.082082808 -0.20054348
0.1362094 0.095531233 -0.20747788
0.14315575 0.094185174 -0.20242509
0.12896192 0.10686079 -0.20904765
0.13505206 0.10492452 -0.20494296
0.14098966 0.10351574 -0.20078395
0.12705141 0.11583959 -0.20739746
0.13363548 0.11440379 -0.20276251
0.12017757 0.1285567 -0.20978603
0.12540157 0.12515427 -0.2062628
0.13192858 0.12359682 -0.2012978
0.11914244 0.13557383 -0.20935428
0.12485021 0.135075 -0.20474641
0.13060319 0.13389038 -0.20019397
0.1183885 0.14521591 -0.20880969
0.12423152 0.14472148 -0.20389153
0.1179339 0.15517731 -0.20802397
0.12346836 0.15491208 -0.20339252
0.11848895 0.16195688 -0.20735906
0.12438572 0.1617209 -0.2025412
0.21271679 0.40759283 -0.20030056
0.21084724 0.41003513 -0.20018063
0.088437781 0.52961993 -0.2080546
0.095296629 0.52892089 -0.20787147
0.10266378 0.53007019 -0.20672739
0.087805651 0.53007585 -0.20713761
0.096229523 0.52920681 -0.20615301
0.10567761 0.53098941 -0.20590569
0.11494306 0.53427005 -0.20450005
0.1241331 0.53668052 -0.20414563
0.13305929 0.54008347 -0.20538747
0.11777976 0.53498417 -0.20276792
0.12966767 0.53899038 -0.20654663
0.13159335 0.53958941 -0.20642646
0.18059213 0.54817718 -0.21130413
0.18145162 0.5483861 -0.20868629
0.16957669 0.037980624 -0.19976363
0.17460926 0.038032815 -0.19599088
0.18126999 0.037532289 -0.19132993
0.16755921 0.045564964 -0.19843605
0.17433202 0.044637922 -0.19351026
0.18059582 0.040659118 -0.19038254
0.16606158 0.055484343 -0.19653407
0.17235604 0.054369207 -0.19179006
0.15909247 0.066101201 -0.19959061
0.16509351 0.065035328 -0.19475044
0.17048283 0.063318916 -0.19057822
0.15756874 0.075730681 -0.1979564
0.16346157 0.074592248 -0.19332978
0.14923948 0.089470521 -0.19968466
0.15545934 0.085400999 -0.19628666
0.16190131 0.083845034 -0.19138396
0.1476396 0.096439756 -0.19842218
0.15476984 0.094650015 -0.19372573
0.13992526 0.10974263 -0.19928896
0.1460796 0.10541073 -0.19651408
0.15269206 0.10429758 -0.19215474
0.1612339 0.10350277 -0.18652719
0.13815351 0.11648092 -0.19839782
0.14432107 0.11473044 -0.19425589
0.15082456 0.11177205 -0.19065033
0.13629578 0.12547465 -0.19729586
0.14287713 0.12452636 -0.19215375
0.13579792 0.13515751 -0.19579387
0.14130493 0.13491257 -0.1913348
0.12913997 0.14702962 -0.19953403
0.13503443 0.14494102 -0.19502194
0.14070797 0.14310129 -0.1906448
0.12867683 0.1547405 -0.1991858
0.13489895 0.15492898 -0.19425479
0.14088073 0.15624188 -0.18939973
0.12897654 0.16196261 -0.19888768
0.13523234 0.16288815 -0.19391096
0.14083754 0.16634043 -0.18993813
0.21705514 0.4069705 -0.19851397
0.2204482 0.40747133 -0.196152
0.21603537 0.41150042 -0.19878675
0.21909422 0.41205826 -0.19717821
0.22864275 0.48950309 -0.19151109
0.22619475 0.49063715 -0.19089016
0.20647103 0.50418973 -0.19070439
0.11507829 0.53090924 -0.19277558
0.12082199 0.53386313 -0.19599937
0.11855766 0.53290248 -0.19548404
0.12278399 0.5334692 -0.19378386
0.13484658 0.53824967 -0.19535069
0.14032999 0.54086578 -0.19283862
0.13909179 0.54026484 -0.19426855
0.14565122 0.54501724 -0.19331034
0.14940464 0.54688555 -0.19162481
0.14877968 0.54798245 -0.19355138
0.18611759 0.038626779 -0.1871562
0.19287774 0.037996948 -0.18211944
0.17853582 0.047079839 -0.18938957
0.18507107 0.045096278 -0.1848952
0.1914762 0.042231604 -0.1810402
0.17709936 0.055566747 -0.18760133
0.18357021 0.054417219 -0.18275855
0.1755054 0.065189146 -0.18579873
0.18178654 0.063601173 -0.18118259
0.16816153 0.076276645 -0.18818736
0.17413223 0.074599802 -0.18403177
0.16652074 0.085531682 -0.18682954
0.17239825 0.084406435 -0.18209308
0.15924904 0.097901471 -0.18953256
0.1654243 0.095030822 -0.18554376
0.17134659 0.092424639 -0.1812665
0.15740807 0.1059592 -0.18846689
0.16444518 0.10495719 -0.18381822
0.17148383 0.10362542 -0.1787934
0.14916618 0.11710224 -0.18974425
0.15561947 0.11531373 -0.186131
0.16223602 0.11364632 -0.18225674
0.17091902 0.11107614 -0.17710885
0.14765269 0.12547959 -0.1881652
0.15402149 0.12465177 -0.18324155
0.14618231 0.13511515 -0.18733381
0.15256664 0.13444965 -0.18212035
0.14561866 0.1451966 -0.18635228
0.15180409 0.14445277 -0.18124683
0.13984026 0.15755776 -0.19020128
0.14539967 0.15511905 -0.18576306
0.15136446 0.15444942 -0.18073623
0.14019683 0.16249201 -0.1898775
0.14625469 0.16335294 -0.18481827
0.15086861 0.16337232 -0.18071401
0.2396315 0.30827034 -0.18206745
0.2416676 0.30666456 -0.18277903
0.23904808 0.31134349 -0.18197221
0.2412101 0.31167826 -0.18086556
0.23101333 0.41472843 -0.18280989
0.23255394 0.41620308 -0.18047018
0.23651753 0.42527276 -0.18304168
0.24338251 0.42783499 -0.18254194
0.23901279 0.43167028 -0.18419598
0.24282256 0.4326542 -0.18405293
0.23029295 0.4492774 -0.18563038
0.23346415 0.44623441 -0.18652199
0.2283437 0.4580994 -0.18504205
0.22913915 0.4535386 -0.18511115
0.22946201 0.48985913 -0.19008784
0.23252173 0.48908171 -0.18684757
0.22665907 0.49405757 -0.18597031
0.23195399 0.49092624 -0.18558784
0.20628098 0.50691807 -0.18839949
0.21073279 0.50745714 -0.18570752
0.20719922 0.51252997 -0.18731646
0.2114743 0.51289034 -0.18633354
0.12674373 0.53293383 -0.18878475
0.13197884 0.53544295 -0.18709312
0.19758995 0.03847155 -0.17793444
0.20310228 0.038757537 -0.17284332
0.18987061 0.048667502 -0.17965566
0.19574258 0.045540985 -0.17601012
0.2017501 0.043193422 -0.1719272
0.18819465 0.05618858 -0.17844616
0.19421852 0.054836392 -0.17395377
0.1859781 0.065407 -0.17726941
0.19267666 0.06438563 -0.17229359
0.17862205 0.077153735 -0.17911445
0.18494526 0.074959576 -0.175136
0.19109479 0.073478229 -0.17096572
0.17719297 0.085573167 -0.17761578
0.1839866 0.084542729 -0.17276838
0.17039715 0.09855929 -0.18079133
0.17577495 0.095477097 -0.17691085
0.18227062 0.09430442 -0.17175661
0.16940583 0.1063337 -0.17971264
0.17581995 0.10523336 -0.17512235
0.18158814 0.10333893 -0.17099454
0.1671093 0.11578674 -0.1780117
0.17433928 0.11485195 -0.17329465
0.18189533 0.11119404 -0.16865337
0.15855661 0.12702295 -0.17895009
0.16487029 0.12493337 -0.17522401
0.17164198 0.12292379 -0.17151614
0.18089661 0.1202791 -0.16631493
0.15714476 0.13559479 -0.1779891
0.16396308 0.13472989 -0.17294498
0.15678376 0.1452764 -0.17717545
0.16316779 0.14483476 -0.1723671
0.15601321 0.15529069 -0.17675687
0.1626129 0.1548236 -0.17168897
0.15605728 0.16368094 -0.17621852
0.16184382 0.16473575 -0.17133185
0.242613 0.30705792 -0.17801633
0.24165228 0.31191593 -0.17895494
0.23586275 0.41770926 -0.17808591
0.2367429 0.42098385 -0.1804664
0.21945649 0.4582808 -0.17970978
0.22444524 0.45832145 -0.17868818
0.2258385 0.46208179 -0.17604506
0.24392007 0.48621917 -0.1712269
0.20830761 0.039023746 -0.16793205
0.2129748 0.039288029 -0.16366878
0.20623218 0.045566797 -0.16676632
0.21291828 0.043934815 -0.16201811
0.19937243 0.055327833 -0.1694928
0.20503737 0.055021346 -0.16476044
0.21070014 0.052680328 -0.16076723
0.19755608 0.065849565 -0.16788225
0.20368584 0.064653955 -0.16317065
0.19601214 0.075310715 -0.16667651
0.20237727 0.074536629 -0.16184755
0.18853131 0.086317755 -0.16879357
0.1946529 0.084918305 -0.16469139
0.20104554 0.082708828 -0.16064261
0.18686445 0.095609047 -0.16788858
0.19370279 0.094574168 -0.16259597
0.18039709 0.10892876 -0.17058106
0.18638028 0.10546902 -0.16676803
0.19208698 0.10371903 -0.16215317
0.17868577 0.11626641 -0.16948128
0.18540141 0.11507034 -0.16506045
0.19243635 0.11113437 -0.16000308
0.16994776 0.12826115 -0.17050716
0.17611516 0.12557994 -0.16728538
0.18362294 0.12404638 -0.1627972
0.19202572 0.12033525 -0.15800211
0.16897494 0.13550653 -0.16912453
0.17505129 0.13519295 -0.16467401
0.18158884 0.13204418 -0.16106676
0.16803141 0.14488557 -0.16837704
0.17447986 0.14508295 -0.16333354
0.16766833 0.15524803 -0.16776094
0.17378303 0.15488702 -0.16301502
0.16696006 0.16489592 -0.16738254
0.17305887 0.16499458 -0.1624665
0.16876963 0.17056717 -0.16557348
0.1724645 0.17080075 -0.1625044
0.24616979 0.48756322 -0.16778053
0.24393724 0.49224958 -0.16600256
0.21988702 0.03892104 -0.1588494
0.21739556 0.046112593 -0.15745842
0.22359759 0.044659611 -0.15309478
0.22992288 0.041297201 -0.14996068
0.20979296 0.058029685 -0.15991578
0.21530282 0.055125732 -0.15621658
0.22171649 0.054350447 -0.15127185
0.20864968 0.065974735 -0.15901594
0.21476412 0.064855032 -0.15414667
0.2201515 0.062835664 -0.15023048
0.20714499 0.075435773 -0.15783592
0.21392213 0.074765921 -0.15283519
0.19970606 0.088889644 -0.15998024
0.2053276 0.085385554 -0.15650076
0.21214986 0.084287092 -0.15162902
0.19835757 0.096235096 -0.15867101
0.20481305 0.094837509 -0.15411629
0.2107611 0.092107147 -0.15027121
0.19692968 0.1055772 -0.1576934
0.20317777 0.10437869 -0.1527753
0.19010694 0.11755208 -0.1602204
0.19580007 0.11528169 -0.15642393
0.20175157 0.11278299 -0.15217756
0.18792129 0.12594168 -0.15875104
0.19485994 0.12483046 -0.15409625
0.20146349 0.11966394 -0.15017144
0.18558663 0.13533895 -0.15688904
0.19296594 0.13404761 -0.15156932
0.17962024 0.14624622 -0.15962857
0.18509519 0.14495081 -0.15515836
0.19079004 0.14409104 -0.15043278
0.17868626 0.15592317 -0.15905869
0.18482478 0.15497124 -0.15449385
0.19065735 0.15213439 -0.1495261
0.17816071 0.16539855 -0.15898055
0.18516567 0.1650153 -0.15404177
0.19273287 0.16207908 -0.14806318
0.17803659 0.17180161 -0.15851408
0.18571217 0.17239885 -0.15377723
0.19332011 0.17422757 -0.14847271
0.29799345 0.32800373 -0.15534589
0.30401519 0.32764068 -0.15334697
0.29727617 0.33279949 -0.15414748
0.30221015 0.33185714 -0.15324146
0.22832853 0.047035944 -0.14852676
0.23511927 0.04535589 -0.14416844
0.24171434 0.043278374 -0.14105046
0.22670308 0.05528095 -0.1472764
0.23328623 0.054851096 -0.14271982
0.24010751 0.052489899 -0.13866767
0.21863961 0.069729231 -0.15001801
0.224967 0.065003268 -0.14641435
0.23183133 0.064687729 -0.14167981
0.23990051 0.063018881 -0.13681011
0.21875627 0.075609289 -0.14884046
0.22490485 0.074884951 -0.14440009
0.23102176 0.071930125 -0.14077336
0.21712875 0.085663021 -0.14764589
0.22354253 0.084536515 -0.14292794
0.22952059 0.081600621 -0.13937388
0.20899053 0.098973341 -0.14986825
0.21557879 0.095222346 -0.14573272
0.22141358 0.09405072 -0.14160743
0.20785309 0.10581861 -0.14880963
0.21446592 0.10450799 -0.14362408
0.2200406 0.10139371 -0.14035729
0.20633878 0.11540401 -0.14803793
0.21357182 0.1144905 -0.14231496
0.19929373 0.12641755 -0.14968771
0.20525044 0.12507848 -0.14581758
0.21170576 0.123299 -0.14144266
0.19716935 0.13552256 -0.14737758
0.20391078 0.13439146 -0.14287622
0.20787403 0.13043539 -0.14152393
0.19563115 0.14518736 -0.14592367
0.20240982 0.14397997 -0.14089161
0.19000462 0.15638149 -0.15007342
0.19496696 0.15502071 -0.14569759
0.20151976 0.15463121 -0.14037791
0.19035707 0.16613705 -0.15004978
0.19541045 0.16501789 -0.14605182
0.2013357 0.16341493 -0.140705
0.19001612 0.17224057 -0.15074658
0.1964041 0.17422138 -0.14601208
0.20174405 0.17448419 -0.14150611
0.19913137 0.1801386 -0.14442204
0.20344841 0.18138318 -0.14084482
0.30917916 0.26981446 -0.14354275
0.31725374 0.26515451 -0.14169915
0.32031047 0.26173732 -0.14203072
0.30859935 0.27354372 -0.14403698
0.31580311 0.27510092 -0.14309631
0.30662879 0.33814669 -0.14734691
0.29909366 0.34137011 -0.14929897
0.30337855 0.3418152 -0.14702314
0.23951066 0.049413763 -0.13990231
0.24588604 0.046341185 -0.13630749
0.25233936 0.045742448 -0.13155605
0.2309458 0.057284832 -0.14371486
0.23832116 0.056027997 -0.13908312
0.24512503 0.055037517 -0.134385
0.25094736 0.050787926 -0.13046327
0.2371545 0.065383814 -0.13813399
0.24431998 0.064788893 -0.13323082
0.24903496 0.064896904 -0.12961377
0.22920537 0.079275489 -0.14010407
0.23537357 0.075338595 -0.1370157
0.24295114 0.074707486 -0.13218094
0.22814682 0.086031884 -0.13903099
0.23485202 0.084843561 -0.13457258
0.24171993 0.083479293 -0.13035594
0.22604968 0.095387183 -0.13764375
0.23348147 0.094298556 -0.13236713
0.21926329 0.10820036 -0.13937089
0.22474143 0.10487214 -0.13573003
0.23193422 0.10401082 -0.13058071
0.21807513 0.11558625 -0.13826972
0.22419856 0.11461399 -0.13384238
0.23006557 0.11215148 -0.12986754
0.21628626 0.12561157 -0.13733418
0.2235736 0.12401356 -0.13203241
0.20207939 0.14020197 -0.14205794
0.20837821 0.1369939 -0.13872841
0.21482381 0.13493991 -0.13528635
0.22177756 0.13327548 -0.13079749
0.20164353 0.14951017 -0.14064722
0.20679425 0.14541788 -0.13754472
0.21453053 0.14447144 -0.1327381
0.22316782 0.13944001 -0.12765847
0.19877459 0.15522024 -0.14244652
0.20629044 0.15488073 -0.13682276
0.21340731 0.15452144 -0.13180678
0.20615038 0.16519852 -0.13700689
0.2122165 0.16425125 -0.13204621
0.2061757 0.17474186 -0.13750449
0.21249138 0.17472497 -0.13178316
0.20743097 0.18154363 -0.13692537
0.21269523 0.18244134 -0.13190067
0.31947798 0.26709881 -0.13978569
0.33314389 0.35319263 -0.13073504
0.33439001 0.35306022 -0.13193215
0.3421708 0.35558999 -0.12852862
0.25655708 0.047050048 -0.12646091
0.2627252 0.046466317 -0.12174042
0.25005525 0.058113467 -0.12978691
0.25524056 0.055121537 -0.12560937
0.26110584 0.053694129 -0.12075612
0.24859552 0.066561036 -0.12949832
0.25458381 0.064648025 -0.12449145
0.24802801 0.075404823 -0.12798111
0.253589 0.075045578 -0.12373761
0.26253128 0.072949857 -0.11703262
0.23621324 0.087218642 -0.13270073
0.24599952 0.085440405 -0.12624751
0.25233021 0.084580339 -0.12204854
0.23814641 0.096307449 -0.12828724
0.24431682 0.094828762 -0.12407446
0.25090572 0.092406496 -0.1200798
0.22789684 0.10812815 -0.13262446
0.23633666 0.10519222 -0.1268722
0.24354167 0.10422254 -0.12172825
0.22928639 0.11810883 -0.12886338
0.2348994 0.1150513 -0.12577072
0.24186738 0.11342411 -0.12087946
0.22774322 0.12630944 -0.12810731
0.23434277 0.12449144 -0.12376109
0.23998566 0.12084164 -0.12066936
0.22084342 0.13510521 -0.1309918
0.22582121 0.13553171 -0.12689817
0.23273861 0.13402458 -0.1221303
0.21931984 0.14646208 -0.12900855
0.22465955 0.14502105 -0.12524305
0.23138224 0.14342269 -0.12050605
0.21794881 0.15749884 -0.12865146
0.22443044 0.1548626 -0.12385216
0.23046273 0.15169799 -0.11966518
0.21746644 0.16499422 -0.1283475
0.22443169 0.16469808 -0.12303331
0.22959355 0.16198528 -0.11930657
0.21730174 0.17500424 -0.12771831
0.22370902 0.17472135 -0.12320079
0.21742155 0.18358 -0.12814753
0.22378558 0.1845651 -0.12328457
0.22840512 0.18348613 -0.11954587
0.22635013 0.19106002 -0.12192345
0.32845709 0.35468873 -0.1302788
0.33495861 0.3529689 -0.13116501
0.34402296 0.35432914 -0.12450022
0.26737443 0.047808193 -0.11779323
0.27417117 0.047024198 -0.11364279
0.25986677 0.058668934 -0.12090604
0.26552135 0.055307683 -0.11704254
0.2728726 0.054764055 -0.11181089
0.25927335 0.06662979 -0.12020355
0.26558805 0.065047301 -0.11572812
0.27207935 0.064345494 -0.11112598
0.25862765 0.075457349 -0.11967921
0.26550186 0.075120881 -0.11489204
0.2710925 0.074052736 -0.11113273
0.25759777 0.085333154 -0.11814301
0.26506311 0.084692799 -0.1137364
0.27125031 0.082361735 -0.11040094
0.24897522 0.096802093 -0.11988851
0.2550543 0.095359907 -0.11628456
0.26313579 0.094397381 -0.11217488
0.27212954 0.090240449 -0.10800251
0.24175273 0.10697291 -0.12239837
0.24790668 0.10641541 -0.11809895
0.25405025 0.10458826 -0.11405504
0.26096049 0.10357119 -0.11041899
0.24014764 0.11640658 -0.12160744
0.24606945 0.11536983 -0.11753108
0.25398239 0.11442555 -0.11197433
0.25978264 0.11326708 -0.10855636
0.23932594 0.1275607 -0.1194592
0.24520583 0.12484593 -0.11662892
0.25255924 0.12438435 -0.11134787
0.22792381 0.14064564 -0.12369524
0.23748441 0.13559838 -0.11835596
0.24473372 0.1347122 -0.11435519
0.25097573 0.13399354 -0.11050355
0.23287633 0.14928737 -0.11824589
0.23595785 0.14534968 -0.11685451
0.24336557 0.14449748 -0.11197298
0.22794297 0.15700296 -0.12100662
0.2349219 0.15506151 -0.11621773
0.24187285 0.15481076 -0.11135932
0.22882691 0.16775443 -0.11965016
0.23497806 0.16481897 -0.11543337
0.24084906 0.1653946 -0.11103076
0.22854455 0.17490758 -0.11961435
0.23469019 0.17506337 -0.11483867
0.24048449 0.17518815 -0.11053176
0.22854121 0.18454109 -0.11946027
0.2350329 0.18498859 -0.11411742
0.24027881 0.18317202 -0.10971618
0.22932369 0.191586 -0.11920654
0.23575345 0.19317248 -0.11371829
0.23980395 0.19746225 -0.11041392
0.23927332 0.20017093 -0.11193144
0.33553198 0.33740222 -0.11533342
0.34637684 0.33755204 -0.11296407
0.35012296 0.33968112 -0.11174874
0.33718407 0.34207943 -0.11542031
0.3463161 0.34406972 -0.1133835
0.35116252 0.34484971 -0.110891
0.34829298 0.34914491 -0.11417071
0.35696924 0.36945018 -0.11581077
0.35786924 0.37274173 -0.11555726
0.36133304 0.37268344 -0.11344048
0.27932724 0.048187096 -0.10978255
0.28491893 0.04797997 -0.10575361
0.2920967 0.047454435 -0.10086793
0.27808249 0.055505782 -0.10815857
0.2843765 0.054841101 -0.1040551
0.29086298 0.050845519 -0.1005586
0.27693978 0.065265134 -0.10760834
0.28332183 0.064845942 -0.10268139
0.27582639 0.075233422 -0.10762768
0.2826286 0.074339487 -0.10213742
0.26943955 0.087737925 -0.11019143
0.27587506 0.085012689 -0.10671073
0.28216535 0.08529406 -0.10144889
0.25566909 0.10105949 -0.11417907
0.26774853 0.096081376 -0.10878398
0.27515599 0.095007636 -0.10462248
0.28117934 0.093523242 -0.10041726
0.25893852 0.10661791 -0.11050206
0.26576808 0.10530894 -0.10681457
0.27405807 0.10455008 -0.10247312
0.25785214 0.117071 -0.10898092
0.26460746 0.11479332 -0.10509609
0.27185777 0.11421639 -0.10075734
0.25721091 0.12566002 -0.10816465
0.26456279 0.12486418 -0.10352281
0.27040607 0.1219142 -0.10044961
0.24805167 0.13826053 -0.1110173
0.25591686 0.13540792 -0.10733413
0.26349977 0.13457881 -0.10232427
0.27023947 0.1338563 -0.098333403
0.24767607 0.14685816 -0.10881183
0.25481638 0.14494336 -0.10535863
0.26217398 0.14421199 -0.10136212
0.26903281 0.14326918 -0.097212024
0.24704066 0.15530416 -0.10779964
0.25456372 0.15517861 -0.10337781
0.26121202 0.15346095 -0.099847935
0.24637143 0.16501896 -0.10748974
0.25404215 0.16489914 -0.10217782
0.2634488 0.1626541 -0.096564837
0.24588874 0.17495526 -0.10678604
0.25257736 0.17524536 -0.10201745
0.26115656 0.17199492 -0.09644568
0.24080883 0.18382844 -0.10928141
0.2449276 0.18516603 -0.10590355
0.25173393 0.18479024 -0.10080029
0.23988438 0.19225971 -0.10989362
0.24479781 0.1951047 -0.10496835
0.25047916 0.19456707 -0.1004068
0.24694592 0.20154917 -0.10402876
0.25093183 0.20311454 -0.10074447
0.29683524 0.0482013 -0.097280204
0.30379999 0.048273705 -0.092310958
0.28934333 0.057244133 -0.099838302
0.29529393 0.055272084 -0.096173018
0.30208454 0.053948525 -0.091617815
0.28850919 0.065509036 -0.098698154
0.29515514 0.065054819 -0.094100535
0.30069086 0.064395875 -0.090220511
0.28743932 0.075683571 -0.098373234
0.2946049 0.074880034 -0.093229681
0.28687978 0.085074112 -0.097711422
0.29333338 0.084913105 -0.092811182
0.30325517 0.083290853 -0.086680077
0.28610593 0.09530241 -0.096747212
0.29260328 0.094545588 -0.092605822
0.27864766 0.10644738 -0.098750241
0.28513691 0.10490722 -0.095491692
0.29195595 0.10509419 -0.091750242
0.29996163 0.10849569 -0.086470701
0.26890099 0.12052558 -0.10145508
0.27698684 0.11559641 -0.09733516
0.28501627 0.11494604 -0.094094142
0.29222026 0.1134247 -0.090825193
0.29891711 0.11145306 -0.086761139
0.26803443 0.12938224 -0.10045669
0.27502194 0.12501928 -0.097007111
0.28360769 0.12481011 -0.092531249
0.29031563 0.12415061 -0.089037061
0.26830381 0.1363524 -0.098943025
0.27511889 0.13516998 -0.095538959
0.28224206 0.13363989 -0.091540053
0.28891122 0.13134637 -0.087961532
0.26144555 0.14895983 -0.10076948
0.26681909 0.1453972 -0.098288581
0.2750628 0.14492805 -0.093709655
0.28238061 0.14577679 -0.088456392
0.25839567 0.15643309 -0.10094963
0.26550534 0.15537858 -0.096929774
0.27363157 0.15448114 -0.092285492
0.27989712 0.15110774 -0.088803947
0.25852546 0.1666643 -0.098950051
0.26499811 0.16529568 -0.09524554
0.27212828 0.16385539 -0.091251232
0.25738183 0.17485581 -0.098526925
0.26466072 0.17535388 -0.09390869
0.27038217 0.17102396 -0.090696111
0.25650078 0.18572803 -0.096950047
0.26368591 0.18484366 -0.092185847
0.25240606 0.19776808 -0.098731264
0.2555863 0.19537205 -0.096855074
0.26286212 0.19482598 -0.091607228
0.27016526 0.19361269 -0.086366355
0.25646129 0.20474596 -0.096591681
0.26284337 0.20519039 -0.091769978
0.26858532 0.20833211 -0.087715983
0.25854364 0.21216162 -0.096599713
0.26374853 0.21250463 -0.092084482
0.30844206 0.048736516 -0.088675119
0.31433007 0.04859243 -0.084049545
0.32069278 0.047967795 -0.079187073
0.30652592 0.055397477 -0.087697655
0.31380454 0.054890882 -0.082657099
0.30575195 0.065121166 -0.086412661
0.31253579 0.064916119 -0.081922337
0.2997047 0.07682097 -0.089741245
0.30567071 0.075090051 -0.086015143
0.31166497 0.074773736 -0.081827052
0.29852539 0.085631557 -0.08939442
0.30557635 0.085025154 -0.084958419
0.31205502 0.084009565 -0.080850042
0.3195973 0.083814703 -0.076162934
0.29787645 0.09540318 -0.08932969
0.305444 0.094973393 -0.084317707
0.3108013 0.092389435 -0.080741301
0.29699215 0.10545662 -0.088909931
0.30417693 0.1049292 -0.083796702
0.31028685 0.10341434 -0.07993497
0.28954545 0.11795044 -0.091094568
0.29604623 0.11560036 -0.087890953
0.30320576 0.11453028 -0.083263941
0.30961657 0.11299931 -0.078418158
0.28887641 0.12616211 -0.089489639
0.29598272 0.12529583 -0.085764512
0.30150601 0.12305755 -0.08259546
0.30871892 0.12189835 -0.077008747
0.27956948 0.14006634 -0.091847129
0.28655124 0.13577138 -0.08795736
0.29455745 0.13500753 -0.083183944
0.30176625 0.13368788 -0.078887105
0.27948347 0.14662115 -0.090376496
0.28510383 0.1452127 -0.086798243
0.29281631 0.14470483 -0.081558876
0.30000955 0.14131233 -0.078136235
0.278476 0.15654407 -0.088456601
0.2849136 0.15501086 -0.084670454
0.29147634 0.15417644 -0.080584995
0.26853913 0.17062828 -0.091895267
0.27706218 0.16573541 -0.087566398
0.28471076 0.16465284 -0.082861416
0.29050624 0.16208258 -0.080042012
0.26965818 0.1770124 -0.089803398
0.2752291 0.17523715 -0.086736858
0.28252265 0.17415163 -0.081489399
0.28899032 0.17226978 -0.077727214
0.26848537 0.18516509 -0.088760957
0.2744512 0.18518309 -0.084333166
0.28038785 0.18355283 -0.08002235
0.26082876 0.19620873 -0.0931146
0.26796135 0.19564019 -0.08802145
0.27427307 0.19485788 -0.083182119
0.27982655 0.19178694 -0.07896816
0.26779425 0.20526987 -0.088039093
0.27415666 0.20502226 -0.083503067
0.26824212 0.21380058 -0.088587284
0.27380338 0.21530351 -0.084037423
0.27875698 0.21551415 -0.079942681
0.27471918 0.22229598 -0.082980938
0.31952891 0.050053921 -0.079682462
0.32580248 0.048761435 -0.075360909
0.33148375 0.048858691 -0.071455047
0.318719 0.056157578 -0.078798652
0.32500732 0.054989845 -0.074710675
0.33151242 0.054062407 -0.070330985
0.31762078 0.065184124 -0.078282841
0.32465461 0.064901307 -0.073699482
0.32928348 0.062410507 -0.070672967
0.31666663 0.075023927 -0.078488447
0.32392049 0.07497517 -0.073644735
0.32816121 0.077347279 -0.070413075
0.31586194 0.085467406 -0.078277543
0.3232381 0.084777765 -0.073284611
0.3103483 0.094303422 -0.080797285
0.31613231 0.09537863 -0.076865241
0.32258618 0.094046339 -0.07300625
0.32833022 0.094203882 -0.068814494
0.309286 0.10617227 -0.079826295
0.3160837 0.10505643 -0.075179853
0.32154879 0.10453048 -0.071153492
0.32716519 0.10351545 -0.067904457
0.30799401 0.11585888 -0.07903029
0.31473565 0.11487572 -0.074050173
0.32154199 0.11471865 -0.069185831
0.32797047 0.11089229 -0.066189811
0.30053547 0.12845936 -0.081421085
0.30636242 0.12563115 -0.078018792
0.31311724 0.12505671 -0.072585337
0.32041365 0.12235505 -0.068586498
0.2996119 0.1362185 -0.079527415
0.30591246 0.13533247 -0.075869553
0.31265509 0.13503595 -0.071575366
0.31937709 0.12992091 -0.067736179
0.29316136 0.15002507 -0.080362953
0.29751843 0.14570817 -0.078189909
0.30499932 0.14508089 -0.073732935
0.3113004 0.14395595 -0.070271589
0.29603085 0.15539899 -0.077275865
0.3036378 0.15462767 -0.072136804
0.28806624 0.16764468 -0.079983525
0.29495463 0.16500548 -0.076261789
0.30232471 0.16480693 -0.071027078
0.28740016 0.17602253 -0.077927843
0.29456201 0.17479457 -0.073623888
0.30114329 0.1734737 -0.069322012
0.28041452 0.18525882 -0.079626948
0.28553277 0.18510565 -0.076433823
0.29311049 0.18441422 -0.071197674
0.27297881 0.19874403 -0.0840756
0.27882439 0.19724466 -0.079346098
0.28458199 0.19554491 -0.075109407
0.29141358 0.19357675 -0.070377223
0.30040589 0.19429541 -0.06489224
0.27901292 0.20538521 -0.079430029
0.2848804 0.20507343 -0.074484333
0.29106146 0.20557345 -0.070303462
0.27909276 0.21616192 -0.079655454
0.28498349 0.21484412 -0.074348055
0.29056984 0.21430238 -0.070362352
0.27921531 0.22333066 -0.079440668
0.28544599 0.22492406 -0.073617041
0.28658625 0.23276304 -0.072059214
0.33639193 0.049540304 -0.068026468
0.34710804 0.04928682 -0.060783837
0.33188626 0.051023144 -0.070721798
0.33578557 0.055365514 -0.067298129
0.34313217 0.05415915 -0.062197719
0.32950333 0.066823281 -0.070230201
0.33537215 0.065049745 -0.06616874
0.34178194 0.064932026 -0.061566386
0.32871911 0.075297832 -0.070164561
0.33560896 0.075181745 -0.065050811
0.34110996 0.074572898 -0.060795963
0.32849595 0.085616723 -0.069700129
0.33554441 0.085163191 -0.064469106
0.33925039 0.085428327 -0.061282031
0.32777226 0.095665544 -0.069150485
0.33512589 0.094816156 -0.063943066
0.34157747 0.09708558 -0.058677237
0.32026196 0.11001044 -0.071048222
0.32641411 0.10515877 -0.068097584
0.33358958 0.10536116 -0.063411087
0.31311464 0.11747248 -0.074743636
0.31903866 0.11643852 -0.070624709
0.32590401 0.11538382 -0.066807248
0.33275166 0.11431348 -0.062652647
0.33978695 0.11536188 -0.057853822
0.31807363 0.12530319 -0.069357313
0.3255257 0.12524255 -0.065029956
0.33216792 0.12338165 -0.061463002
0.33862516 0.12111226 -0.057924546
0.3172988 0.13543913 -0.068071686
0.32522067 0.13498423 -0.063165739
0.33164325 0.13317215 -0.0598181
0.30875775 0.1492577 -0.070254125
0.31594762 0.14516886 -0.067344315
0.32377604 0.14440888 -0.062323511
0.3303057 0.14245006 -0.058848202
0.30815604 0.15617095 -0.068489887
0.31482363 0.15496634 -0.064949594
0.32181042 0.15391076 -0.061502535
0.32961109 0.15463521 -0.056855895
0.3070631 0.16502042 -0.06751617
0.31425491 0.16480145 -0.062963702
0.32053077 0.16357495 -0.060032036
0.29837683 0.1746491 -0.070962697
0.30535185 0.17520431 -0.06616734
0.3131108 0.17432672 -0.061399657
0.31978589 0.17449071 -0.05774891
0.29092762 0.18779516 -0.071879975
0.29729623 0.18623847 -0.06788785
0.30453935 0.1847885 -0.064630575
0.31164715 0.18457477 -0.061125278
0.31956148 0.18565895 -0.056217458
0.28957769 0.19274281 -0.071752667
0.29630494 0.19566169 -0.067037471
0.3047871 0.19486378 -0.062961318
0.31044617 0.19438027 -0.060439229
0.3194935 0.1933361 -0.05579963
0.29589266 0.20511125 -0.067038178
0.30446112 0.20493993 -0.06257382
0.30885041 0.20669015 -0.059710506
0.29557446 0.21545592 -0.067033611
0.30351883 0.21497141 -0.062138405
0.30948126 0.21514979 -0.058584549
0.28978348 0.22942413 -0.069842011
0.29498699 0.22518447 -0.066355415
0.30255422 0.22507945 -0.061536897
0.30995685 0.2260247 -0.057102397
0.2895534 0.23264816 -0.069943115
0.29565367 0.23477103 -0.065774791
0.30179435 0.23523815 -0.061525017
0.29795763 0.24261314 -0.064500511
0.3016811 0.24521948 -0.06161074
0.30480802 0.2518793 -0.060223121
0.34982896 0.049926553 -0.058945064
0.35576943 0.049367085 -0.055759452
0.36183834 0.04825614 -0.052637741
0.34793386 0.056248784 -0.058693878
0.35491166 0.055049554 -0.054476298
0.3621704 0.052993923 -0.050734002
0.34697053 0.065117255 -0.057584442
0.35407642 0.064782768 -0.052371196
0.34615001 0.074951962 -0.056639209
0.35276347 0.074767821 -0.051688004
0.34048086 0.086537734 -0.060063425
0.34544224 0.085046351 -0.056792039
0.35190296 0.084629402 -0.051885832
0.33943963 0.096858405 -0.060566816
0.3452816 0.095115997 -0.055722244
0.35109976 0.093883231 -0.051279459
0.33882549 0.10525906 -0.060243119
0.34582227 0.10518704 -0.055170547
0.35050222 0.1035373 -0.051078111
0.32598847 0.1187204 -0.066119343
0.33766395 0.11563175 -0.059624728
0.34544596 0.11494283 -0.05442619
0.35058248 0.11575142 -0.050852325
0.33074638 0.12798591 -0.061269309
0.33621404 0.1256232 -0.058542054
0.34414119 0.12491771 -0.053466644
0.35066345 0.12439501 -0.049965248
0.33028641 0.13051711 -0.060978223
0.3354553 0.13538247 -0.056907341
0.34304157 0.13449046 -0.052870609
0.34857517 0.13441871 -0.048710763
0.3281574 0.14670779 -0.059274253
0.3356337 0.14499176 -0.055075638
0.34122974 0.14393404 -0.051698681
0.31895539 0.15889424 -0.061692208
0.32664391 0.15534543 -0.058598816
0.33485505 0.15483794 -0.053986657
0.34043238 0.15451658 -0.050203737
0.31810328 0.1682999 -0.059995312
0.32510966 0.16528311 -0.057006266
0.33441073 0.16483217 -0.052679449
0.33866107 0.16557762 -0.04958209
0.31022862 0.17729013 -0.062845863
0.31762695 0.17631952 -0.058501799
0.32501394 0.17515047 -0.055421818
0.33267277 0.17371264 -0.051675256
0.3379668 0.17584643 -0.047641106
0.30816296 0.18845798 -0.062328629
0.31666777 0.18537632 -0.058087282
0.3250818 0.18485846 -0.05363122
0.331285 0.18633427 -0.050364546
0.30751091 0.19368324 -0.062043279
0.31584749 0.19530544 -0.057781868
0.32431853 0.19470799 -0.052912463
0.33279067 0.19279709 -0.04767061
0.30089623 0.20924856 -0.064095683
0.30920431 0.2064745 -0.059916601
0.31539431 0.20512746 -0.056565441
0.32296506 0.20461065 -0.05216977
0.33058366 0.20180941 -0.047062267
0.3086715 0.21579054 -0.058994293
0.31541172 0.21525782 -0.054793172
0.32174307 0.21374393 -0.050907046
0.30800664 0.22535703 -0.05842784
0.31498119 0.22516409 -0.053722966
0.32528865 0.22618328 -0.045414396
0.30708063 0.23494042 -0.058147326
0.31366536 0.23484001 -0.053875834
0.3193613 0.23606284 -0.049518257
0.30701494 0.24491619 -0.057636641
0.31340447 0.24544619 -0.053270698
0.32131299 0.24475446 -0.047245145
0.30875799 0.25237328 -0.056610808
0.31355041 0.25470501 -0.052643422
0.31928968 0.25962725 -0.04778624
0.31515422 0.26200393 -0.05204979
0.36355668 0.056196682 -0.049168248
0.35874942 0.065959595 -0.049284246
0.36139598 0.064618245 -0.048012845
0.35743374 0.075406864 -0.048049629
0.36048338 0.07283286 -0.046969902
0.35610786 0.085092179 -0.048242897
0.35478044 0.095114835 -0.047983181
0.35070312 0.1060441 -0.050948452
0.35341653 0.10520453 -0.048610285
0.34995827 0.11877786 -0.051069871
0.35319176 0.11507677 -0.048784833
0.34941941 0.126082 -0.050625108
0.35316333 0.1249148 -0.048053086
0.3471176 0.13605838 -0.049128287
0.35169998 0.1342131 -0.04636544
0.34034806 0.14992721 -0.050907068
0.34539837 0.14542642 -0.047670893
0.35074282 0.14213921 -0.043694366
0.33951345 0.15601429 -0.050597504
0.34417275 0.15497601 -0.046924118
0.3392244 0.16581173 -0.049211733
0.34333473 0.16469716 -0.046251878
0.32970014 0.17858578 -0.052483957
0.33711395 0.17595747 -0.048291732
0.3427718 0.17434424 -0.044901405
0.3291021 0.18893841 -0.051162895
0.33556175 0.18506737 -0.047831386
0.34172606 0.18426085 -0.043822907
0.3290627 0.19654773 -0.049534
0.33526421 0.19498786 -0.045649234
0.341122 0.19287805 -0.042856112
0.32743007 0.20559761 -0.048885949
0.33439305 0.2048955 -0.043589193
0.3378481 0.19984254 -0.042392153
0.32565862 0.21529362 -0.047164321
0.33244249 0.2147359 -0.041502256
0.31917208 0.22618619 -0.050673541
0.32493842 0.2250444 -0.045835167
0.3315222 0.22407374 -0.040494807
0.31854674 0.23575158 -0.050154135
0.32549402 0.23526795 -0.045002669
0.33086303 0.23408738 -0.040381353
0.31870982 0.24461122 -0.049394749
0.32539085 0.24449566 -0.044258408
0.33090764 0.24629326 -0.039399501
0.318261 0.25462261 -0.048482921
0.32437405 0.25479344 -0.043968763
0.31841135 0.26302966 -0.048883513
0.32413292 0.26497862 -0.043617353
0.32680932 0.27340004 -0.042787887
0.33150503 0.27510196 -0.039583832
0.34634483 0.15873703 -0.043769971
0.3377223 0.19789688 -0.043458629
0.33603114 0.2076592 -0.041237943
0.32933977 0.21689403 -0.043862756
0.33468413 0.21784417 -0.038706891
0.32947454 0.22632046 -0.042158332
0.33330849 0.2266625 -0.038323309
0.33265832 0.23613545 -0.03863151
0.32946563 0.24641654 -0.040712494
0.33172545 0.24467775 -0.038996592
0.32908076 0.25477773 -0.040144883
0.32842851 0.2640039 -0.039925035
0.32953537 0.2735948 -0.04030684
