# .PCD v0.7 - Point Cloud Data file format
VERSION 0.7
FIELDS x y z
SIZE 4 4 4
TYPE F F F
COUNT 1 1 1
WIDTH 1408
HEIGHT 1
VIEWPOINT 0 0 0 1 0 0 0
POINTS 1408
DATA ascii
0.36925551 0.15502447 0.079514489
0.3694241 0.15354168 0.07945586
0.36967868 0.15211377 0.079643309
0.36984724 0.15063149 0.079584688
0.3700158 0.14914912 0.079526067
0.37009859 0.14761019 0.079221316
0.37018144 0.14607024 0.078916647
0.37026447 0.14452922 0.078611866
0.370262 0.14292887 0.07806091
0.37034529 0.14138511 0.077756085
0.3704288 0.13984022 0.077451102
0.37059775 0.13835412 0.077392325
0.37076673 0.13686797 0.077333577
0.37093571 0.13538191 0.077274814
0.37118989 0.1339573 0.077462375
0.37144399 0.13253367 0.077649869
0.37169793 0.13111123 0.07783746
0.37195179 0.1296899 0.078025103
0.37212053 0.12820601 0.077966422
0.3722043 0.12665787 0.077661365
0.37228829 0.12510857 0.077356264
0.3723723 0.12355837 0.077051178
0.37245655 0.12200692 0.076745942
0.3726255 0.12052092 0.07668718
0.37270984 0.11896786 0.076381981
0.37287891 0.1174812 0.076323196
0.37304795 0.11599457 0.076264426
0.37321699 0.11450794 0.076205634
0.37338606 0.11302122 0.076146841
0.37355506 0.11153466 0.076088071
0.37372413 0.110048 0.076029286
0.37389317 0.10856131 0.075970493
0.37406221 0.10707474 0.075911716
0.37423125 0.10558802 0.075852931
0.37440026 0.10410139 0.075794145
0.37456933 0.10261476 0.075735353
0.37465456 0.1010547 0.075429827
0.3747398 0.099493593 0.075124316
0.37490895 0.098005891 0.075065494
0.37499446 0.096443087 0.074759796
0.37508008 0.09487921 0.074454173
0.37524933 0.093390405 0.074395299
0.37541863 0.0919016 0.074336432
0.37558788 0.090412825 0.074277565
0.37575719 0.088923991 0.07421869
0.37600982 0.087513447 0.074406691
0.37626225 0.086104065 0.07459487
0.37643144 0.084616303 0.074536033
0.37668377 0.083208382 0.07472416
0.37693587 0.081801683 0.074912377
0.37710497 0.080315024 0.074853584
0.37735695 0.078909963 0.075041816
0.3775259 0.077423811 0.074983045
0.3776949 0.075937748 0.074924283
0.37778109 0.074368477 0.074618444
0.37786749 0.072798103 0.074312516
0.37795392 0.071226686 0.074006595
0.37804046 0.069654256 0.073700517
0.37812725 0.068080515 0.073394507
0.37829649 0.066591769 0.073335633
0.3783834 0.065016568 0.073029503
0.37855276 0.063527167 0.072970621
0.37872213 0.062037796 0.072911724
0.37897366 0.060636461 0.073100157
0.379143 0.059147656 0.073041283
0.37931225 0.057658851 0.072982416
0.37948155 0.056170046 0.072923541
0.37956885 0.054591 0.072617263
0.37965631 0.053010911 0.072310939
0.37974393 0.051429689 0.072004579
0.37983155 0.049847484 0.071698181
0.37983769 0.048171669 0.071144223
0.37992573 0.046586663 0.070837781
0.38009545 0.045094103 0.070778765
0.38026515 0.043601453 0.070719726
0.38043487 0.042108893 0.07066071
0.38068599 0.040711343 0.070849225
0.38085568 0.03921926 0.070790231
0.38110662 0.037823319 0.070978872
0.38135737 0.036428601 0.071167573
0.38152689 0.03493759 0.071108609
0.38161543 0.033348739 0.070801944
0.38170391 0.031758964 0.070495233
0.38171166 0.030069113 0.069940805
0.38171959 0.028377056 0.069386214
0.38172784 0.026682854 0.068831541
0.38181704 0.025087059 0.068524651
0.38190645 0.023490101 0.068217665
0.35634398 0.28557315 0.09380763
0.35651034 0.28411034 0.093749784
0.35676858 0.28265488 0.093936041
0.35702673 0.28120044 0.094122261
0.35719293 0.27973878 0.094064467
0.35745087 0.27828595 0.094250821
0.35761702 0.2768248 0.094193049
0.35787475 0.27537373 0.09437947
0.35794929 0.27390254 0.094077498
0.35811543 0.27244136 0.094019726
0.35828155 0.27098021 0.093961947
0.35835636 0.26950684 0.093659878
0.35852256 0.26804522 0.093602076
0.35878003 0.2665967 0.093788616
0.35894614 0.26513559 0.093730837
0.35911226 0.26367444 0.093673058
0.35927844 0.26221326 0.093615294
0.35944456 0.26075211 0.093557507
0.35961074 0.25929096 0.093499728
0.35977685 0.25782976 0.093441948
0.36003381 0.25638571 0.09362866
0.36019993 0.2549251 0.093570903
0.36036596 0.25346452 0.093513146
0.36053208 0.25200391 0.093455382
0.36069813 0.25054327 0.093397632
0.36086422 0.24908271 0.093339875
0.36103028 0.24762207 0.093282118
0.3611964 0.24616146 0.093224369
0.36136246 0.24470079 0.093166612
0.36152855 0.24324027 0.093108863
0.36178488 0.24180204 0.093295783
0.36195087 0.24034193 0.093238048
0.3621169 0.23888192 0.093180329
0.36219287 0.23739779 0.092877835
0.36235893 0.23593715 0.092820086
0.36243516 0.23445129 0.092517525
0.36251149 0.23296437 0.092214927
0.3624981 0.23145023 0.091667518
0.36257473 0.22996056 0.091364816
0.36265147 0.22846991 0.091062069
0.36263871 0.22695023 0.090514377
0.36271578 0.22545686 0.090211526
0.36270347 0.2239334 0.089663692
0.36269137 0.22240776 0.089115813
0.36276898 0.22091001 0.088812843
0.36284661 0.21941116 0.088509724
0.3629244 0.21791127 0.088206671
0.36309147 0.21644199 0.088148579
0.36316949 0.21494046 0.087845407
0.36333662 0.21347061 0.087787285
0.36350375 0.21200079 0.087729163
0.36358187 0.21049714 0.087425895
0.36366025 0.20899233 0.087122604
0.36382747 0.20752138 0.087064438
0.36390606 0.20601499 0.086761132
0.36407334 0.20454359 0.086702943
0.36424068 0.20307207 0.086644769
0.36440799 0.20160055 0.08658658
0.36448678 0.20009145 0.08628305
0.36456576 0.19858128 0.085979588
0.36455652 0.1970312 0.085430697
0.36454746 0.19547901 0.084881775
0.3645387 0.19392461 0.084332719
0.36453015 0.19236806 0.083783619
0.36452183 0.1908094 0.083234385
0.36451381 0.18924844 0.082685068
0.36459398 0.18772739 0.082381114
0.3646743 0.1862053 0.08207719
0.36484259 0.1847252 0.082018651
0.36492312 0.18320143 0.0817146
0.36509147 0.18172073 0.081656061
0.36525983 0.18024006 0.081597507
0.36542821 0.17875934 0.08153896
0.36559659 0.17727864 0.081480414
0.36576492 0.175798 0.081421867
0.36593333 0.1743173 0.08136332
0.36610168 0.17283666 0.081304766
0.36627001 0.17135596 0.08124622
0.36643842 0.1698752 0.081187673
0.36651957 0.16834548 0.080883384
0.36668795 0.16686428 0.080824822
0.36676934 0.16533294 0.080520466
0.36685082 0.16380048 0.080216125
0.36693239 0.162267 0.079911627
0.36701417 0.1607323 0.079607196
0.36718282 0.15924898 0.079548545
0.36726475 0.15771273 0.079244003
0.36752015 0.15628219 0.079431236
0.36768883 0.15479878 0.07937257
0.36785755 0.15331531 0.079313919
0.36811268 0.15188697 0.079501182
0.3682813 0.15040419 0.079442546
0.3684499 0.14892128 0.07938391
0.36853218 0.14738178 0.0790793
0.36861458 0.14584127 0.078774579
0.36869714 0.14429957 0.078469813
0.36869368 0.1426985 0.077918969
0.3687765 0.14115414 0.077614039
0.3688595 0.13960865 0.077309191
0.36902851 0.13812196 0.077250399
0.36919755 0.13663539 0.077191621
0.36945245 0.13520974 0.077378981
0.36970714 0.13378522 0.077566519
0.3699618 0.13236165 0.077753961
0.37013069 0.13087657 0.077695243
0.37038508 0.12945479 0.077882834
0.37055388 0.12797031 0.077824138
0.37063724 0.12642157 0.077519082
0.37072062 0.12487185 0.077214062
0.37080425 0.12332091 0.076908886
0.37088796 0.12176892 0.076603778
0.371057 0.12028223 0.076544985
0.37114096 0.11872864 0.07623975
0.37131006 0.11724144 0.07618095
0.37147915 0.11575428 0.07612215
0.37173316 0.11433566 0.076309845
0.37190226 0.11284897 0.07625106
0.37207127 0.11136234 0.076192282
0.3722403 0.10987574 0.076133497
0.37240934 0.10838905 0.076074705
0.37257838 0.10690242 0.076015927
0.37274745 0.1054157 0.075957142
0.37291646 0.10392913 0.075898364
0.37308553 0.10244247 0.075839579
0.37317017 0.10088235 0.075534083
0.3732549 0.099321216 0.075228617
0.37333974 0.097758949 0.074922979
0.3734248 0.096195519 0.074617416
0.37350988 0.094631165 0.074311748
0.37367922 0.093141764 0.074252866
0.37384859 0.091652453 0.074193969
0.37401789 0.090163082 0.07413508
0.37418729 0.088673681 0.074076183
0.3743566 0.08718434 0.074017294
0.37460977 0.085773885 0.074205324
0.37486285 0.084364474 0.074393332
0.37511572 0.082956135 0.074581519
0.37536851 0.081548959 0.074769616
0.37562114 0.080142766 0.074957803
0.37579018 0.078656077 0.074899018
0.37604263 0.077251613 0.075087219
0.37621161 0.07576558 0.075028449
0.3762973 0.07419616 0.074722663
0.37638313 0.072625816 0.074416764
0.37646905 0.07105431 0.074110895
0.37655503 0.06948179 0.073804848
0.37664121 0.067908049 0.073498875
0.37672752 0.066333354 0.073192805
0.37689683 0.064844012 0.073133916
0.37706622 0.063354611 0.073075034
0.37723556 0.06186524 0.073016137
0.37740493 0.060375929 0.07295724
0.377657 0.05897516 0.073145658
0.37782627 0.057486326 0.073086783
0.37799555 0.05599758 0.073027916
0.37808231 0.054418445 0.072721675
0.37816924 0.052838266 0.072415397
0.37825632 0.051257014 0.072109066
0.37834343 0.04967472 0.071802698
0.37843072 0.048091233 0.071496278
0.37851813 0.046506763 0.071189821
0.37860566 0.04492119 0.070883393
0.37877536 0.04342851 0.070824362
0.37894508 0.041935891 0.070765346
0.37911481 0.040443331 0.070706323
0.37936646 0.039046377 0.07089483
0.37953612 0.037554264 0.070835829
0.37970579 0.036062211 0.070776828
0.37987542 0.034570187 0.070717841
0.38004509 0.033078074 0.070658833
0.38013315 0.031487614 0.070352212
0.38022137 0.02989608 0.070045479
0.38022819 0.028203964 0.069490962
0.38023534 0.026509613 0.068936363
0.38032401 0.024913728 0.068629526
0.38041288 0.023316741 0.068322569
0.35495776 0.28393403 0.093608305
0.35521662 0.28247806 0.093794495
0.35547534 0.2810232 0.093980722
0.3556416 0.27956098 0.093922913
0.35590017 0.27810767 0.09410914
0.35606638 0.27664599 0.094051346
0.35632479 0.27519438 0.0942377
0.35649091 0.2737332 0.094179928
0.356565 0.27226087 0.093877956
0.35673121 0.27079916 0.093820155
0.35689741 0.26933748 0.093762353
0.35706359 0.26787579 0.093704551
0.35722983 0.26641411 0.093646765
0.35739601 0.26495242 0.093588956
0.35756221 0.26349071 0.093531162
0.35772842 0.26202902 0.093473367
0.35789466 0.26056728 0.093415558
0.35806087 0.25910559 0.093357772
0.35822704 0.25764391 0.09329997
0.35839325 0.25618222 0.093242168
0.35865077 0.25473821 0.093428835
0.35881689 0.253277 0.093371049
0.35889184 0.25179714 0.093068779
0.35905805 0.25033545 0.093010977
0.35922426 0.24887374 0.092953175
0.35948151 0.24743238 0.093139954
0.3596476 0.24597126 0.093082175
0.35981375 0.24451011 0.093024395
0.3599799 0.24304897 0.092966631
0.36014605 0.24158776 0.092908844
0.36031222 0.24012664 0.092851065
0.36047834 0.23866543 0.092793286
0.36064446 0.23720437 0.092735514
0.3607201 0.23571849 0.092432998
0.36079586 0.23423156 0.092130497
0.36087179 0.2327435 0.091827899
0.36094773 0.23125437 0.091525257
0.36093366 0.22973725 0.09097781
0.36100999 0.22824535 0.090674996
0.3610864 0.22675255 0.090372205
0.3610729 0.22522998 0.089824483
0.36114964 0.22373444 0.089521646
0.3612265 0.22223774 0.089218706
0.36121362 0.22070983 0.088670775
0.36129078 0.21921042 0.088367783
0.36145785 0.21774107 0.088309683
0.36153534 0.21623993 0.088006556
0.36170247 0.2147702 0.087948442
0.36186957 0.21330032 0.087890327
0.36194712 0.21179712 0.087587118
0.36211431 0.2103267 0.087528981
0.36219209 0.20882192 0.08722572
0.36227006 0.20731589 0.086922467
0.3624374 0.20584449 0.086864278
0.36251542 0.20433697 0.086560853
0.36268285 0.20286486 0.086502649
0.36285019 0.20139292 0.086444445
0.36301759 0.19992086 0.086386241
0.363096 0.19841063 0.086082809
0.36308569 0.19686046 0.085533999
0.36298674 0.19526881 0.084739842
0.36297688 0.19371372 0.084190831
0.36296737 0.19215655 0.083641738
0.36295804 0.19059712 0.083092615
0.36294895 0.18903559 0.082543343
0.36302868 0.18751386 0.082239479
0.36310852 0.18599117 0.08193551
0.36327687 0.18451053 0.081876956
0.36335686 0.18298614 0.08157292
0.3635253 0.18150488 0.081514359
0.36369371 0.18002364 0.081455782
0.36386216 0.17854246 0.081397206
0.36403054 0.17706123 0.081338644
0.36419898 0.17557999 0.081280068
0.36436743 0.17409873 0.081221499
0.36453584 0.17261755 0.081162937
0.36470431 0.17113632 0.081104361
0.36487266 0.16965508 0.081045792
0.36504114 0.16817391 0.08098723
0.36520955 0.16669267 0.080928653
0.36529037 0.16516122 0.080624327
0.36537132 0.16362873 0.080320045
0.36545238 0.1620951 0.080015577
0.36553359 0.16056043 0.079711191
0.36561492 0.15902472 0.079406701
0.36578363 0.15754077 0.079348028
0.36595237 0.15605676 0.079289339
0.36620826 0.15462685 0.079476565
0.36637691 0.1531435 0.079417907
0.36654562 0.15166008 0.079359256
0.36671427 0.1501767 0.079300605
0.36688292 0.14869332 0.079241946
0.36696479 0.1471532 0.078937285
0.36704671 0.145612 0.078632586
0.36704198 0.14401194 0.078081854
0.36712423 0.14246807 0.077776983
0.36720657 0.14092311 0.077472195
0.36728916 0.13937691 0.077167302
0.36745822 0.1378898 0.077108487
0.36771372 0.13646314 0.07729584
0.36788279 0.13497642 0.077237055
0.36813813 0.13355142 0.077424407
0.36839333 0.13212743 0.077611923
0.36864847 0.13070455 0.07779935
0.3688173 0.12921956 0.077740639
0.36898616 0.12773454 0.077681921
0.36906901 0.12618524 0.077376962
0.36915195 0.12463483 0.077071831
0.3692351 0.12308326 0.076766774
0.36931831 0.12153074 0.076461628
0.36948746 0.12004352 0.076402813
0.36957079 0.11848935 0.076097667
0.36974001 0.11700162 0.076038837
0.36999473 0.11558196 0.076226406
0.37016392 0.11409473 0.076167591
0.37033299 0.11260757 0.076108783
0.37058741 0.1111902 0.076296508
0.37075651 0.10970348 0.076237723
0.37092552 0.10821679 0.076178938
0.37109452 0.10673022 0.076120138
0.37126362 0.1052435 0.076061353
0.3714326 0.10375693 0.076002568
0.37151664 0.10219726 0.075697146
0.37168583 0.10071006 0.075638339
0.37176996 0.09914881 0.07533291
0.37185431 0.097586483 0.075027309
0.37193882 0.096023023 0.074721791
0.37202331 0.09445864 0.074416175
0.37210807 0.092892915 0.074110493
0.37227747 0.091403037 0.074051581
0.37236241 0.089835852 0.073745854
0.37261632 0.088423252 0.07393375
0.37278569 0.086933345 0.073874846
0.37295508 0.085443407 0.073815934
0.37320879 0.084033072 0.07400392
0.37346241 0.082623661 0.074191943
0.37371582 0.081215501 0.074379973
0.37405324 0.079889387 0.07481505
0.37422234 0.078402251 0.07475625
0.37447536 0.07699725 0.074944459
0.3746444 0.075510651 0.074885666
0.37481344 0.074024022 0.074826896
0.37489876 0.072453469 0.07452102
0.37498412 0.070881933 0.074215174
0.37506959 0.069309324 0.073909178
0.37515527 0.067735493 0.07360325
0.37524098 0.066160768 0.073297217
0.37541032 0.064671427 0.073238343
0.37557971 0.063182026 0.073179439
0.37574905 0.061692625 0.073120542
0.37591839 0.060203344 0.073061652
0.37608773 0.058713973 0.073002763
0.3763403 0.05731377 0.073191151
0.37642643 0.05573526 0.072884977
0.3765958 0.05424583 0.072826087
0.37668216 0.052665621 0.072519839
0.37676868 0.05108431 0.07221356
0.37685528 0.049501956 0.071907222
0.37694204 0.047918409 0.071600839
0.37702891 0.046333879 0.071294419
0.37711588 0.044748187 0.070988022
0.3772856 0.043255568 0.070929006
0.37745529 0.041762948 0.07086999
0.37762502 0.040270388 0.070810966
0.37779474 0.038777739 0.07075195
0.37796447 0.037285119 0.070692934
0.37813416 0.035792589 0.070633911
0.37838614 0.034397334 0.07082244
0.37847364 0.032807231 0.070515871
0.37864333 0.031314671 0.070456848
0.37873104 0.029723048 0.070150144
0.37873679 0.028030753 0.069595709
0.37882477 0.026436478 0.069288969
0.37891293 0.024840981 0.068982065
0.35366356 0.28230116 0.093653031
0.35392293 0.28084582 0.093839206
0.35408929 0.27938294 0.093781359
0.35434842 0.27792928 0.093967602
0.35451469 0.27646711 0.093909778
0.3547737 0.27501494 0.094096027
0.35493988 0.27355319 0.094038218
0.35510609 0.27209157 0.093980417
0.35517976 0.27061811 0.093678489
0.35534602 0.26915589 0.093620688
0.35551226 0.26769364 0.093562864
0.35567853 0.26623139 0.093505032
0.3558448 0.26476914 0.093447223
0.35601103 0.26330692 0.093389407
0.35617733 0.26184469 0.093331583
0.35634357 0.26038241 0.093273759
0.35650989 0.25892019 0.093215942
0.35667616 0.25745791 0.093158126
0.35684237 0.25599575 0.093100309
0.3570087 0.25453347 0.093042485
0.35717493 0.25307125 0.092984661
0.3573412 0.25160903 0.092926845
0.35750747 0.25014675 0.092869028
0.35767373 0.24868453 0.092811204
0.35783997 0.24722221 0.092753388
0.35800627 0.24576002 0.092695571
0.35826397 0.24431926 0.092882261
0.35843015 0.24285758 0.092824459
0.35859635 0.24139589 0.092766657
0.35876256 0.23993421 0.092708871
0.35892877 0.23847249 0.092651069
0.35900384 0.23698661 0.09234865
0.35907909 0.23549956 0.092046134
0.35915443 0.23401144 0.091743574
0.35922989 0.23252228 0.091440968
0.3593055 0.23103204 0.09113837
0.35938123 0.22954062 0.090835631
0.35945705 0.22804824 0.090532899
0.35944235 0.22652671 0.089985296
0.35951847 0.22503155 0.089682505
0.35959476 0.2235353 0.089379624
0.35967118 0.222038 0.089076765
0.35974762 0.22053963 0.088773735
0.35982427 0.21904013 0.088470779
0.3599011 0.21753949 0.088167727
0.36006823 0.2160697 0.088109598
0.36023536 0.21459985 0.08805149
0.36040249 0.21313003 0.087993361
0.3604795 0.21162674 0.087690204
0.36064669 0.21015638 0.08763206
0.36072397 0.20865145 0.087328836
0.36080134 0.20714545 0.087025627
0.36087885 0.20563838 0.086722247
0.3610462 0.20416641 0.086664058
0.36121362 0.20269439 0.086605839
0.36129135 0.20118511 0.086302504
0.36145878 0.19971251 0.08624427
0.36153677 0.19820166 0.085940808
0.36152536 0.19665086 0.085392043
0.36151424 0.1950978 0.08484327
0.36150336 0.19354269 0.084294334
0.36140341 0.19194487 0.083500057
0.36139306 0.19038484 0.082950912
0.36147213 0.18886414 0.08264707
0.36155137 0.18734241 0.082343243
0.36163062 0.18581963 0.082039312
0.36170998 0.18429571 0.081735328
0.36187842 0.18281448 0.081676766
0.36195806 0.18128899 0.081372723
0.36212653 0.17980719 0.081314124
0.36229503 0.17832541 0.081255533
0.36246353 0.17684364 0.081196949
0.36263201 0.17536184 0.081138343
0.36288896 0.1739271 0.081325345
0.36305737 0.17244592 0.081266776
0.36322585 0.17096472 0.081208199
0.36339423 0.16948351 0.08114963
0.3635627 0.16800225 0.081091061
0.36373109 0.16652107 0.081032492
0.36381137 0.16498953 0.080728211
0.36389181 0.16345695 0.080423951
0.36397231 0.16192332 0.080119535
0.36405298 0.16038856 0.079815179
0.36413375 0.15885276 0.079510733
0.36430249 0.15736881 0.079452053
0.36447123 0.15588489 0.079393372
0.36472768 0.15445504 0.079580545
0.36489633 0.15297157 0.079521902
0.36506504 0.15148816 0.079463243
0.36514613 0.14994913 0.079158671
0.36531487 0.14846525 0.079099998
0.3653962 0.14692447 0.078795359
0.36547765 0.14538264 0.078490667
0.36547196 0.14378199 0.077939935
0.36555377 0.1422374 0.077635191
0.36563563 0.14069182 0.077330358
0.36580473 0.13920471 0.077271551
0.36597383 0.13771749 0.077212751
0.36622986 0.13629085 0.077400059
0.36648583 0.13486528 0.077587351
0.36665484 0.13337922 0.077528588
0.36691058 0.13195536 0.077716067
0.36716622 0.13053244 0.077903464
0.36733508 0.12904748 0.077844739
0.36741731 0.12749866 0.077539839
0.36749971 0.1259487 0.077234767
0.36758226 0.12439767 0.076929778
0.3676649 0.12284559 0.076624684
0.36774758 0.12129247 0.076319613
0.36791676 0.11980474 0.07626079
0.3679997 0.11824986 0.075955525
0.36816895 0.11676157 0.075896665
0.36842424 0.11534148 0.076084301
0.36859339 0.11385381 0.076025471
0.36876258 0.11236602 0.075966641
0.36901772 0.11094806 0.076154239
0.36918682 0.10946086 0.076095432
0.36935592 0.10797369 0.076036625
0.36961073 0.10655794 0.076224364
0.3697798 0.10507119 0.076165579
0.36986324 0.10351208 0.075860202
0.37003234 0.10202491 0.07580141
0.37011585 0.10046422 0.075496025
0.37019962 0.098902345 0.075190485
0.37028351 0.097339362 0.074885018
0.37036747 0.095775366 0.074579462
0.37045154 0.094210267 0.074273862
0.370621 0.0927203 0.07421495
0.37070528 0.091153562 0.073909275
0.37087476 0.089663178 0.073850341
0.37095916 0.088094771 0.073544607
0.3712137 0.08668223 0.073732466
0.37138316 0.085191816 0.073673539
0.37163746 0.083780915 0.073861465
0.37189156 0.082371145 0.074049443
0.37214568 0.08096239 0.074237451
0.37239957 0.079554737 0.074425459
0.37273797 0.078229904 0.074860506
0.37290707 0.076742679 0.074801706
0.3731606 0.075338334 0.074989885
0.3732453 0.073768318 0.074684091
0.3734144 0.072281122 0.074625291
0.37349918 0.070709527 0.074319482
0.37350002 0.069051862 0.073766485
0.3735851 0.067477554 0.073460519
0.37375441 0.065988213 0.07340163
0.3738398 0.064412236 0.07309559
0.37400922 0.062922299 0.073036686
0.37426251 0.06152007 0.073224947
0.37443182 0.060030788 0.073166057
0.37460113 0.058541417 0.073107176
0.37477052 0.057052046 0.073048279
0.37493989 0.055562705 0.072989389
0.37502569 0.053982913 0.072683193
0.37511158 0.05240199 0.072376966
0.37528104 0.050911665 0.07231804
0.37536711 0.049329191 0.072011754
0.37545329 0.047745615 0.071705416
0.3755396 0.046160996 0.071399018
0.37562609 0.044575244 0.071092665
0.37579581 0.043082654 0.071033642
0.37596548 0.041590005 0.070974618
0.37613523 0.040097386 0.070915602
0.37630495 0.038604826 0.070856586
0.37647465 0.037112176 0.07079757
0.37664437 0.035619557 0.070738539
0.37681407 0.034126967 0.070679516
0.37698385 0.032634318 0.070620507
0.37707093 0.031043231 0.070313871
0.37724072 0.029550016 0.070254818
0.37732798 0.027957231 0.069948129
0.3774153 0.026363432 0.069641382
0.3775852 0.024869174 0.069582298
0.35236943 0.28066829 0.093697757
0.35253581 0.27920496 0.09363988
0.35279557 0.27775079 0.09382607
0.3529619 0.27628797 0.093768224
0.35312825 0.27482516 0.093710378
0.35338774 0.27337319 0.093896642
0.35355398 0.27191088 0.093838826
0.3536272 0.27043682 0.093536861
0.35379353 0.26897407 0.093479022
0.35386693 0.26749834 0.093176991
0.35403332 0.26603499 0.09311913
0.35419968 0.2645717 0.093061268
0.35436609 0.26310837 0.093003407
0.35453248 0.26164502 0.092945531
0.3546989 0.26018167 0.092887677
0.35495779 0.25873458 0.093074135
0.35512415 0.25727186 0.093016289
0.35529047 0.25580898 0.09295845
0.35536444 0.2543284 0.092656232
0.3555308 0.25286511 0.092598364
0.35569718 0.25140175 0.092540503
0.3558636 0.24993846 0.092482641
0.35602999 0.24847513 0.09242478
0.35628846 0.24703231 0.092611402
0.35645479 0.24556956 0.092553571
0.35662112 0.24410674 0.092495725
0.35678741 0.24264404 0.092437878
0.35695374 0.24118116 0.092380039
0.35712013 0.23971841 0.092322193
0.35728639 0.23825565 0.092264362
0.35736111 0.23676851 0.091961883
0.35752749 0.23530522 0.091904014
0.35760233 0.23381656 0.091601476
0.35767737 0.23232675 0.091298938
0.35766104 0.23080939 0.090751536
0.35773635 0.22931692 0.090448894
0.35781181 0.22782332 0.090146095
0.35788733 0.22632867 0.089843377
0.35796297 0.22483289 0.089540556
0.35803881 0.22333604 0.08923775
0.35811466 0.22183815 0.088934779
0.35819075 0.22033909 0.088631883
0.35826692 0.21883902 0.088328891
0.35843405 0.21736917 0.088270761
0.35860118 0.21589935 0.088212654
0.35876828 0.2144295 0.088154525
0.35893542 0.21295971 0.08809641
0.35901192 0.21145642 0.087793283
0.35908857 0.20995197 0.087490112
0.35916537 0.20844644 0.087186962
0.3592422 0.20693988 0.086883649
0.35940963 0.20546782 0.086825445
0.35948676 0.20395958 0.086522192
0.35965419 0.20248699 0.086463958
0.35982162 0.20101449 0.086405732
0.35989898 0.19950408 0.086102322
0.35997644 0.19799256 0.085798874
0.35996401 0.19644108 0.085250236
0.35995182 0.19488743 0.084701449
0.3599399 0.19333163 0.084152624
0.35992825 0.19177359 0.083603658
0.35991681 0.19021341 0.08305461
0.35999534 0.18869269 0.082750797
0.3599844 0.18712875 0.082201652
0.36015272 0.18564805 0.082143113
0.36023158 0.18412411 0.081839174
0.36031058 0.18259907 0.081535198
0.36047909 0.18111724 0.081476599
0.36064762 0.17963552 0.081418008
0.36081606 0.17815372 0.081359409
0.36098456 0.17667189 0.081300825
0.36115307 0.17519021 0.081242226
0.36132154 0.17370838 0.081183635
0.36157894 0.17227432 0.081370614
0.36174744 0.17079306 0.081312038
0.36191583 0.16931182 0.081253469
0.36208424 0.16783062 0.0811949
0.36225262 0.16634944 0.081136331
0.36233246 0.1648179 0.080832087
0.36241227 0.1632852 0.080527872
0.36249226 0.16175145 0.080223486
0.3625724 0.16021663 0.079919167
0.36265263 0.15868086 0.079614766
0.36282134 0.15719682 0.079556093
0.36299008 0.15571293 0.079497404
0.3632471 0.15428311 0.079684541
0.36341575 0.1527997 0.079625897
0.36358443 0.15131634 0.079567231
0.36366498 0.14977717 0.079262704
0.36374569 0.14823696 0.078958124
0.36382663 0.14669564 0.078653485
0.36390752 0.14515328 0.07834889
0.36398864 0.14360976 0.078044116
0.36406991 0.14206511 0.07773941
0.36423892 0.1405786 0.077680632
0.36440796 0.13909188 0.077621847
0.36457703 0.13760525 0.077563055
0.36483356 0.13617927 0.077750295
0.36500254 0.13469315 0.07769154
0.36525887 0.1332688 0.077878945
0.36551517 0.13184544 0.078066289
0.36568403 0.13036036 0.078007564
0.36576566 0.12881204 0.077702716
0.36593455 0.12732658 0.077643983
0.36601639 0.1257765 0.077338956
0.3660984 0.12422538 0.077033989
0.36609349 0.12260777 0.076482736
0.36617574 0.12105399 0.076177567
0.36634499 0.11956573 0.076118715
0.36642751 0.11801025 0.075813577
0.36659676 0.11652151 0.075754717
0.36685264 0.11510095 0.075942159
0.36702189 0.11361256 0.075883314
0.36719111 0.11212432 0.075824469
0.36744681 0.11070594 0.07601212
0.36761597 0.10921818 0.075953297
0.36787149 0.10780141 0.076140881
0.36804062 0.10631418 0.076082073
0.36820972 0.10482705 0.076023273
0.36837882 0.10333976 0.075964466
0.36846182 0.10177952 0.075659156
0.36863092 0.10029185 0.075600334
0.36871412 0.098729908 0.075294837
0.36879751 0.097166836 0.074989401
0.3688809 0.095602751 0.074683867
0.36896446 0.094037622 0.074378304
0.36904815 0.092471361 0.074072696
0.36921766 0.090980887 0.074013762
0.36930147 0.089413017 0.073708087
0.36947101 0.087922007 0.073649131
0.36964053 0.086431116 0.073590167
0.3698101 0.084940076 0.073531218
0.36997962 0.083449066 0.073472261
0.37023449 0.082038194 0.07366015
0.37057441 0.080709159 0.074094951
0.37082896 0.079301 0.074282952
0.37108332 0.077894032 0.074470945
0.37142265 0.076570392 0.074905954
0.37159175 0.075083286 0.074847147
0.3717609 0.07359603 0.074788347
0.37184507 0.072024941 0.074482597
0.37192947 0.070452631 0.074176691
0.37201402 0.068879336 0.073870853
0.37209857 0.067304969 0.073564932
0.37218326 0.065729439 0.073258951
0.37235272 0.064239591 0.07320004
0.37252212 0.062749594 0.073141135
0.37269151 0.061259776 0.073082224
0.37286094 0.059769899 0.073023297
0.37303036 0.058279961 0.072964393
0.37319976 0.056790024 0.072905473
0.37336916 0.055300146 0.072846562
0.37345448 0.053719789 0.072540388
0.37362394 0.052229315 0.072481453
0.37370938 0.050647408 0.072175235
0.37379497 0.049064308 0.071868941
0.37388074 0.047480106 0.071562625
0.37405041 0.045988053 0.071503632
0.37413633 0.044402301 0.071197301
0.37430599 0.042909652 0.071138285
0.37439212 0.041322291 0.070831835
0.37456194 0.039829075 0.070772797
0.37473172 0.038335949 0.070713744
0.37490144 0.036842793 0.070654713
0.37507123 0.035349697 0.070595667
0.37524101 0.033856541 0.070536621
0.37541083 0.032363325 0.070477575
0.37558061 0.030870259 0.070418544
0.37575039 0.029377043 0.070359498
0.37583709 0.027784169 0.07005284
0.3760069 0.026290476 0.069993772
0.35107529 0.27903539 0.093742467
0.35124165 0.2775721 0.093684614
0.35140803 0.27610871 0.093626738
0.35157445 0.27464542 0.093568884
0.35174078 0.27318209 0.093511023
0.35190719 0.27171883 0.093453154
0.35207358 0.27025548 0.093395293
0.35214642 0.2687797 0.093093306
0.35231286 0.26731589 0.093035422
0.35247937 0.26585194 0.092977539
0.35264578 0.26438814 0.092919663
0.35281226 0.26292425 0.092861772
0.35297868 0.26146042 0.092803888
0.35314515 0.25999653 0.092746012
0.3533116 0.25853273 0.092688121
0.35347801 0.25706878 0.092630245
0.35364452 0.25560492 0.092572354
0.35381097 0.25414103 0.092514463
0.35397741 0.2526772 0.092456587
0.35414386 0.25121331 0.092398703
0.35431027 0.24974942 0.092340812
0.35447675 0.24828562 0.092282936
0.35464317 0.24682173 0.09222506
0.35490224 0.24537888 0.09241163
0.35506859 0.24391562 0.092353769
0.35523501 0.24245226 0.092295915
0.35540137 0.240989 0.092238039
0.35556775 0.23952559 0.092180185
0.35573417 0.23806229 0.092122324
0.35580838 0.23657462 0.09181986
0.3558827 0.2350859 0.091517411
0.35595715 0.233596 0.091214806
0.35603172 0.23210514 0.090912215
0.3561064 0.23061308 0.090609632
0.35608932 0.2290929 0.090062253
0.35616437 0.22759819 0.089759499
0.35623947 0.22610235 0.089456782
0.35631472 0.22460544 0.089153893
0.35648173 0.22313666 0.089095801
0.35655713 0.22163817 0.08879298
0.35663277 0.22013849 0.088490039
0.3567999 0.2186687 0.088431917
0.35696703 0.21719882 0.08837381
0.35713416 0.21572909 0.088315681
0.35730127 0.21425924 0.088257566
0.3574684 0.21278942 0.088199444
0.3575443 0.21128604 0.087896362
0.35762048 0.20978144 0.087593235
0.35769671 0.20827594 0.087290123
0.35777301 0.20676929 0.086986855
0.35784957 0.20526144 0.086683646
0.358017 0.20378897 0.086625412
0.35809365 0.20227963 0.086322092
0.35826117 0.2008065 0.08626385
0.358338 0.19929552 0.085960463
0.35841498 0.19778338 0.08565703
0.35849211 0.19627023 0.085353628
0.35847884 0.19471642 0.084804907
0.35846588 0.19316044 0.084256157
0.35845309 0.19160238 0.083707266
0.35844055 0.19004208 0.083158292
0.3585186 0.18852127 0.082854524
0.35859668 0.18699932 0.082550764
0.35867488 0.18547648 0.082246915
0.35875317 0.18395248 0.08194302
0.35883164 0.18242735 0.081639066
0.35900015 0.18094555 0.081580475
0.35916865 0.17946377 0.081521869
0.35933715 0.17798203 0.081463292
0.35950565 0.17650026 0.081404701
0.3596741 0.17501843 0.081346095
0.3598426 0.17353675 0.081287518
0.36010057 0.17210272 0.081474453
0.36026901 0.17062142 0.081415884
0.36043742 0.16914019 0.081357315
0.36060587 0.16765904 0.081298739
0.36077425 0.16617778 0.08124017
0.36085349 0.16464615 0.08093597
0.3609328 0.16311353 0.080631778
0.36092314 0.16152823 0.080081813
0.36109182 0.16004476 0.080023155
0.36117148 0.15850884 0.079718791
0.36134022 0.15702495 0.079660118
0.361509 0.15554097 0.079601437
0.36176649 0.15411124 0.079788536
0.3619352 0.15262783 0.079729877
0.36201516 0.15108916 0.079425409
0.36218387 0.14960527 0.079366729
0.3622641 0.14806491 0.079062179
0.36234438 0.14652357 0.078757599
0.36242482 0.14498118 0.078453019
0.36250535 0.14343759 0.078148291
0.36258611 0.14189288 0.077843629
0.36275512 0.14040631 0.077784851
0.36292416 0.13891956 0.077726074
0.36318129 0.13749313 0.07791324
0.36343831 0.13606772 0.07810057
0.3636072 0.13458228 0.078041829
0.36386412 0.13315839 0.078229114
0.36403295 0.13167334 0.078170404
0.36420184 0.13018835 0.078111671
0.36428294 0.12863991 0.07780686
0.36436418 0.12709042 0.077501893
0.36444557 0.12553978 0.077197
0.36452702 0.12398818 0.076892003
0.36460865 0.12243533 0.076587029
0.36469033 0.12088153 0.07628189
0.36477223 0.11932662 0.075976819
0.36485413 0.11777058 0.075671658
0.36502349 0.11628121 0.075612769
0.36519289 0.11479181 0.075553887
0.36544934 0.11337131 0.075741336
0.36561865 0.11188251 0.075682476
0.36587489 0.11046365 0.075869948
0.36604416 0.10897532 0.075811103
0.36630023 0.10755813 0.075998753
0.36646938 0.10607037 0.075939931
0.36663857 0.10458264 0.075881101
0.36680773 0.10309485 0.075822279
0.36697692 0.10160717 0.075763442
0.36705953 0.10004571 0.075457998
0.36722869 0.098557442 0.07539916
0.36731154 0.0969944 0.075093769
0.36739439 0.095430166 0.074788287
0.36747739 0.093864977 0.074482761
0.3675606 0.092298627 0.074177168
0.36773005 0.090808153 0.074118249
0.36781332 0.089240253 0.073812604
0.3678968 0.087671191 0.073506929
0.3680664 0.086179703 0.07344795
0.36823595 0.084688157 0.073388971
0.36840561 0.08319664 0.073329993
0.36866102 0.081785351 0.073517822
0.36891639 0.080375135 0.073705703
0.36925727 0.079047292 0.074140474
0.36951223 0.077639729 0.07432846
0.36976716 0.076233298 0.074516416
0.37002185 0.074827999 0.07470455
0.37019101 0.073340237 0.074645728
0.37036023 0.071852505 0.074586898
0.37044406 0.070280194 0.074281022
0.37052798 0.06870684 0.07397522
0.37061206 0.067132354 0.073669344
0.37069625 0.065556824 0.073363394
0.37078056 0.063980162 0.073057413
0.37095004 0.062489688 0.072998486
0.37111956 0.060999334 0.072939552
0.37128901 0.05950889 0.072880611
0.37145847 0.058018416 0.072821677
0.37162796 0.056528002 0.072762743
0.37179741 0.055037469 0.072703823
0.37188217 0.053456634 0.072397664
0.37205172 0.051965624 0.072338708
0.37213671 0.050382972 0.072032489
0.37222183 0.048799366 0.071726225
0.37239152 0.047307253 0.071667224
0.37247682 0.045721948 0.071360961
0.37256223 0.04413563 0.071054593
0.37273198 0.042642444 0.070995539
0.3729018 0.041149259 0.070936516
0.37298745 0.039560616 0.070630059
0.37315726 0.038066983 0.07057099
0.37332714 0.036573261 0.070511922
0.37349701 0.035079569 0.070452861
0.37366682 0.033585876 0.070393801
0.3738367 0.032092154 0.07033474
0.37400651 0.030598521 0.070275679
0.37417635 0.029104769 0.070216611
0.37434623 0.027611047 0.070157543
0.37451604 0.026117414 0.070098482
0.34968662 0.27739334 0.093543224
0.34985307 0.27592945 0.093485355
0.35001957 0.27446553 0.093427464
0.35018599 0.2730017 0.093369588
0.35025823 0.27152649 0.093067706
0.35042477 0.27006203 0.0930098
0.35059124 0.26859766 0.092951894
0.35066375 0.26712015 0.092649817
0.35083035 0.26565516 0.092591897
0.35099688 0.26419026 0.092533961
0.35116348 0.26272526 0.092476033
0.35133007 0.2612603 0.092418104
0.35149661 0.25979543 0.092360184
0.35175687 0.25834677 0.09254656
0.35192338 0.25688237 0.092488647
0.35208988 0.25541794 0.092430755
0.35216293 0.25393558 0.092128485
0.35232952 0.25247064 0.092070542
0.35249609 0.25100562 0.092012621
0.35275596 0.2495603 0.092199132
0.35292244 0.24809593 0.092141218
0.35308897 0.24663147 0.09208332
0.35325548 0.24516711 0.092025414
0.353515 0.24372438 0.092211902
0.35368145 0.24226049 0.092154019
0.35384792 0.24079666 0.092096128
0.35401434 0.2393328 0.092038251
0.35408804 0.23784503 0.091735885
0.3541618 0.23635614 0.091433354
0.35423571 0.23486632 0.091130845
0.35430971 0.23337531 0.090828359
0.35438392 0.23188323 0.090525687
0.35445818 0.23039007 0.090223104
0.35453257 0.22889578 0.089920431
0.35460711 0.22740048 0.089617759
0.3546817 0.22590402 0.089314938
0.35475647 0.22440654 0.089012183
0.35492355 0.22293723 0.088954091
0.35499853 0.22143814 0.088651203
0.35516569 0.21996823 0.088593081
0.35533282 0.21849844 0.088534966
0.35549995 0.21702859 0.088476844
0.35566708 0.21555877 0.088418722
0.35583422 0.21408892 0.0883606
0.35600135 0.21261904 0.088302486
0.35607669 0.2111156 0.087999433
0.35615233 0.20961109 0.087696351
0.35622802 0.20810544 0.087393284
0.35630378 0.20659873 0.087090038
0.35637975 0.20509091 0.086786874
0.35645589 0.20358202 0.08648362
0.35662332 0.20210889 0.086425364
0.35669959 0.20059836 0.086122036
0.35677594 0.19908682 0.085818663
0.35685247 0.19757408 0.085515313
0.35692909 0.19606033 0.085211858
0.35700583 0.19454545 0.084908366
0.35699177 0.19298935 0.084359691
0.35697794 0.19143111 0.083810896
0.35705519 0.18991184 0.08350721
0.35704178 0.18834981 0.082958251
0.35711935 0.18682784 0.082654536
0.35719699 0.18530497 0.082350716
0.35727471 0.18378088 0.082046859
0.35744321 0.18229955 0.081988275
0.35752121 0.18077391 0.081684351
0.35768971 0.17929208 0.08162576
0.35785818 0.17781031 0.081567168
0.35802668 0.17632857 0.081508569
0.35819519 0.17484674 0.081449986
0.35836366 0.17336497 0.081391394
0.35862219 0.171931 0.081578299
0.35879061 0.17044982 0.081519723
0.35895896 0.16896865 0.081461154
0.35912746 0.16748732 0.081402577
0.35929587 0.16600621 0.081344008
0.35937455 0.16447446 0.081039846
0.35936356 0.16289067 0.080490023
0.35944253 0.1613563 0.080185808
0.35952163 0.15982088 0.079881497
0.35969043 0.15833688 0.079822823
0.35985911 0.15685302 0.079764143
0.36002788 0.15536904 0.079705462
0.36028591 0.15393934 0.079892531
0.36045462 0.15245596 0.07983388
0.36053407 0.15091723 0.079529434
0.36070275 0.14943337 0.079470754
0.36078238 0.14789298 0.079166248
0.3608622 0.14635152 0.078861691
0.36094201 0.14480904 0.078557171
0.36102206 0.14326537 0.078252472
0.36119103 0.1417793 0.078193717
0.36136004 0.14029321 0.078134947
0.36161771 0.13886675 0.078322195
0.3617866 0.1373812 0.078263462
0.36204419 0.13595638 0.07845065
0.36221302 0.13447142 0.078391939
0.36238191 0.13298634 0.078333214
0.36255074 0.13150132 0.078274496
0.3627196 0.1300163 0.078215778
0.36280018 0.12846783 0.077911004
0.36288089 0.1269182 0.077606082
0.36296168 0.12536755 0.077301219
0.36295453 0.12375075 0.076750144
0.36303562 0.12219739 0.07644508
0.36311692 0.1206429 0.076140068
0.36319822 0.1190874 0.07583496
0.36336759 0.11759803 0.075776078
0.36344916 0.11604083 0.075470909
0.36361855 0.11455092 0.07541199
0.36387563 0.11312997 0.075599387
0.36404499 0.1116406 0.075540498
0.36430192 0.11022118 0.075727984
0.3644712 0.10873234 0.075669095
0.36472788 0.10731462 0.075856581
0.3648971 0.10582635 0.075797737
0.36515364 0.10441026 0.075985394
0.36523557 0.10284978 0.075680032
0.36540481 0.10136151 0.075621188
0.36557403 0.099873304 0.075562336
0.36565623 0.09831062 0.075257018
0.36573851 0.096747011 0.074951589
0.36590785 0.09525761 0.074892692
0.36599031 0.093692333 0.074587211
0.36607295 0.092125952 0.07428167
0.36615568 0.090558439 0.073976085
0.3662385 0.088989854 0.073670462
0.36640811 0.087498367 0.073611498
0.36649117 0.085928142 0.073305801
0.36666083 0.084436059 0.073246792
0.3668305 0.082944006 0.073187798
0.36700013 0.081451982 0.073128805
0.36734238 0.080121636 0.073563397
0.36759821 0.078711867 0.073751256
0.36794004 0.077385366 0.07418599
0.36819556 0.075978369 0.074373946
0.36845091 0.074572593 0.074561909
0.36862013 0.073084325 0.074503057
0.36878932 0.071596086 0.074444219
0.36887273 0.070023119 0.074138477
0.36895615 0.068449199 0.073832631
0.36903971 0.066874117 0.073526762
0.36912346 0.065297902 0.073220842
0.36929291 0.063807487 0.073161907
0.36937681 0.062229753 0.072855927
0.36954632 0.060738802 0.072796956
0.3697159 0.059247762 0.072738007
0.36988541 0.057756811 0.072679058
0.36996964 0.056176275 0.072372958
0.37013924 0.054684758 0.072313979
0.37030882 0.053193212 0.072255015
0.37047845 0.051701635 0.072196022
0.37056294 0.050118536 0.071889825
0.37073261 0.048626393 0.071830824
0.37081724 0.047041684 0.07152462
0.37090212 0.045455754 0.071218312
0.37107188 0.043962598 0.071159273
0.37115693 0.042374939 0.070852891
0.37132677 0.040881246 0.07079383
0.37141192 0.039292127 0.070487395
0.37158185 0.037797928 0.070428312
0.37175173 0.036303699 0.070369229
0.37192166 0.03480947 0.070310138
0.37200707 0.033217609 0.070003666
0.37217712 0.031722724 0.069944553
0.37234709 0.030227959 0.069885455
0.37251705 0.028733164 0.069826335
0.37268701 0.027238458 0.069767229
0.37294108 0.025843978 0.06995564
0.34820214 0.27574012 0.093100064
0.3483687 0.27427518 0.093042158
0.34853527 0.27281022 0.092984222
0.34860706 0.27133384 0.092682287
0.34877372 0.26986837 0.092624329
0.34894031 0.26840287 0.092566393
0.34901246 0.26692423 0.092264429
0.34917915 0.2654582 0.092206456
0.34934586 0.26399219 0.092148483
0.34960687 0.26254091 0.092334591
0.3497735 0.26107535 0.092276648
0.34994015 0.25960994 0.092218697
0.35010678 0.25814441 0.092160746
0.3502734 0.25667891 0.092102803
0.35044006 0.25521338 0.092044853
0.35060671 0.25374791 0.091986902
0.35077333 0.25228241 0.091928959
0.3510339 0.2508359 0.092115328
0.35120046 0.24937099 0.092057392
0.35136706 0.247906 0.091999464
0.35153362 0.24644107 0.09194155
0.35170019 0.24497616 0.091883615
0.3519603 0.24353296 0.09207017
0.35212687 0.24206856 0.092012256
0.35229334 0.24060419 0.09195435
0.35236651 0.23911631 0.091651902
0.35253307 0.23765138 0.091593988
0.35260633 0.23616195 0.091291532
0.35267979 0.23467138 0.090989098
0.35275334 0.23317981 0.090686493
0.35273394 0.23166108 0.090139389
0.35280776 0.23016679 0.089836806
0.35288176 0.22867134 0.089534059
0.35295588 0.22717482 0.089231379
0.35312295 0.22570556 0.08917328
0.35319722 0.22420749 0.088870481
0.35336435 0.22273764 0.088812359
0.35343879 0.2212379 0.088509507
0.35360599 0.21976751 0.088451371
0.35377321 0.21829712 0.088393219
0.35394037 0.21682674 0.088335089
0.35420001 0.21538842 0.088521771
0.35436714 0.2139186 0.088463649
0.35453427 0.21244875 0.08840552
0.35460913 0.21094528 0.08810252
0.35468417 0.20944062 0.08779946
0.35475934 0.20793495 0.087496422
0.35483462 0.20642814 0.087193236
0.35491002 0.20492029 0.086890094
0.35498556 0.20341134 0.086586885
0.35506123 0.20190123 0.086283609
0.35522875 0.20042759 0.086225346
0.35530454 0.19891602 0.085922018
0.35538056 0.19740313 0.085618697
0.35545662 0.19588935 0.085315287
0.3555328 0.19437444 0.085011825
0.35551769 0.19281819 0.084463231
0.35559416 0.19130054 0.084159598
0.35557944 0.18974054 0.083610862
0.35556498 0.1881783 0.083061971
0.35564199 0.18665636 0.082758293
0.35571906 0.18513337 0.082454517
0.35579634 0.18360922 0.082150683
0.35596478 0.18212795 0.082092121
0.35604221 0.18060219 0.081788227
0.35621071 0.17912042 0.081729628
0.35637918 0.17763868 0.081671044
0.35654768 0.17615691 0.081612445
0.35671619 0.17467514 0.081553854
0.35688466 0.17319334 0.08149527
0.35705313 0.17171165 0.081436679
0.35731217 0.17027816 0.081623554
0.35748059 0.16879693 0.081564993
0.35764903 0.16731569 0.081506416
0.35772705 0.16578454 0.081202313
0.35780528 0.16425222 0.080898225
0.35788357 0.16271892 0.080593988
0.35796195 0.1611844 0.080289811
0.35804051 0.15964893 0.079985522
0.35820928 0.15816498 0.079926848
0.35837799 0.15668103 0.079868175
0.35854673 0.15519705 0.079809487
0.35871542 0.15371323 0.079750814
0.35888416 0.15222928 0.07969214
0.35905293 0.1507453 0.079633459
0.35922167 0.14926136 0.079574786
0.3593007 0.14772099 0.079270318
0.35937995 0.14617947 0.078965798
0.35945931 0.14463684 0.078661308
0.35953876 0.14309323 0.078356653
0.35979718 0.14166576 0.078543827
0.35996604 0.1401802 0.078485079
0.36022425 0.13875437 0.078672215
0.36039305 0.13726935 0.078613482
0.36065114 0.13584509 0.078800723
0.36081991 0.13436061 0.078742027
0.36098868 0.13287619 0.078683332
0.36106852 0.13132927 0.07837861
0.36123738 0.12984422 0.078319885
0.36131743 0.12829572 0.078015149
0.36139759 0.126746 0.077710263
0.36138919 0.12513065 0.07715933
0.3614696 0.12357837 0.076854452
0.36155015 0.12202492 0.076549411
0.3615424 0.12040415 0.075998262
0.36171168 0.11891484 0.075939372
0.36179268 0.11735812 0.075634263
0.36196208 0.11586818 0.075575352
0.36213151 0.11437827 0.07551644
0.3623009 0.11288843 0.075457528
0.3624703 0.11139852 0.075398609
0.36272782 0.10997862 0.075586021
0.36298519 0.10855985 0.07577347
0.36315453 0.10707104 0.075714603
0.36341166 0.10565385 0.075902067
0.36358088 0.10416558 0.075843215
0.36375013 0.10267738 0.07578437
0.36391935 0.10118905 0.075725526
0.36400095 0.099626988 0.075420253
0.3640826 0.098063737 0.075114883
0.36425197 0.096574426 0.075056002
0.36433387 0.095009536 0.074750558
0.36441582 0.093443662 0.074445084
0.36449796 0.091876715 0.074139565
0.36466751 0.090385675 0.074080616
0.36474982 0.08881703 0.073775023
0.36483222 0.087247342 0.0734694
0.36491477 0.085676581 0.073163785
0.36499745 0.084104776 0.07285808
0.36516726 0.082611591 0.072799027
0.36542395 0.081198722 0.072986729
0.36568052 0.079787016 0.07317441
0.36593693 0.078376353 0.073362187
0.36628008 0.077048779 0.073796809
0.3665362 0.075640917 0.073984683
0.3667922 0.074234098 0.074172616
0.36704811 0.072828293 0.074360594
0.36721739 0.071339458 0.07430172
0.36730024 0.069765985 0.07399594
0.36738327 0.06819135 0.073690124
0.36746633 0.066615671 0.073384263
0.36763582 0.065125197 0.073325329
0.36771911 0.063547939 0.0730194
0.36780253 0.061969548 0.072713435
0.36797211 0.060478061 0.072654456
0.3680557 0.058898062 0.072348431
0.3682254 0.057406008 0.072289415
0.36839503 0.055913895 0.072230428
0.36856467 0.054421812 0.07217142
0.36873436 0.052929759 0.072112426
0.36881834 0.051346511 0.071806319
0.36898804 0.049853951 0.071747288
0.3690722 0.048269033 0.071441069
0.36924201 0.046775877 0.071382031
0.36932629 0.045189321 0.071075745
0.36941081 0.043601751 0.070769399
0.36958069 0.042107493 0.070710316
0.36966532 0.040518254 0.070403986
0.36983532 0.039023519 0.070344873
0.37000525 0.037528753 0.070285767
0.37009016 0.035937279 0.069979228
0.37026021 0.034441978 0.069920093
0.37034526 0.032848984 0.069613606
0.37051538 0.031353056 0.069554463
0.37068549 0.029857248 0.069495305
0.37085557 0.02836132 0.069436163
0.37102565 0.026865542 0.069377013
0.37128037 0.025470018 0.069565333
0.34671569 0.27408457 0.092657045
0.34688237 0.2726185 0.092599086
0.34695381 0.27114093 0.09229707
0.34712055 0.26967445 0.092239082
0.34719211 0.26819521 0.091937132
0.34735891 0.2667281 0.091879129
0.34752578 0.26526099 0.091821112
0.34778756 0.26380804 0.092007115
0.34795436 0.2623415 0.091949128
0.34821597 0.26089022 0.092135325
0.34838265 0.25942415 0.092077352
0.34854934 0.25795817 0.092019379
0.34871605 0.25649211 0.091961414
0.34888273 0.2550261 0.091903448
0.34914398 0.2535781 0.092089638
0.34931064 0.25211254 0.092031695
0.34947726 0.25064713 0.091973752
0.34964392 0.2491816 0.091915786
0.34981057 0.24771613 0.091857851
0.35007143 0.24627134 0.092044234
0.350238 0.24480638 0.091986313
0.35040459 0.24334145 0.091928378
0.35057116 0.24187642 0.091870457
0.35064369 0.24038863 0.09156812
0.35081035 0.23892316 0.091510162
0.35088313 0.23743358 0.09120781
0.35095599 0.23594302 0.090905286
0.35102898 0.23445144 0.090602852
0.35110217 0.23295859 0.090300307
0.3511754 0.2314648 0.089997783
0.35115519 0.22994322 0.089450568
0.35132226 0.22847396 0.089392483
0.35139591 0.22697684 0.089089766
0.35156304 0.22550696 0.089031637
0.35163683 0.22400829 0.088728875
0.35180405 0.22253785 0.088670723
0.35197121 0.22106752 0.088612586
0.35213843 0.2195971 0.088554442
0.35230562 0.21812674 0.088496298
0.35247278 0.21665639 0.088438168
0.35263997 0.21518606 0.088380024
0.35280719 0.21371561 0.088321872
0.35297439 0.21224526 0.08826375
0.35314155 0.21077487 0.088205598
0.35321605 0.20927021 0.087902583
0.35329068 0.20776445 0.087599583
0.35336536 0.20625761 0.087296426
0.35334775 0.2047137 0.086748399
0.3535153 0.20324057 0.086690143
0.35359031 0.20173052 0.086386934
0.35366553 0.20021936 0.086083658
0.35383314 0.19874516 0.086025357
0.35390863 0.19723231 0.085722074
0.35398418 0.19571844 0.085418709
0.35405979 0.19420347 0.085115284
0.35413557 0.19268739 0.084811822
0.35411954 0.19112939 0.084263168
0.35410377 0.18956923 0.083714515
0.35417998 0.18804887 0.083410874
0.35416466 0.18648484 0.082862057
0.35424122 0.18496177 0.082558319
0.35431787 0.18343762 0.082254529
0.35448632 0.18195638 0.082195967
0.35465476 0.18047512 0.082137384
0.35473174 0.17894873 0.081833512
0.35490024 0.1774669 0.08177492
0.35506871 0.17598522 0.081716329
0.35523722 0.17450339 0.081657737
0.35540572 0.17302161 0.081599139
0.35557416 0.1715399 0.081540555
0.35574266 0.1700581 0.081481971
0.35591117 0.16857639 0.081423372
0.35607964 0.16709456 0.081364781
0.35624811 0.16561291 0.081306197
0.35632575 0.1640805 0.081002146
0.35640353 0.16254702 0.080697939
0.35648137 0.16101259 0.080393791
0.35655937 0.15947697 0.080089569
0.35672811 0.15799308 0.080030881
0.35689685 0.1565091 0.079972208
0.35706559 0.15502515 0.079913527
0.3572343 0.15354124 0.079854846
0.35740301 0.15205729 0.079796173
0.35757175 0.1505734 0.079737499
0.35774049 0.14908946 0.079678826
0.35781908 0.14754891 0.079374388
0.35789779 0.14600736 0.079069912
0.3579765 0.14446476 0.078765467
0.35814545 0.14297923 0.078706712
0.35831439 0.14149362 0.078647971
0.35857323 0.14006722 0.078835033
0.35883182 0.13864207 0.079022199
0.35900065 0.13715759 0.078963488
0.3592591 0.13573405 0.079150729
0.35933825 0.13418862 0.07884609
0.35950702 0.13270411 0.078787401
0.35958633 0.13115713 0.07848271
0.35966569 0.12960914 0.078178048
0.35974529 0.12805992 0.077873215
0.35982499 0.12650967 0.077568449
0.3599048 0.12495831 0.077263586
0.3599847 0.12340593 0.076958738
0.35997564 0.12178674 0.076407686
0.3600558 0.1202316 0.076102674
0.36013621 0.11867532 0.075797617
0.36030558 0.11718547 0.075738713
0.36038613 0.11562756 0.075433597
0.36055565 0.11413714 0.075374648
0.3607251 0.11264667 0.075315729
0.36098325 0.11122587 0.075503051
0.36115265 0.109736 0.075444147
0.36141065 0.10831672 0.075631529
0.3616685 0.10689852 0.075818978
0.36183777 0.10540971 0.075760111
0.36209545 0.10399312 0.075947545
0.36217633 0.10243207 0.07564237
0.36234564 0.10094327 0.075583503
0.36242667 0.099380583 0.075278193
0.36259606 0.097891182 0.075219296
